# .PCD v0.7 - Point Cloud Data file format
VERSION 0.7
FIELDS x y z rgba
SIZE 4 4 4 4
TYPE F F F U
COUNT 1 1 1 1
WIDTH 934
HEIGHT 1
VIEWPOINT 0 0 0 1 0 0 0
POINTS 934
DATA ascii
0.056487828 0.079344042 0.87856036 4280163862
0.05951589 0.080202274 0.88806337 4278190080
0.062168282 0.080507033 0.89143789 4294836218
0.059371922 0.082419477 0.88591516 4278190080
0.061799679 0.082441553 0.88615245 4278190080
0.064175002 0.082394652 0.88564831 4289770157
0.06669917 0.082535319 0.88716036 4293191393
0.069302917 0.082761206 0.88958836 4294901755
0.05433378 0.084495217 0.88241172 4278190080
0.057186771 0.085167348 0.88943106 4278190080
0.059150886 0.084514871 0.882617 4279835667
0.061253674 0.084103718 0.8783232 4285822832
0.063404046 0.083786339 0.8750087 4286612348
0.065746695 0.083736822 0.87449157 4286678141
0.068242304 0.083878778 0.87597406 4286809214
0.070760086 0.084037475 0.87763143 4286678141
0.073020771 0.083890446 0.87609595 4287401864
0.0568459 0.087066047 0.88412946 4278190080
0.059189815 0.0869743 0.88319784 4280427291
0.06114516 0.086341038 0.87676722 4286743419
0.063107476 0.085764818 0.87091589 4287664775
0.065159 0.085347161 0.86667466 4287664775
0.067435183 0.085242674 0.8656137 4287598982
0.069715343 0.085150093 0.86467355 4287335810
0.071973488 0.085037559 0.86353076 4287204481
0.074128278 0.084813878 0.8612594 4287730825
0.076334879 0.084661372 0.85971075 4287271046
0.078648187 0.084632777 0.85942036 4287401862
0.08108709 0.08473707 0.86047941 4287402632
0.10649622 0.08445739 0.85763937 4289376169
0.10874493 0.084391005 0.85696524 4289573548
0.11106242 0.084379673 0.85685015 4289639341
0.11348553 0.084447391 0.85753781 4289836720
0.11597046 0.084557451 0.85865545 4290099892
0.11815321 0.084447198 0.85753584 4290231226
0.12072279 0.084612332 0.85921276 4290757570
0.12311933 0.084652215 0.85961777 4291217353
0.12605475 0.085054211 0.86369991 4291875283
0.054413076 0.089428887 0.88369954 4278190080
0.055947907 0.088059001 0.8701629 4280493084
0.059028696 0.089134827 0.88079375 4278190080
0.061001301 0.088518597 0.87470442 4285954157
0.063083224 0.088101335 0.87058121 4287862152
0.065045543 0.087553293 0.86516565 4287993738
0.067183711 0.087271966 0.86238569 4288191117
0.069228344 0.08689224 0.8586334 4288322703
0.071328126 0.08660426 0.85578775 4288454802
0.073362015 0.086257033 0.85235655 4288784283
0.075473852 0.086019933 0.85001361 4289376420
0.07761196 0.08582598 0.84809709 4289310627
0.079857059 0.085758127 0.84742659 4289574312
0.082110435 0.085702732 0.84687918 4289705900
0.084395573 0.085682593 0.84668022 4289705900
0.086575843 0.085559905 0.84546781 4289771693
0.088692382 0.085382208 0.84371191 4289837232
0.090999968 0.085392758 0.84381616 4289903025
0.093416601 0.085502595 0.8449015 4289903025
0.095782541 0.085561872 0.84548724 4290166197
0.098014466 0.085501462 0.8448903 4290165685
0.10013708 0.085350648 0.8434 4290560443
0.10240665 0.085329048 0.84318662 4290692029
0.10459454 0.085241832 0.84232473 4291152582
0.1070619 0.085381217 0.84370214 4291481547
0.10951806 0.085506015 0.8449353 4291547340
0.1121159 0.085734017 0.84718835 4291942098
0.11454807 0.085828699 0.84812397 4292205016
0.11695679 0.085902423 0.84885246 4292665569
0.11943509 0.086023398 0.85004789 4292994534
0.12215386 0.086309686 0.85287684 4293257708
0.12526292 0.086855911 0.85827446 4293718259
0.053926818 0.091013394 0.8758024 4280493084
0.056920744 0.091999717 0.88529354 4278190080
0.059451826 0.092188217 0.88710743 4280690463
0.061332293 0.091392517 0.87945056 4284704090
0.063490763 0.091055281 0.87620544 4288059533
0.065318666 0.09028554 0.86879838 4287928458
0.067310818 0.089788683 0.86401725 4287927945
0.069340639 0.089373931 0.86002618 4288389009
0.071487576 0.089132279 0.85770082 4288520595
0.073504798 0.088749297 0.85401547 4288915869
0.075593315 0.088473238 0.85135901 4289376420
0.077640004 0.088166103 0.84840351 4289245347
0.079877764 0.088087417 0.84764636 4289311140
0.082066618 0.087960728 0.8464272 4289640105
0.084292263 0.087879315 0.84564382 4289574312
0.086491264 0.087775186 0.8446418 4289837486
0.088655032 0.087641627 0.84335661 4289903025
0.0910054 0.087694623 0.84386653 4290034611
0.093331359 0.087722063 0.84413058 4290034611
0.095617332 0.087711498 0.84402895 4290297783
0.09788765 0.08768741 0.84379715 4290429370
0.099985562 0.087513529 0.84212393 4290626749
0.10227591 0.087512091 0.8421101 4290889921
0.10451587 0.087468557 0.84169114 4291087046
0.10718764 0.087780513 0.84469306 4291415754
0.10965189 0.087912992 0.84596783 4291613133
0.11219084 0.088098668 0.8477546 4292073684
0.11453014 0.088123262 0.84799123 4292205016
0.11711415 0.088331439 0.84999448 4292731360
0.11951446 0.088395692 0.85061276 4292731875
0.12219944 0.08866404 0.85319507 4293257708
0.12512743 0.089095421 0.85734612 4293849845
0.053911913 0.093371272 0.87556034 4280624413
0.05903092 0.093932912 0.88082695 4280295705
0.061210107 0.093599282 0.87769848 4283256903
0.063431464 0.093352787 0.87538701 4287993997
0.065358594 0.0927068 0.86932945 4287730825
0.067312136 0.092142098 0.86403418 4288125324
0.069208153 0.091539443 0.85838294 4288389009
0.07121747 0.091121107 0.85446012 4288717974
0.073224775 0.090726741 0.85076207 4288850076
0.075356565 0.090506054 0.84869266 4289244834
0.077513389 0.090327673 0.84701997 4289311140
0.079751544 0.090251632 0.84630692 4289574312
0.081951089 0.0901374 0.84523571 4289508519
0.084095091 0.08996997 0.84366572 4289705898
0.086307481 0.089882664 0.84284705 4289903279
0.088523626 0.089803703 0.84210658 4289903279
0.090828933 0.089816883 0.8422302 4289968818
0.093064614 0.089762256 0.84171796 4290166197
0.095293261 0.089703642 0.84116828 4290231990
0.097635604 0.089752294 0.8416245 4290429369
0.099812277 0.089649901 0.84066439 4290758335
0.10214017 0.089684889 0.84099245 4290824128
0.10437576 0.089639068 0.84056276 4291153093
0.10704981 0.089963689 0.84360683 4291416265
0.10951943 0.090106495 0.84494591 4291744976
0.11200642 0.090257414 0.8463611 4291810771
0.11425604 0.090214826 0.84596175 4292337115
0.11683732 0.090430625 0.84798533 4292600289
0.11932719 0.090568684 0.84927994 4292994793
0.12209628 0.090909392 0.85247481 4293389294
0.1249652 0.091310337 0.85623455 4293784052
0.059155468 0.096533515 0.88268536 4278190080
0.061293364 0.096118689 0.8788923 4281611565
0.063486442 0.095818318 0.87614578 4288125326
0.065484494 0.095256008 0.8710041 4287927947
0.067421854 0.09464778 0.86544257 4288059531
0.069298699 0.093998536 0.85950601 4288323216
0.071335569 0.093601666 0.8558771 4288586388
0.073354788 0.093207471 0.85227263 4288784283
0.075537942 0.093039349 0.85073537 4289047455
0.077697121 0.092852585 0.84902763 4289311140
0.079957016 0.092793494 0.84848732 4289442726
0.082192481 0.092710167 0.84772539 4289376933
0.08432965 0.092523538 0.84601885 4289705898
0.086517215 0.092400655 0.84489524 4289837486
0.088762723 0.092344418 0.84438103 4289771693
0.091078833 0.09236262 0.84454745 4290100404
0.093380131 0.092365265 0.84457165 4290166197
0.095576502 0.0922665 0.84366852 4290297783
0.09789975 0.092291974 0.84390146 4290429369
0.1001738 0.092270963 0.84370935 4290560956
0.10244195 0.092245579 0.84347725 4290823874
0.10468234 0.092196859 0.84303176 4291087046
0.10717092 0.092364132 0.84456128 4291416011
0.10971081 0.092567675 0.84642243 4290758081
0.11216462 0.092691697 0.84755647 4292073943
0.11446463 0.092686199 0.84750623 4292139736
0.11706257 0.09291739 0.84962016 4292534494
0.1197822 0.093234338 0.85251832 4292797668
0.12253872 0.093567416 0.85556388 4293323501
0.12556283 0.094088592 0.86032945 4293783282
0.056787744 0.098996416 0.88322496 4278190080
0.059484571 0.099486351 0.88759607 4278190080
0.06120215 0.098364189 0.8775844 4280229912
0.063356087 0.098001309 0.87434685 4287993999
0.065405726 0.097509205 0.86995643 4287665804
0.067432337 0.097018354 0.8655771 4287731595
0.069208525 0.096212506 0.85838753 4288060558
0.071207084 0.095758334 0.85433549 4288455316
0.073232055 0.095367283 0.85084665 4288784283
0.07540983 0.095193088 0.84929252 4288982175
0.077552989 0.094986863 0.84745264 4289113761
0.07978151 0.094894089 0.84662491 4289376933
0.082052119 0.094855167 0.84627765 4289508519
0.084186897 0.094665639 0.84458673 4289442728
0.086349279 0.094516404 0.84325528 4289968818
0.088561565 0.0944281 0.84246743 4289705900
0.090853944 0.094427496 0.84246206 4289968818
0.093102247 0.094382249 0.84205836 4289574060
0.09536577 0.094354227 0.84180838 4289639853
0.097633347 0.094331443 0.84160507 4285692273
0.10005042 0.094450817 0.84267014 4290824128
0.10232881 0.094436862 0.84254563 4290758335
0.10466515 0.094475843 0.84289336 4291218886
0.10697304 0.094488002 0.84300184 4291087048
0.10947856 0.094670556 0.8446306 4285428337
0.11194499 0.09481249 0.8458969 4290165433
0.11428044 0.094840012 0.84614241 4292337117
0.11687244 0.095075138 0.8482402 4292337117
0.11967114 0.095466062 0.8517279 4292205020
0.12254611 0.095901802 0.8556155 4293585903
0.12567 0.096512467 0.86106372 4293849075
0.05370342 0.10013161 0.87217432 4280624413
0.056276545 0.1004875 0.87527424 4280558620
0.059396323 0.10175095 0.88627928 4278190080
0.061514728 0.1012673 0.88206649 4279769363
0.063568674 0.10071786 0.87728065 4287993999
0.065551907 0.1001002 0.87190074 4287534218
0.067572474 0.099580728 0.86737597 4287600009
0.069294825 0.098671682 0.85945791 4287994765
0.071336359 0.098261662 0.85588652 4288389523
0.073279619 0.097746491 0.85139924 4288521624
0.075585008 0.097731128 0.85126543 4288982175
0.077696577 0.097473532 0.84902167 4289179554
0.079952367 0.097406514 0.84843796 4289376933
0.08212471 0.097244456 0.84702641 4289311142
0.084314205 0.097111002 0.84586394 4289508521
0.086548343 0.097034693 0.84519929 4282731588
0.088783816 0.096963786 0.84458166 4289968818
0.091020234 0.096897468 0.84400403 4289968818
0.093245171 0.0968225 0.84335101 4289705646
0.095566161 0.096848466 0.84357721 4286810754
0.097888947 0.096874997 0.84380829 4286415996
0.1002458 0.096933261 0.84431577 4290824127
0.10259887 0.096985318 0.84476924 4290955201
0.10495728 0.097040042 0.8452459 4291087300
0.10736338 0.097135574 0.84607798 4291481804
0.10981394 0.097266465 0.8472181 4285428337
0.11241335 0.097521104 0.84943604 4290757570
0.11476237 0.097552627 0.84971064 4291021257
0.11717995 0.097640038 0.85047203 4289573811
0.11989343 0.097965859 0.85330999 4288783782
0.12266354 0.098324671 0.85643536 4293651696
0.12596346 0.099086888 0.86307448 4293980659
0.05882892 0.10316811 0.8778128 4278190080
0.061351113 0.1033923 0.87972039 4279704083
0.063439317 0.10289575 0.87549543 4287534218
0.06538491 0.10221221 0.86967951 4287336839
0.067375794 0.10164475 0.8648513 4287468938
0.069212861 0.1008914 0.85844135 4287666315
0.071217813 0.10042399 0.85446429 4288192659
0.073164448 0.099906497 0.85006118 4288455831
0.075333439 0.099715047 0.84843218 4288784796
0.077481873 0.099508584 0.84667552 4289113763
0.079700023 0.099401005 0.84576017 4289574314
0.081883729 0.099257715 0.84454095 4289376935
0.084155269 0.099225804 0.84426945 4288258200
0.086508021 0.099288799 0.84480548 4282928967
0.088698596 0.09916722 0.84377098 4285692273
0.090837665 0.098995648 0.84231114 4289968818
0.092950478 0.098804608 0.84068567 4288981923
0.095277131 0.098844588 0.84102589 4290231990
0.097615734 0.098894812 0.84145319 4289376681
0.10011463 0.099101394 0.84321094 4290560955
0.10257132 0.099257886 0.84454244 4290692542
0.10485899 0.09924753 0.84445435 4291087300
0.10711984 0.099212788 0.84415871 4289968565
0.10941561 0.099211164 0.84414488 4291810771
0.11206263 0.099521548 0.84678578 4292007637
0.11461115 0.09973371 0.84859103 4292270811
0.11709859 0.099885389 0.84988159 4287731094
0.11983749 0.10024153 0.85291183 4292599008
0.12254252 0.10055634 0.8555904 4292664801
0.12591571 0.10139747 0.86274725 4293388265
0.058970872 0.10581197 0.87993091 4280493086
0.061291605 0.10568404 0.87886709 4279835669
0.063476324 0.10534002 0.87600619 4287797390
0.065573499 0.10488087 0.87218791 4287271046
0.067511171 0.10420761 0.86658907 4287337352
0.069423422 0.10354187 0.86105287 4287732110
0.071419209 0.10304015 0.85688055 4288061075
0.07338208 0.10252418 0.85258973 4288390040
0.075491533 0.10223834 0.85021269 4288653212
0.077677533 0.1020701 0.84881359 4283323979
0.079817288 0.10185257 0.84700459 4281613361
0.08200217 0.1017032 0.84576249 4289574060
0.084330425 0.10173497 0.84602666 4289639853
0.086803459 0.10193507 0.84769064 4287008133
0.089078918 0.10189878 0.84738892 4284376413
0.091170169 0.10165894 0.84539437 4289442474
0.093348965 0.10152611 0.84428978 4289771439
0.09560395 0.10148054 0.84391081 4290166197
0.097939223 0.10152032 0.84424168 4290100404
0.10031345 0.10159774 0.84488547 4290363576
0.10274845 0.10173187 0.84600091 4290758335
0.10490492 0.10159038 0.84482425 4290955714
0.10710493 0.10149623 0.84404129 4291416011
0.1094275 0.10151972 0.84423661 4291678672
0.112211 0.10196108 0.84790701 4292007637
0.11486266 0.10226727 0.8504532 4292336602
0.11743856 0.10249524 0.85234904 4292665569
0.11996993 0.10267626 0.85385442 4292599006
0.12283856 0.10313357 0.85765743 4291414732
0.057959083 0.10635034 0.86483359 4280624159
0.06107619 0.10769623 0.87577826 4278190080
0.063336588 0.1074871 0.87407768 4287533964
0.065408885 0.10698546 0.8699984 4287139206
0.067358539 0.10632528 0.86462981 4287336585
0.069352999 0.10577802 0.86017948 4287468684
0.071423411 0.10537854 0.85693097 4287731856
0.073440641 0.10492836 0.85327011 4288192661
0.075469159 0.10452139 0.84996074 4288455833
0.077576667 0.10424479 0.84771138 4288784798
0.079631001 0.10391477 0.84502774 4280494880
0.081852764 0.10381564 0.84422159 4287600524
0.084199369 0.10387593 0.84471184 4289705646
0.086652972 0.10406151 0.84622103 4287337098
0.088864759 0.10395461 0.8453517 4289903025
0.09102162 0.10379047 0.84401691 4289903025
0.093195543 0.10365339 0.84290218 4289903025
0.095491678 0.10365555 0.84291977 4290100404
0.097762778 0.10363108 0.84272075 4290231990
0.10020106 0.10378088 0.84393895 4290429370
0.10253162 0.1038149 0.84421557 4290692542
0.10471609 0.10370275 0.84330356 4291087046
0.10690495 0.10359967 0.84246534 4291416011
0.10929248 0.10368939 0.84319496 4291744978
0.11210091 0.10416654 0.84707505 4292073432
0.11459124 0.10433483 0.84844363 4292205018
0.11729965 0.10469111 0.85134083 4292731362
0.1197855 0.1048388 0.8525418 4292928741
0.12290127 0.10552171 0.85809523 4293191143
0.061431386 0.11072002 0.88087142 4278190080
0.063550115 0.1102365 0.87702453 4287468171
0.065648578 0.10975409 0.87318653 4287270792
0.067554936 0.10899544 0.86715084 4287204999
0.069531977 0.10839819 0.86239928 4287533964
0.071631558 0.10802477 0.85942835 4287731856
0.073718324 0.10765624 0.85649639 4288126614
0.075766295 0.10725538 0.85330719 4288587419
0.077894866 0.10698907 0.85118848 4289047970
0.079974629 0.10667304 0.84867424 4289047970
0.082178906 0.10653618 0.84758538 4286942594
0.084429994 0.10646582 0.84702557 4289310888
0.08679834 0.10654312 0.84764063 4289443244
0.08902771 0.10645025 0.84690177 4289574830
0.09108191 0.10615791 0.84457594 4289640623
0.09331651 0.10608505 0.84399623 4289771439
0.095630802 0.1061041 0.8441478 4290034611
0.098058745 0.10624541 0.845272 4290231991
0.10038543 0.10627303 0.84549177 4290429370
0.10272406 0.10631178 0.84580004 4290560702
0.10497782 0.10626292 0.84541136 4291021507
0.10732321 0.10630691 0.84576136 4291350218
0.10975209 0.10643002 0.84674084 4291547599
0.1125514 0.10689991 0.85047913 4291942357
0.11493677 0.10696562 0.85100192 4292337117
0.11754278 0.10723002 0.85310543 4292468703
0.11996082 0.10731602 0.85378963 4292928743
0.12315711 0.10808173 0.85988152 4293520110
0.056521252 0.11288749 0.87908018 4280623645
0.05933189 0.1136885 0.88531786 4280492573
0.061455972 0.11316279 0.88122398 4279900949
0.063363999 0.11229367 0.87445599 4287270792
0.065473638 0.11183185 0.87085968 4287204999
0.067427665 0.11114578 0.86551714 4287205512
0.069406755 0.11054596 0.86084616 4287468684
0.071539417 0.11022192 0.85832286 4287600270
0.073706061 0.10996908 0.85635388 4283192393
0.075774267 0.10958936 0.85339695 4283784530
0.077810489 0.10918736 0.85026646 4288192407
0.079870321 0.10884075 0.84756732 4289113509
0.082110755 0.1087528 0.84688246 4289311142
0.084383957 0.10871187 0.8465637 4289442474
0.086734645 0.10877028 0.8470186 4289311659
0.088880323 0.10857524 0.84549975 4289574830
0.090929516 0.10827515 0.84316283 4289771439
0.0931504 0.10818924 0.84249389 4289837232
0.095487751 0.10823948 0.84288508 4290100404
0.097856127 0.1083217 0.84352541 4290363577
0.10020737 0.10838163 0.84399205 4290494909
0.10249977 0.10837665 0.84395331 4290758335
0.10500856 0.10859568 0.8456589 4291087048
0.1073964 0.1086829 0.84633815 4291218634
0.10991064 0.1088917 0.84796405 4291613392
0.11244656 0.10911295 0.84968698 4291942105
0.11478083 0.10913353 0.84984732 4292205531
0.11733108 0.10935462 0.85156894 4292665828
0.11996035 0.10963936 0.85378629 4292929000
0.1231233 0.11039177 0.85964549 4293520110
0.061567176 0.11577034 0.88281858 4280098328
0.063595556 0.11509275 0.87765163 4287270278
0.065764345 0.11470915 0.87472636 4287007620
0.06770394 0.11396653 0.8690635 4287204999
0.069661275 0.11330292 0.864003 4287402891
0.071802996 0.11297274 0.86148518 4287666063
0.073939748 0.11265588 0.85906893 4287271305
0.076018013 0.11227207 0.85614216 4283981909
0.077977009 0.11174016 0.85208607 4288718751
0.080066137 0.11142009 0.84964532 4288981923
0.082236789 0.11122824 0.84818238 4289245095
0.084580585 0.11127466 0.84853631 4289442474
0.086899579 0.11128685 0.8486293 4289574060
0.08924631 0.11133301 0.84898132 4289509037
0.091328412 0.11105505 0.84686172 4289772209
0.093576789 0.11098799 0.84635031 4289837232
0.095692471 0.11077055 0.84469217 4290034611
0.098005652 0.11078657 0.84481436 4290231991
0.10035682 0.1108438 0.84525079 4290495163
0.10268854 0.11087748 0.84550756 4290692288
0.10522123 0.11112192 0.84737158 4291087046
0.10760397 0.1112009 0.84797388 4291350220
0.11012086 0.11141229 0.84958589 4291547601
0.11236525 0.11134498 0.84907258 4291876566
0.11481471 0.11147948 0.85009819 4292337117
0.11738078 0.11171965 0.85192966 4292665828
0.12041488 0.11238735 0.85702127 4292863207
0.12355325 0.11312514 0.86264735 4293191915
0.056685224 0.11801408 0.88163048 4280492827
0.058508277 0.11686261 0.87302834 4280427293
0.061376434 0.117807 0.8800835 4279900949
0.063447379 0.11720774 0.87560672 4287468171
0.065556347 0.11671957 0.87195981 4286941827
0.067571841 0.1161049 0.86736786 4287205512
0.069645077 0.11562759 0.86380208 4287337098
0.071695589 0.11514495 0.86019653 4287600270
0.073747121 0.11469444 0.85683089 4288390040
0.075718254 0.11415032 0.8527661 4288126868
0.077763826 0.11374748 0.8497566 4288718751
0.079899222 0.11349548 0.84787405 4288981923
0.082041495 0.11326712 0.8461681 4289179302
0.084275939 0.11317502 0.84548002 4289442474
0.086497262 0.11307066 0.8447004 4289574060
0.088925019 0.11323457 0.84592491 4289771439
0.091228589 0.11323606 0.84593606 4289903025
0.093494765 0.11319222 0.84560847 4289771439
0.095588431 0.11294662 0.84377378 4290034611
0.097695 0.11272746 0.8421365 4290231991
0.10015474 0.11291651 0.84354883 4290363577
0.10252425 0.11299764 0.84415489 4290692288
0.1051525 0.11335412 0.84681803 4290955460
0.10742579 0.11332089 0.84656972 4291218632
0.10986951 0.11346506 0.84764677 4291547599
0.11207066 0.11335794 0.84684652 4291942359
0.11451453 0.1134957 0.84787565 4292205018
0.11715453 0.11381856 0.85028762 4292665571
0.12031925 0.11462881 0.85634065 4293125352
0.12357716 0.11549536 0.86281425 4293388524
0.058943454 0.12012562 0.87952179 4280558877
0.061586656 0.12061405 0.88309789 4280296220
0.063802786 0.1202608 0.88051152 4283191626
0.065824635 0.11958019 0.87552828 4287139719
0.067840815 0.11893718 0.8708204 4287205512
0.069883943 0.11838326 0.86676472 4287600270
0.071894459 0.11781206 0.86258262 4287666063
0.073837213 0.11716945 0.85787767 4288126868
0.075807504 0.11660861 0.85377133 4288587417
0.077865049 0.11621135 0.85086268 4288653212
0.080020674 0.11597917 0.84916282 4289179556
0.082203157 0.11579788 0.84783548 4289047716
0.08440277 0.11564997 0.84675246 4289442474
0.086617067 0.11552949 0.84587038 4289837232
0.089033924 0.11567844 0.8469609 4289902512
0.091415927 0.11577572 0.84767318 4289771439
0.093690157 0.11573509 0.84737569 4289968305
0.095779851 0.11547393 0.84546351 4289903025
0.097960204 0.11533175 0.84442258 4289970101
0.10041564 0.11551253 0.84574622 4290691259
0.1028318 0.11564104 0.84668714 4290888127
0.10522585 0.11573961 0.84740877 4291151812
0.10760198 0.11581465 0.84795821 4291218375
0.10995682 0.11586411 0.84832036 4291481808
0.11231352 0.11591347 0.84868169 4291942359
0.11478723 0.11607914 0.8498947 4292401629
0.11764384 0.11661784 0.85383892 4292730594
0.12083311 0.11745904 0.85999793 4293190375
0.12395037 0.11819959 0.86542004 4293058019
0.059471041 0.12361608 0.88739419 4280624413
0.061300449 0.1224459 0.87899393 4279835669
0.063666768 0.12239581 0.87863439 4287073926
0.065638825 0.12161884 0.87305677 4287008133
0.067666762 0.12099609 0.86858624 4287139719
0.069652572 0.12034258 0.863895 4287468684
0.071680158 0.1198016 0.86001146 4287534477
0.073677741 0.11924625 0.85602486 4287995282
0.075676404 0.11872665 0.8522948 4288258454
0.077803731 0.11843381 0.85019261 4286876801
0.079923116 0.11814615 0.8481276 4287402891
0.082204707 0.11810768 0.84785146 4283718483
0.084287755 0.11779385 0.84559858 4289903025
0.086533383 0.11771787 0.84505314 4285363308
0.088806629 0.11768242 0.84479868 4286876547
0.091190375 0.1177915 0.84558171 4285495664
0.093333803 0.11759242 0.84415263 4289903795
0.095627278 0.11758742 0.84411675 4290231478
0.09791325 0.11757364 0.8440178 4290691261
0.10042886 0.11782992 0.8458575 4289308068
0.10275728 0.11786002 0.84607357 4291742411
0.10506864 0.11786965 0.84614271 4291940304
0.10751175 0.11802351 0.84724718 4292072403
0.1098007 0.11800522 0.84711593 4292006612
0.11229886 0.1182079 0.84857088 4292664542
0.11478237 0.1183873 0.84985876 4292467422
0.11773264 0.11903152 0.85448337 4292335066
0.12080545 0.11977229 0.85980105 4292333013
0.12390694 0.12051279 0.86511683 4291214275
0.059064731 0.12517026 0.88133144 4280624924
0.06164404 0.12553799 0.88392073 4280427291
0.063839436 0.12512565 0.88101733 4285625451
0.065722324 0.12415279 0.87416738 4286876034
0.067797802 0.12359902 0.87026829 4287073926
0.069737561 0.12284357 0.86494911 4287337098
0.071880661 0.12248395 0.86241704 4287600270
0.073829494 0.12182651 0.85778797 4288060821
0.075921677 0.12143867 0.85505718 4288389786
0.078028105 0.12109601 0.85264444 4287600524
0.080201834 0.12087458 0.85108531 4284310874
0.08252608 0.12088605 0.85116607 4285100136
0.084729105 0.12072417 0.85002631 4285034343
0.087111801 0.12082011 0.85070175 4284507999
0.089331299 0.12069058 0.84978974 4283783763
0.091619916 0.12065862 0.84956473 4281679670
0.093697213 0.12035678 0.84743947 4290232761
0.095949344 0.12028863 0.84695965 4285754217
0.098280154 0.12032001 0.84718055 4287985278
0.10070891 0.1204671 0.84821624 4287981944
0.10308832 0.12054989 0.84879923 4288046710
0.10534114 0.12048429 0.84833729 4290415258
0.10777771 0.12062714 0.84934306 4287916923
0.1101079 0.12064743 0.84948593 4291209396
0.11264613 0.12089014 0.85119492 4289365398
0.11524376 0.12118556 0.85327494 4289232272
0.11809171 0.12172731 0.85708946 4291009710
0.12096459 0.12227328 0.86093366 4289627543
0.12405182 0.12301105 0.86612833 4289695903
0.061898194 0.12847129 0.88756508 4280229912
0.063569948 0.12698519 0.87729824 4287139206
0.065416291 0.12594284 0.87009692 4286941827
0.067552172 0.12551126 0.86711532 4287139719
0.069515787 0.12479958 0.86219853 4287402891
0.071685731 0.12449268 0.86007828 4287731856
0.073678486 0.12390722 0.8560335 4287929235
0.075803868 0.12357385 0.85373038 4288323993
0.077922203 0.12324917 0.85148722 4287402891
0.080169059 0.12314065 0.85073751 4287139719
0.082393251 0.12300438 0.84979606 4284705378
0.084588453 0.12283347 0.84861529 4288192407
0.086797483 0.12269118 0.84763229 4284771171
0.08915022 0.12275413 0.84806722 4284968037
0.091401592 0.12267786 0.84754026 4281482291
0.093482636 0.12238236 0.84549874 4290035382
0.095738806 0.12232481 0.84510118 4285360229
0.097996704 0.12227213 0.84473717 4290552234
0.10051815 0.12254315 0.84660959 4287454830
0.1029065 0.12264341 0.84730226 4287850358
0.10527662 0.12271801 0.84781766 4289232013
0.10758448 0.1227184 0.84782034 4287982716
0.11005811 0.12290389 0.84910184 4291606210
0.11261843 0.12317657 0.85098571 4290092971
0.11524335 0.12350749 0.8532719 4289039771
0.11764784 0.12359376 0.85386795 4290159278
0.12042113 0.12405663 0.85706574 4293451494
0.12362631 0.12493839 0.86315751 4293189605
0.063685335 0.12960778 0.87889063 4287138692
0.065582916 0.12863782 0.87231314 4286810242
0.067714684 0.12817894 0.86920142 4287139719
0.069736235 0.12754944 0.86493272 4287337098
0.07179179 0.12702122 0.86135077 4287600270
0.073865667 0.1265578 0.85820824 4288060821
0.075931162 0.12610887 0.85516399 4288323993
0.078151092 0.12593551 0.85398835 4288587165
0.080419175 0.12584752 0.85339165 4288784544
0.082683899 0.12575935 0.85279381 4289047716
0.084842503 0.12551901 0.85116398 4289114279
0.087016553 0.12531367 0.84977162 4289245865
0.089349456 0.12534183 0.84996253 4289705646
0.091573894 0.12522024 0.84913796 4290100404
0.093866684 0.1251958 0.84897226 4290033584
0.095988177 0.12494955 0.84730244 4289835693
0.098204665 0.12483562 0.84652984 4290493112
0.10057812 0.12492187 0.84711468 4291281345
0.10307349 0.12515227 0.84867716 4291675335
0.10552832 0.12532446 0.84984469 4292067526
0.10769653 0.12515613 0.84870332 4292527564
0.11024056 0.12542248 0.85050941 4291940817
0.11281685 0.12571381 0.852485 4292400857
0.11548198 0.12609039 0.8550387 4292401370
0.11785774 0.12614241 0.85539138 4292861921
0.12048705 0.12645851 0.85753489 4293190886
0.12377942 0.1274453 0.86422646 4293848816
0.061025672 0.13142364 0.87505388 4279835154
0.063518077 0.1316532 0.87658238 4286678655
0.065701485 0.13124886 0.87389022 4286415483
0.067711428 0.13053837 0.86915958 4287073926
0.069637924 0.12972042 0.86371338 4287205512
0.071525693 0.12888609 0.85815817 4287666063
0.073675379 0.12856156 0.85599738 4287995028
0.075830467 0.12826607 0.85402995 4288323993
0.078128248 0.12822233 0.85373878 4288521372
0.080306828 0.12799114 0.85219944 4288850337
0.082537137 0.12785307 0.85128009 4288916900
0.084675103 0.1275834 0.84948456 4289245865
0.086890846 0.12744214 0.848544 4289048486
0.089079738 0.12726983 0.84739673 4289705646
0.091238923 0.12706485 0.8460319 4289836719
0.09352231 0.12703866 0.84585756 4290034098
0.095816143 0.1270276 0.84578389 4290099891
0.098098457 0.12700213 0.84561431 4290297271
0.10044263 0.12705608 0.84597355 4290560956
0.10273353 0.12704173 0.84587801 4290561472
0.1051392 0.12716684 0.84671098 4291086019
0.10730566 0.12700345 0.84562308 4291480779
0.10996427 0.12741718 0.84837782 4291743951
0.11247885 0.12765044 0.84993094 4292073432
0.11513783 0.12803487 0.8524906 4292271324
0.1176762 0.12827265 0.85407376 4292731362
0.12051909 0.12882674 0.85776299 4293322729
0.12406124 0.13009299 0.86619413 4293717489
0.060952634 0.13364513 0.87400657 4279901460
0.063756414 0.13454194 0.87987149 4286547069
0.065982826 0.13419956 0.87763232 4286350203
0.067933045 0.13333897 0.87200433 4287074696
0.069929227 0.13262366 0.86732638 4287205512
0.071849309 0.13181545 0.86204088 4287469454
0.073926061 0.13133669 0.8589099 4287863442
0.076044835 0.13095966 0.85644424 4288127384
0.078329585 0.13088238 0.85593885 4288521372
0.080466621 0.13056988 0.85389513 4288718751
0.082713552 0.13044824 0.85309964 4288982693
0.084771462 0.13004328 0.85045129 4289245865
0.087089516 0.1300483 0.85048413 4289311658
0.089194067 0.1297425 0.84848428 4289509037
0.091453075 0.12967116 0.84801769 4289640623
0.093703821 0.12959188 0.84749925 4289903026
0.096044645 0.129638 0.84780091 4289968819
0.098375805 0.12966922 0.84800506 4290100405
0.10057859 0.12953369 0.84711868 4290429370
0.10280223 0.12943047 0.84644371 4290626495
0.10514631 0.12948011 0.84676826 4291021255
0.10739466 0.12941223 0.84632444 4291284427
0.10995464 0.12971486 0.84830356 4291679187
0.11243511 0.12991318 0.84960043 4291942359
0.11526884 0.13050343 0.85346061 4292206047
0.118108 0.13107641 0.85720772 4292535525
0.12095708 0.13163798 0.8608802 4293126379
0.061022732 0.13618037 0.87501174 4279900949
0.063622333 0.13664874 0.87802118 4286415996
0.065944836 0.13650958 0.87712699 4285889139
0.067898877 0.13564406 0.87156576 4287665036
0.069959119 0.13504198 0.86769712 4287401864
0.071918309 0.13429053 0.86286873 4287533964
0.073885664 0.13360137 0.85844058 4287929235
0.075871646 0.1329871 0.85449368 4288192407
0.078089982 0.13280453 0.8533206 4288652958
0.080216713 0.13248122 0.8512432 4288850337
0.08244466 0.13233851 0.8503263 4288982693
0.084554635 0.13201943 0.84827602 4289114279
0.086815141 0.13194607 0.84780473 4289377451
0.088936225 0.1316701 0.84603149 4289443244
0.091222815 0.13164692 0.84588253 4289574830
0.093502633 0.13161534 0.84567964 4289903025
0.095902137 0.1317497 0.84654295 4289903026
0.098146036 0.131669 0.84602445 4290231991
0.10031635 0.13149555 0.84490991 4290494909
0.10246418 0.13130106 0.8436603 4290823874
0.10477841 0.13132365 0.84380543 4291087048
0.10722978 0.13151348 0.84502512 4291416015
0.10982989 0.13187392 0.84734106 4291613394
0.11235575 0.13213223 0.84900081 4291942105
0.11523142 0.1327832 0.85318357 4292271840
0.11801905 0.13330902 0.85656214 4292535012
0.12096727 0.13399233 0.86095273 4293389294
0.063787788 0.13940004 0.88030452 4286612346
0.066074535 0.13917007 0.87885219 4286216818
0.068081081 0.13838659 0.87390459 4283908930
0.070177808 0.13783312 0.87040949 4287465088
0.072202183 0.13717835 0.8662746 4288454037
0.074140362 0.13640639 0.86139977 4288323480
0.076132938 0.13577878 0.85743648 4288783517
0.078241557 0.13538931 0.85497695 4288980896
0.080392942 0.1350942 0.85311329 4289112996
0.082573645 0.13486353 0.85165668 4289113509
0.084730141 0.134607 0.85003674 4289508267
0.086907364 0.13439618 0.84870535 4289443244
0.089142174 0.13428299 0.84799063 4289639853
0.091443419 0.1342731 0.84792811 4289705646
0.093742654 0.1342608 0.84785044 4289837232
0.096017048 0.13421439 0.84755731 4289903025
0.098220207 0.13407288 0.84666377 4290100405
0.10045887 0.13398524 0.84611028 4290297784
0.10278218 0.13401189 0.84627861 4290692288
0.10517827 0.13413018 0.84702563 4291152839
0.10772499 0.13443138 0.84892768 4291481804
0.11017616 0.13460319 0.8500126 4292072916
0.1127581 0.1349244 0.85204107 4292599006
0.11552487 0.13544938 0.85535628 4293059300
0.11827637 0.13593607 0.85842967 4293782510
0.12109834 0.13648333 0.86188561 4294768378
0.063702121 0.14160556 0.87912232 4286480247
0.066029206 0.14146493 0.87824929 4285028694
0.067990758 0.14057834 0.8727451 4284228653
0.070018344 0.13988355 0.86843163 4284488745
0.071989 0.13912411 0.8637169 4284682787
0.073947035 0.13838908 0.85915363 4284682274
0.075915828 0.13771862 0.85499126 4284813347
0.078013778 0.13731538 0.85248786 4286591554
0.080089107 0.13689677 0.84988904 4287711575
0.08232332 0.13676563 0.84907484 4288898929
0.084569506 0.13666099 0.84842521 4289755265
0.086819254 0.1365675 0.84784484 4290678163
0.088984936 0.13635007 0.84649491 4291205275
0.091211811 0.13623498 0.84578049 4291402911
0.093470477 0.13617189 0.84538877 4291337120
0.095814101 0.13623263 0.84576583 4292060845
0.098004304 0.13607748 0.84480268 4292126638
0.10036547 0.1361614 0.84532368 4292126125
0.10273441 0.13625187 0.84588528 4292058024
0.10526301 0.13654546 0.84770805 4291660443
0.10776836 0.13679697 0.84926939 4291723669
0.1101703 0.1369094 0.84996742 4290800259
0.11264349 0.13710392 0.85117501 4288691033
0.1152857 0.13749218 0.85358548 4287964489
0.11806592 0.13802645 0.8569023 4288557139
0.12094251 0.13865049 0.86077654 4289084766
0.061329775 0.14404613 0.87941444 4279572242
0.066341422 0.14453548 0.882402 4286808701
0.068201609 0.14339703 0.87545168 4281733654
0.070091635 0.14239608 0.86934072 4284686639
0.072006576 0.14150944 0.86392778 4285145133
0.074011467 0.14085008 0.85990226 4285733933
0.076077983 0.14034481 0.85681754 4285800496
0.078115523 0.13981773 0.85359967 4285997104
0.080195963 0.13939567 0.85102296 4286194226
0.082467705 0.13932049 0.850564 4286324529
0.084751017 0.13926843 0.85024619 4286390065
0.086984061 0.13913873 0.84945428 4286521651
0.08908461 0.13880929 0.8474431 4286653237
0.091392696 0.13881169 0.84745777 4286521651
0.093672462 0.13877204 0.84721565 4286849334
0.096042417 0.13886468 0.84778124 4286915127
0.09826187 0.13874048 0.84702295 4286848564
0.10065787 0.13886552 0.84778637 4287044662
0.10299554 0.13890631 0.8480354 4286979641
0.10553645 0.13921338 0.84991008 4287175737
0.10803834 0.13945693 0.85139698 4287504702
0.11052546 0.13967158 0.85270745 4287833669
0.11295024 0.13980025 0.85349298 4288096328
0.1155187 0.14009798 0.85531062 4288819024
0.11831772 0.14065802 0.85872978 4289872740
0.12122027 0.14131708 0.86275339 4290927481
0.0664941 0.1472753 0.88443279 4287401352
0.068277009 0.14594093 0.87641948 4280030995
0.070128642 0.14483862 0.86979973 4280948758
0.071937397 0.14372259 0.86309773 4281143053
0.073934458 0.14304149 0.85900748 4282650389
0.07587789 0.14230156 0.85456401 4285275692
0.077966683 0.14187016 0.8519733 4285866288
0.080021754 0.14140408 0.84917432 4286261046
0.082403384 0.14152502 0.8499006 4286588214
0.084607795 0.1413433 0.8488093 4286785080
0.086879186 0.14128016 0.84843016 4287047995
0.088868588 0.14077359 0.84538811 4286982459
0.091220677 0.14085263 0.84586269 4286982202
0.093502872 0.1408225 0.84568179 4287310397
0.095985837 0.14108893 0.84728175 4287441983
0.098217696 0.14098242 0.84664214 4287375678
0.10061736 0.14111616 0.84744525 4287966532
0.10283034 0.14098792 0.84667516 4288228679
0.10534836 0.14127436 0.84839535 4288426058
0.10787671 0.14156209 0.85012323 4288754512
0.1105031 0.14196369 0.85253495 4289082196
0.11288279 0.14203833 0.85298324 4288821077
0.11546624 0.14236121 0.85492224 4288362323
0.11839466 0.14308824 0.85928822 4287245895
0.12159016 0.14410363 0.86538601 4286068808
0.063330024 0.14791463 0.87398714 4281019438
0.066529788 0.14976279 0.88490742 4278190080
0.068592198 0.14901103 0.88046539 4281151278
0.070553042 0.14809681 0.87506354 4280098329
0.072280087 0.14676756 0.86720932 4279966483
0.074327134 0.1461516 0.8635698 4280031506
0.076332122 0.14549324 0.85967976 4280227856
0.078423038 0.14503296 0.85696006 4280228372
0.080551945 0.14466748 0.85480058 4279965454
0.082778923 0.14449373 0.85377389 4279965454
0.084939837 0.14421728 0.85214049 4280358927
0.087024011 0.1438287 0.84984446 4280489486
0.089127496 0.14349133 0.84785104 4280752147
0.09151189 0.14361183 0.84856302 4280686865
0.093903527 0.14373749 0.84930551 4280687635
0.096331321 0.14391112 0.85033143 4280949524
0.098601326 0.14384641 0.84994906 4281211671
0.10095442 0.14390311 0.8502841 4281145878
0.10322852 0.14384717 0.84995359 4281211928
0.10567739 0.14403191 0.85104513 4281212700
0.10828509 0.14442055 0.85334152 4281147164
0.11099212 0.14492255 0.85630774 4281280292
0.11352004 0.14517486 0.85779858 4281281062
0.11612751 0.14551669 0.85981834 4281346855
0.11916705 0.14637573 0.86489415 4282335037
0.065947264 0.15083888 0.8771593 4281282612
0.068183094 0.15050435 0.87521398 4280098077
0.070710413 0.15081413 0.87701535 4280229661
0.072786778 0.15017326 0.87328857 4280032022
0.074902996 0.14965254 0.87026048 4279900436
0.076721169 0.14858651 0.8640613 4279769363
0.078879446 0.148223 0.86194742 4279900947
0.080830254 0.14750187 0.85775393 4279900947
0.082914308 0.14705758 0.85517025 4280032533
0.084923819 0.14650893 0.85197973 4280032276
0.087217331 0.14646639 0.85173237 4280229655
0.089381769 0.14621489 0.85026985 4280295705
0.091594011 0.14605233 0.84932452 4280361241
0.093739279 0.14579359 0.84781992 4280426264
0.09615165 0.14595275 0.84874547 4280492057
0.09858162 0.14613052 0.84977919 4280427034
0.10115439 0.14650697 0.85196835 4280427034
0.10356785 0.14664096 0.85274756 4280493086
0.10620505 0.14707893 0.85529447 4280886817
0.10866711 0.14726079 0.85635197 4280821539
0.11105978 0.14734295 0.85682976 4281085224
0.11329477 0.14721683 0.85609633 4281282090
0.11597807 0.1476666 0.85871184 4281544492
0.11936224 0.14897333 0.86631078 4281744183
0.068435021 0.15345134 0.87844777 4287730326
0.070665568 0.15310395 0.87645912 4280032282
0.073435619 0.15390997 0.8810733 4279966743
0.075208813 0.1526418 0.87381357 4279835669
0.076868564 0.15122822 0.86572134 4279638804
0.078740768 0.15030424 0.86043197 4279836183
0.080984466 0.15012231 0.85939044 4279573011
0.083114512 0.14974581 0.85723513 4279573011
0.085373692 0.14961617 0.856493 4279770390
0.087641962 0.14950894 0.85587913 4279507218
0.089895345 0.14938252 0.85515541 4279836696
0.09208063 0.14915217 0.85383677 4279770903
0.094178483 0.14879504 0.85179234 4280099355
0.096594594 0.14894579 0.85265535 4280033048
0.098866798 0.14887279 0.85223746 4279967255
0.10134922 0.14911243 0.85360926 4279967255
0.10390929 0.149453 0.85555887 4280295707
0.10654951 0.14989139 0.85806853 4280427551
0.10913637 0.15023752 0.86004996 4279967770
0.11149246 0.15025812 0.86016792 4280296735
0.11409585 0.15060429 0.8621496 4280559907
0.11631849 0.15044406 0.86123234 4280954667
0.11879847 0.15061642 0.86221904 4285034094
0.068717569 0.15648565 0.88207465 4289638323
0.070476502 0.1550734 0.87411416 4280163870
0.07294286 0.15525916 0.87516117 4279966743
0.074596919 0.15375885 0.86670434 4279835156
0.076243259 0.15233511 0.85867894 4279835669
0.078333713 0.15185699 0.85598391 4282862147
0.080474146 0.1515006 0.853975 4281152043
0.082616895 0.15116845 0.85210276 4281152043
0.084769249 0.15087152 0.85042906 4284375900
0.087057635 0.15082607 0.85017282 4281481008
0.089314312 0.15072943 0.84962815 4284375386
0.091531612 0.15057291 0.84874588 4283783249
0.093673885 0.15030372 0.84722847 4284178007
0.096143685 0.15056036 0.84867513 4284506972
0.098372698 0.15043674 0.84797829 4280559137
0.10082085 0.15064621 0.84915906 4284967268
0.10298101 0.15042564 0.84791571 4284507487
0.10549212 0.15071611 0.84955305 4284573280
0.10803676 0.15104103 0.85138458 4286086519
0.11078017 0.15162434 0.85467255 4284705379
0.11350913 0.15216428 0.85771608 4286284411
0.11589035 0.15222572 0.85806239 4286284157
0.1185142 0.15259711 0.86015588 4286678919
0.071267083 0.15921876 0.88391972 4279506453
0.073468715 0.15877755 0.88147032 4279835416
0.074709028 0.1563524 0.86800683 4279769876
0.07617598 0.1545357 0.85792124 4279835669
0.078419693 0.15435597 0.85692346 4279769876
0.080608778 0.15408222 0.85540372 4279573011
0.082869001 0.15395598 0.85470289 4279901976
0.08507289 0.15373486 0.85347527 4280625699
0.087231696 0.15344617 0.85187262 4279967769
0.089501083 0.15336193 0.85140491 4281348908
0.091716908 0.15319246 0.85046411 4281283115
0.093980037 0.1531084 0.84999746 4281546287
0.09626282 0.15305965 0.84972674 4282993478
0.09849529 0.15293504 0.84903502 4280624932
0.10084195 0.15298939 0.84933674 4282664515
0.10312274 0.15294363 0.84908265 4280428321
0.10552577 0.15307719 0.84982413 4280296735
0.10817314 0.15355185 0.85245925 4280757286
0.11086021 0.15406175 0.85529006 4280428580
0.11371978 0.15478547 0.85930789 4280362787
0.11594728 0.15463704 0.85848385 4281283891
0.11877808 0.1552832 0.86207104 4284770922
0.071047455 0.16112643 0.88119566 4279769623
0.073241122 0.16067737 0.87873971 4279901207
0.074724615 0.15874797 0.8681879 4279835669
0.076324061 0.15717566 0.85958898 4279769876
0.078552254 0.15695314 0.85837203 4279769876
0.080514133 0.15622674 0.85439932 4279835669
0.082761556 0.15607962 0.85359472 4280164634
0.084834628 0.15562071 0.85108495 4281809459
0.086992785 0.15533812 0.84953952 4281546287
0.089252457 0.15524673 0.84903973 4280690723
0.091461614 0.15507433 0.84809685 4280953638
0.09373872 0.15502279 0.84781492 4281282603
0.095868833 0.15473644 0.84624898 4282006583
0.098327778 0.15498184 0.84759104 4281809206
0.10081059 0.15525275 0.84907264 4280756518
0.10310461 0.15522729 0.84893334 4281282862
0.10531997 0.15508711 0.84816676 4283257422
0.10778784 0.1553168 0.84942293 4284770661
0.11072559 0.15619969 0.85425144 4281415218
0.11354626 0.15688452 0.8579967 4281481270
0.11601607 0.15706672 0.85899317 4286613124
0.11915382 0.15812814 0.86479807 4286349700
0.074945703 0.16158763 0.87075663 4279704083
0.076656282 0.16020955 0.86333054 4279704083
0.0788721 0.15993798 0.86186713 4279901462
0.080916218 0.15934397 0.85866618 4279769876
0.083146177 0.15913902 0.85756171 4279901462
0.085164934 0.15855207 0.85439873 4281480494
0.087270461 0.15815353 0.85225117 4282138424
0.089529462 0.15804659 0.85167485 4282664256
0.091700591 0.15779383 0.85031283 4282730049
0.094058357 0.15786676 0.85070586 4283059271
0.096205547 0.15759125 0.84922117 4282203962
0.098693289 0.15787344 0.8507418 4282401343
0.1011601 0.15810996 0.85201639 4281940792
0.10362621 0.15833481 0.85322803 4281086253
0.10592923 0.15830609 0.85307324 4281678390
0.10840318 0.15852855 0.85427207 4284310110
0.11125983 0.15928958 0.85837311 4281283632
0.11426843 0.16023239 0.86345369 4281217585
0.11660678 0.16021629 0.86336684 4281480757
0.11985013 0.1614197 0.86985177 4282007103
0.080864608 0.1615779 0.85811847 4279769876
0.082796186 0.16079336 0.85395193 4279506704
0.084766887 0.16012555 0.85040534 4279375118
0.086909816 0.15980996 0.84872925 4279309839
0.089271396 0.15990235 0.84921992 4279572497
0.091451019 0.15967239 0.84799862 4279704083
0.093695834 0.15956476 0.84742701 4279638290
0.095824301 0.15926893 0.84585589 4279506704
0.098339647 0.15961492 0.84769338 4279703828
0.10088524 0.15999302 0.8497014 4280032793
0.10329214 0.16013914 0.85047746 4279967000
0.10563792 0.16018619 0.85072732 4279901207
0.10802082 0.16028629 0.85125893 4280559139
0.11097671 0.16121456 0.85618883 4281151276
0.11392391 0.16209228 0.86085033 4281217585
0.093992434 0.16238363 0.85010958 4283652177
0.096168444 0.16215138 0.8488937 4283652178
0.098572023 0.16230471 0.84969646 4284309338
