# .PCD v0.7 - Point Cloud Data file format
VERSION 0.7
FIELDS x y z rgba
SIZE 4 4 4 4
TYPE F F F U
COUNT 1 1 1 1
WIDTH 899
HEIGHT 1
VIEWPOINT 0 0 0 1 0 0 0
POINTS 899
DATA ascii
0.074379012 0.087452784 0.86417252 4287007106
0.076419123 0.087097287 0.8606596 4287138692
0.078613959 0.08693403 0.85904634 4286743932
0.080794074 0.086764388 0.85737002 4286678139
0.083052181 0.086685672 0.85659224 4286743932
0.085396409 0.086698696 0.85672092 4286941311
0.12405681 0.086019613 0.85001045 4290625721
0.12580714 0.085636273 0.84622246 4290559673
0.127794 0.085424833 0.84413308 4292467670
0.1299575 0.085336834 0.84326357 4292468440
0.13250083 0.085496992 0.84484619 4292073684
0.13497096 0.085605264 0.84591603 4291414986
0.13749366 0.085742675 0.84727389 4291546059
0.074329302 0.089744799 0.86359495 4287467657
0.075971052 0.088915341 0.85561323 4287665034
0.077815443 0.088365324 0.85032058 4287270274
0.079724282 0.087918162 0.8460176 4287336321
0.08174748 0.087618671 0.84313565 4287402114
0.083913147 0.087484069 0.84184045 4287007102
0.086294524 0.087575532 0.84272057 4286809723
0.088631794 0.087618656 0.84313554 4287007102
0.090861976 0.087556414 0.84253657 4286941311
0.093102142 0.087506615 0.84205741 4286875518
0.095201895 0.087330408 0.84036177 4286942081
0.09746062 0.087304883 0.84011614 4286679422
0.099632449 0.087204464 0.83914983 4286876801
0.10203081 0.087302379 0.84009206 4287139973
0.10414626 0.087159224 0.83871454 4287074180
0.10641599 0.08714857 0.83861202 4287139719
0.10856962 0.087045282 0.83761811 4287271305
0.11072305 0.086946078 0.83666348 4287402891
0.11288223 0.0868553 0.83578992 4287534477
0.11518508 0.086876474 0.83599365 4287666063
0.11753324 0.086930335 0.83651197 4288191894
0.11982626 0.086942136 0.83662552 4288191894
0.12190499 0.086800918 0.83526665 4288652446
0.12419317 0.086811282 0.83536637 4289441194
0.12641898 0.086778454 0.83505046 4290625468
0.12896469 0.086962506 0.83682156 4291546572
0.13154478 0.087162942 0.8387503 4292533213
0.13421169 0.087413087 0.84115738 4292796385
0.13703978 0.087758064 0.844477 4293519851
0.074383773 0.092162751 0.86422783 4287467655
0.075968467 0.091240972 0.85558414 4287730825
0.077629842 0.090463378 0.84829247 4287796872
0.079462275 0.089924276 0.84323722 4287928457
0.0813585 0.089485615 0.83912379 4288125836
0.083422579 0.089250475 0.83691889 4288389008
0.085623339 0.089170188 0.83616602 4288586388
0.087757647 0.089026645 0.83481997 4288783513
0.089857943 0.088856712 0.83322644 4288717720
0.091961563 0.08869835 0.83174151 4288783513
0.094034746 0.088518955 0.83005923 4288718490
0.096212909 0.088444471 0.82936078 4288850589
0.098439112 0.088416554 0.829099 4288850591
0.10072877 0.088445604 0.82937145 4288982177
0.10283957 0.088319771 0.82819146 4288982177
0.10501811 0.08825627 0.82759601 4289047970
0.10733353 0.088308051 0.82808155 4289047716
0.10960238 0.088320181 0.82819533 4289310888
0.11188012 0.088338837 0.82837027 4289705646
0.1142004 0.08838968 0.82884699 4289968818
0.11659913 0.088498101 0.82986367 4290231477
0.11896831 0.088580392 0.83063537 4290757822
0.12119915 0.088558532 0.83043039 4291020996
0.12375136 0.088767998 0.8323946 4291415754
0.1261173 0.088838726 0.83305782 4291678926
0.12869935 0.089056484 0.83509976 4292073430
0.13117848 0.089196712 0.83641469 4292533983
0.13396822 0.089539759 0.8396315 4292797155
0.13696623 0.090008155 0.84402376 4293322729
0.074642211 0.094843321 0.86723053 4287270278
0.076267578 0.093938038 0.85895282 4287665034
0.077911101 0.093108311 0.85136592 4287665800
0.079801865 0.092613436 0.84684086 4287797386
0.081726186 0.092184201 0.84291601 4287995020
0.083820976 0.091965444 0.84091574 4288258192
0.085941024 0.091785282 0.83926839 4288455571
0.087948345 0.091497183 0.83663404 4288717974
0.089931823 0.091199443 0.83391154 4288652695
0.092024758 0.091024622 0.83231306 4288718490
0.094192028 0.09092997 0.83144754 4288850589
0.096444458 0.090920039 0.83135676 4288719003
0.098716423 0.090928555 0.83143461 4288850589
0.1010078 0.090954177 0.83166891 4288982175
0.10311786 0.090818979 0.83043265 4289113763
0.10540882 0.090845488 0.83067507 4288982177
0.10766473 0.090841301 0.8306368 4289113509
0.10998471 0.090890244 0.83108431 4289310888
0.11208286 0.090757594 0.82987136 4289574060
0.11442576 0.09082444 0.8304826 4289903025
0.1166849 0.090823509 0.83047408 4290100404
0.11903942 0.090895444 0.83113188 4290626236
0.12130117 0.090895176 0.83112937 4291020996
0.12391178 0.09115155 0.83347362 4291415754
0.12639242 0.091304809 0.83487505 4291743951
0.12905824 0.091584072 0.83742857 4292073432
0.13155732 0.091737367 0.83883023 4292533983
0.13440193 0.092122264 0.84234971 4292665569
0.13721146 0.092470616 0.84553492 4293388522
0.074625313 0.09718167 0.8670342 4287138692
0.076281525 0.096293472 0.85910988 4287467657
0.077867828 0.095372483 0.85089302 4287600009
0.079667717 0.094758742 0.84541732 4287797386
0.081600219 0.094332755 0.84161681 4287994765
0.083632089 0.094041772 0.83902073 4288257937
0.085772783 0.093885385 0.83762544 4288389523
0.087742038 0.093554288 0.8346715 4288521109
0.089825951 0.093359068 0.83292979 4288521109
0.091941662 0.093205705 0.83156151 4288653210
0.094140656 0.093142107 0.83099407 4288719003
0.096319959 0.093062468 0.83028358 4288653210
0.09854456 0.093029238 0.82998711 4288916382
0.10076053 0.092989542 0.82963294 4288916382
0.10293537 0.092914455 0.82896304 4288982177
0.10510325 0.092836447 0.82826704 4288982177
0.10734476 0.092825375 0.82816827 4289113509
0.10973746 0.092942812 0.829216 4289310888
0.1119453 0.092902102 0.82885283 4289376681
0.11431027 0.092990831 0.82964444 4289837232
0.11647917 0.092919707 0.82900989 4290231991
0.11890099 0.093049213 0.83016533 4290560445
0.12114383 0.093036436 0.8300513 4291086789
0.12370104 0.093261145 0.83205611 4291481293
0.12610862 0.093366988 0.83300042 4291678672
0.12886743 0.093724534 0.8361904 4292007639
0.13162269 0.094067141 0.83924705 4292533213
0.13457283 0.094534956 0.8434208 4292533213
0.1374173 0.094914094 0.84680337 4291875283
0.074743278 0.099698849 0.86840481 4287007106
0.076437622 0.098833561 0.86086792 4287336069
0.078063354 0.097933665 0.85302961 4287600009
0.079832494 0.097260475 0.84716594 4287797388
0.081789628 0.096847683 0.84357041 4287928972
0.083876885 0.096607305 0.84147662 4288126351
0.086025804 0.096448839 0.84009635 4288323730
0.08793164 0.096033096 0.83647513 4288323732
0.090038486 0.095852338 0.83490062 4288324245
0.092096291 0.095629536 0.83296001 4288455833
0.09431871 0.095584281 0.83256578 4288587419
0.096570455 0.095570162 0.83244282 4288719005
0.098837912 0.09557189 0.8324579 4288916384
0.1011951 0.095658354 0.833211 4288784798
0.10324376 0.095455781 0.83144653 4288916384
0.10542126 0.095378458 0.83077306 4288916384
0.10761026 0.09531457 0.83021653 4288981923
0.11004449 0.095466062 0.83153605 4289047716
0.11217349 0.095351979 0.83054239 4289179302
0.11440659 0.095329151 0.83034354 4289639853
0.11664669 0.095312916 0.83020216 4290034612
0.11916474 0.095520109 0.83200687 4290428859
0.12145725 0.095542155 0.83219886 4290692031
0.12386014 0.095648624 0.83312625 4288652194
0.12636198 0.09582632 0.834674 4287994264
0.12918438 0.09623652 0.838247 4292205016
0.13201216 0.096636444 0.84173042 4292336604
0.13491583 0.09707731 0.8455705 4292533983
0.13768473 0.097408064 0.84845144 4291743697
0.07452032 0.10175794 0.86581433 4287072899
0.076259509 0.10094085 0.85886198 4287204483
0.077891149 0.10003421 0.85114783 4287402632
0.079519317 0.099175632 0.84384257 4287665802
0.081485353 0.098774806 0.84043211 4287863179
0.083600648 0.098571867 0.83870536 4287928974
0.085914053 0.098607078 0.83900499 4287994767
0.087882444 0.09825474 0.83600712 4288060560
0.090072908 0.098162211 0.8352198 4288389527
0.092054717 0.097852431 0.83258402 4288455833
0.094220951 0.097748876 0.83170289 4288324247
0.096381053 0.097643957 0.83081019 4288587419
0.098691396 0.097692572 0.83122385 4288587165
0.10096366 0.09770216 0.83130544 4288718751
0.1030001 0.097488128 0.82948434 4288718751
0.10510071 0.097342707 0.82824701 4288784544
0.10744997 0.097428851 0.82897997 4288981923
0.10987683 0.097580366 0.83026916 4289113509
0.11216739 0.097607173 0.83049721 4289376681
0.11426432 0.09746775 0.82931095 4286679169
0.11663572 0.097563319 0.83012408 4290560443
0.11907385 0.097710006 0.8313722 4290692031
0.12148277 0.09782771 0.83237368 4290297273
0.12387908 0.097931132 0.83325368 4289112745
0.12638927 0.098119244 0.83485425 4288783780
0.12885723 0.098268501 0.83612418 4292139223
0.13150789 0.098549493 0.83851504 4292073432
0.13422766 0.098871812 0.84125751 4288915368
0.13739805 0.099509671 0.84668475 4292138455
0.074735746 0.10441542 0.86831725 4287072644
0.076413587 0.10348708 0.86059719 4287270278
0.078093655 0.10261689 0.85336071 4287205253
0.079909854 0.10197069 0.84798688 4287402632
0.081840493 0.10150269 0.84409499 4287665802
0.083984047 0.10131711 0.84255171 4287863181
0.086254038 0.10128986 0.84232515 4287928976
0.088306881 0.10101564 0.84004474 4288061075
0.09038917 0.10078808 0.83815235 4288126868
0.092375726 0.10046761 0.83548737 4288192407
0.094561428 0.10037394 0.83470833 4288323993
0.096763954 0.10030209 0.8341108 4288521372
0.098981708 0.10024896 0.83366901 4288455579
0.10117135 0.10017037 0.8330155 4288521372
0.10322031 0.099958993 0.83125764 4288587165
0.10535606 0.099838935 0.83025926 4288652958
0.10766839 0.099887729 0.83066505 4288916130
0.11010401 0.10004655 0.83198577 4289047970
0.11235119 0.10003119 0.83185804 4289508267
0.11455828 0.099981457 0.83144444 4282994761
0.11693922 0.10008243 0.83228415 4284375903
0.11945554 0.10029323 0.83403718 4290626495
0.12178965 0.10034604 0.83447635 4289705393
0.12427405 0.10051848 0.83591032 4291087046
0.12677695 0.10069942 0.83741504 4290757570
0.1292488 0.10084973 0.83866507 4292139223
0.13163966 0.10093273 0.83935529 4292336604
0.13433582 0.101243 0.8419354 4292927971
0.13757208 0.10194306 0.84775716 4293783280
0.076481573 0.10592355 0.86136293 4286941313
0.078204311 0.1050882 0.85456991 4287204485
0.079909518 0.10427823 0.8479833 4287467657
0.081786424 0.1037315 0.84353733 4287534218
0.08378122 0.10336006 0.84051687 4287665804
0.086122826 0.10342486 0.84104383 4287731597
0.088239044 0.10322265 0.8393994 4287929489
0.090324312 0.10299534 0.837551 4288192661
0.092331842 0.10269277 0.83509046 4288258200
0.094483167 0.10256082 0.83401746 4288258200
0.096638955 0.1024398 0.83303332 4288455579
0.098750882 0.1022789 0.83172488 4288521372
0.10090367 0.10216658 0.8308115 4288587165
0.10317601 0.10217757 0.83090091 4288652958
0.10531319 0.10205712 0.82992142 4288784544
0.10753727 0.10202417 0.82965344 4289047716
0.10960875 0.10185078 0.82824343 4289179302
0.11189644 0.10188123 0.82849109 4288323994
0.11412074 0.1018539 0.82826883 4289179303
0.11676268 0.10219316 0.83102769 4282336831
0.11919611 0.1023405 0.83222586 4290758081
0.12151255 0.10238378 0.83257776 4290692288
0.12397311 0.10254467 0.83388615 4291416011
0.12652388 0.10277306 0.83574337 4291612879
0.12902276 0.10295197 0.83719832 4292007637
0.13131477 0.10296247 0.83728367 4292402397
0.13399051 0.10326837 0.83977121 4292862948
0.13730294 0.10404647 0.84609866 4293388522
0.076731928 0.10862233 0.86418253 4286875520
0.078486331 0.10780144 0.85765165 4287270278
0.0802899 0.10709356 0.85201979 4287336071
0.082092561 0.10642424 0.84669483 4287336585
0.083991684 0.10591311 0.8426283 4287402378
0.086101718 0.10568804 0.84083766 4287797649
0.08818277 0.10543996 0.83886403 4287863442
0.090249471 0.10518768 0.83685696 4288060821
0.092411712 0.10505644 0.83581281 4288126614
0.094688125 0.10505819 0.83582669 4288389786
0.096928053 0.10502031 0.83552533 4288323993
0.099015407 0.10482266 0.83395284 4288521372
0.10117522 0.10470884 0.83304733 4288521372
0.10347944 0.10474619 0.83334452 4288652958
0.10576183 0.10476033 0.83345693 4280889384
0.10781274 0.10454938 0.83177871 4282731588
0.10989497 0.10437686 0.83040619 4289639853
0.11204281 0.10427236 0.82957476 4289245096
0.1143948 0.10435823 0.83025795 4287797650
0.11683433 0.10451908 0.8315376 4289836979
0.11939945 0.10478403 0.83364558 4290758081
0.12166592 0.1047819 0.83362859 4290889156
0.12410705 0.10492751 0.83478707 4291349707
0.12653276 0.10505509 0.83580208 4291612879
0.12928772 0.1054467 0.83891761 4291941846
0.13180116 0.10563114 0.84038496 4292468192
0.1346411 0.1060665 0.84384871 4293059559
0.13790447 0.10681523 0.84980541 4293585903
0.076462485 0.11058471 0.86114794 4286349176
0.078320846 0.10990352 0.85584337 4287073413
0.080131337 0.10919645 0.85033721 4287270792
0.082079224 0.10871104 0.84655726 4287402378
0.083924562 0.10812003 0.84195495 4287599757
0.08597967 0.10782351 0.8396458 4287600270
0.087948203 0.10743657 0.83663267 4287863442
0.090056606 0.10723571 0.83506858 4288126614
0.092154607 0.10703268 0.83348745 4288126614
0.094360888 0.10696214 0.83293813 4288323993
0.096596904 0.1069278 0.83267081 4288323993
0.098799162 0.10685855 0.83213151 4288455579
0.10103822 0.10683131 0.83191937 4288718751
0.10329213 0.10682061 0.83183604 4288718751
0.10566331 0.10692906 0.83268052 4287205512
0.10781529 0.10681577 0.83179837 4280297247
0.109851 0.10659433 0.83007395 4289376681
0.11202469 0.106513 0.82944065 4289508268
0.11425657 0.10648912 0.82925469 4289705647
0.11671626 0.10667437 0.8306973 4290231991
0.11904904 0.1067388 0.83119899 4290626495
0.12152796 0.10692941 0.83268332 4291087048
0.12378474 0.10692116 0.83261907 4291547086
0.12634672 0.10717209 0.83457315 4291678672
0.12909557 0.10756987 0.83767074 4292073432
0.13187815 0.10798147 0.84087592 4292533985
0.13466749 0.10838445 0.84401405 4292994536
0.13796395 0.10917523 0.85017198 4293585903
0.076593891 0.11312258 0.86262786 4286875520
0.078443862 0.11240916 0.85718757 4287007620
0.080403641 0.11188975 0.85322678 4287139206
0.082392171 0.1114384 0.84978497 4287337098
0.084226161 0.11080838 0.84498066 4287468684
0.086145744 0.11032145 0.84126759 4287731856
0.088128775 0.1099389 0.83835042 4287863442
0.090311192 0.10981812 0.83742929 4288126614
0.092460126 0.10966356 0.83625072 4288126868
0.094631732 0.10954267 0.83532888 4288323993
0.096819639 0.10944589 0.83459085 4288126614
0.099047758 0.10939795 0.8342253 4288981923
0.10119841 0.10926851 0.83323824 4283521104
0.10328662 0.10907882 0.8317917 4288981923
0.1056723 0.10920466 0.83275139 4289179302
0.10789166 0.10915697 0.83238763 4289310888
0.11034141 0.10933951 0.83377969 4289113509
0.11251574 0.10924729 0.83307642 4289442475
0.11490346 0.10936181 0.83394969 4289705647
0.11720038 0.10938715 0.83414292 4290231737
0.11949707 0.10941131 0.83432716 4290626495
0.12198274 0.10960437 0.8357994 4290823876
0.12424333 0.10959183 0.83570379 4291416013
0.12674364 0.1097874 0.83719504 4291547599
0.1293526 0.11006849 0.8393386 4292008152
0.13220246 0.11054127 0.84294379 4292336604
0.13507365 0.11101544 0.84655964 4292862948
0.13849756 0.11192038 0.85346031 4293388522
0.076624423 0.11551644 0.86297172 4286941313
0.078354992 0.11461219 0.85621649 4287007620
0.080296762 0.11406018 0.85209262 4287073926
0.082343385 0.11368392 0.84928179 4287271305
0.084141947 0.11299508 0.84413576 4287534477
0.086010821 0.11243478 0.83995003 4287797649
0.088059194 0.11213206 0.83768851 4287929235
0.090254143 0.11202655 0.83690029 4288060821
0.092316695 0.11176595 0.83495349 4287929489
0.094320185 0.11144808 0.83257884 4288192661
0.096502379 0.11135133 0.83185601 4288192661
0.098881662 0.11148122 0.83282638 4282600770
0.10121175 0.11155105 0.8333481 4284771939
0.10327368 0.11132877 0.83168751 4287008133
0.10546088 0.11124817 0.83108532 4288981923
0.10766065 0.11118391 0.83060533 4288850337
0.1101074 0.11137213 0.8320114 4289179302
0.11241127 0.11141115 0.83230293 4289376682
0.11474337 0.11147605 0.83278775 4289903026
0.11705836 0.11152214 0.83313209 4290100151
0.11927832 0.11147767 0.83279985 4290626497
0.12176272 0.11167739 0.83429188 4291021255
0.12406558 0.11170633 0.83450812 4291350220
0.12677172 0.11209083 0.83738047 4291679185
0.12936133 0.11236051 0.83939523 4292139738
0.13206173 0.11271541 0.84204644 4292337117
0.13480701 0.11309583 0.84488845 4292862948
0.13834086 0.11411399 0.85249466 4293322729
0.07703077 0.11849026 0.86754817 4286678141
0.078574218 0.11726975 0.858612 4287072899
0.080438279 0.11658445 0.85359442 4287073413
0.082306445 0.11594339 0.84890079 4287271305
0.084160566 0.11531809 0.84432256 4287468684
0.086136945 0.11488911 0.8411817 4287731856
0.088342644 0.11478028 0.8403849 4287731856
0.090556055 0.11468672 0.83969986 4287929235
0.092680819 0.11448825 0.83824676 4288192407
0.094729833 0.11420801 0.83619487 4288390040
0.096887469 0.11406878 0.83517551 4288390040
0.099256858 0.11417954 0.83598644 4286219385
0.10159615 0.11425149 0.83651322 4283785044
0.10379653 0.11416748 0.83589816 4286811522
0.10582811 0.11390539 0.83397925 4288653212
0.10796817 0.11376863 0.83297789 4288981923
0.1103337 0.11387018 0.8337214 4289047716
0.11270873 0.11397725 0.83450532 4289442474
0.11515203 0.11414777 0.8357538 4289903026
0.11741446 0.11413585 0.83566654 4290100151
0.11963262 0.11408217 0.83527356 4290758083
0.12189773 0.11407444 0.83521694 4291152841
0.1242603 0.11415651 0.83581787 4291547086
0.12687974 0.11446739 0.838094 4291744978
0.12947972 0.11475003 0.84016341 4292271324
0.13217492 0.11510579 0.84276819 4292467420
0.13499853 0.11555934 0.84608889 4292993764
0.1385882 0.11664242 0.85401887 4293651437
0.067046031 0.11988614 0.86061841 4278190080
0.069534101 0.12013789 0.86242563 4287467145
0.076845549 0.12056088 0.86546212 4286940800
0.078509852 0.11950868 0.85790873 4287007106
0.080355577 0.11878543 0.85271674 4287139206
0.08216735 0.11805401 0.84746617 4287271305
0.083980083 0.11736388 0.84251195 4287337098
0.085962102 0.11694071 0.8394742 4287731856
0.088187449 0.11686192 0.83890855 4287929235
0.09041404 0.1167887 0.83838296 4288126614
0.092462547 0.11649472 0.8362726 4288192407
0.094539218 0.11624949 0.83451223 4288192661
0.096626498 0.11602852 0.83292592 4288258968
0.098958679 0.11610501 0.83347499 4288456347
0.10131034 0.11620042 0.83415991 4288522140
0.10361701 0.11624116 0.83445245 4288522140
0.10567399 0.11600606 0.83276469 4288521372
0.10772376 0.11577308 0.83109224 4288916130
0.10992336 0.1157074 0.83062077 4289113509
0.11226538 0.11579126 0.83122271 4289245096
0.11469723 0.11596263 0.83245295 4289837233
0.1170893 0.11608792 0.83335233 4290297530
0.11943262 0.11616103 0.83387715 4290758083
0.12165371 0.11611474 0.83354491 4291087048
0.12404287 0.11622764 0.83435535 4291481806
0.1266342 0.11652251 0.83647209 4291810773
0.12948185 0.11703864 0.84017724 4292401629
0.13229981 0.11751049 0.84356445 4292599778
0.13522968 0.11806395 0.84753752 4293585644
0.069119878 0.12175552 0.85728806 4278190080
0.077209592 0.12349872 0.86956209 4287007106
0.078863718 0.12239284 0.86177552 4287007106
0.080750503 0.12170149 0.85690761 4287073413
0.082518779 0.12087536 0.85109079 4287205512
0.08442498 0.12029085 0.84697527 4287402891
0.086365275 0.11978471 0.84341145 4287600270
0.088514484 0.11958703 0.84201962 4287731856
0.090655737 0.11938884 0.84062415 4287995028
0.092677131 0.11904646 0.83821344 4288192407
0.094839543 0.11889731 0.83716327 4288192407
0.096854419 0.11857454 0.8348906 4288258200
0.099170491 0.11862686 0.83525902 4288324761
0.10136253 0.11853179 0.8345896 4288390556
0.10368848 0.11859404 0.83502793 4288521372
0.10579745 0.11841079 0.83373761 4288718751
0.10791268 0.11824208 0.83254975 4289442474
0.11014234 0.11820312 0.83227539 4289113509
0.11255796 0.11836127 0.83338898 4289574060
0.11509537 0.11863872 0.83534253 4290166198
0.1174559 0.11872663 0.83596152 4290758081
0.11968338 0.11867926 0.83562797 4291086535
0.12178119 0.11850747 0.83441836 4291415500
0.12421619 0.1186641 0.83552122 4291810260
0.12684934 0.11900098 0.83789319 4291479755
0.12963969 0.11947082 0.84120136 4293383904
0.1324452 0.1199381 0.84449148 4293318111
0.13537402 0.1204992 0.84844226 4290091429
0.067065433 0.12460692 0.8608675 4287203972
0.077260897 0.12594907 0.87013996 4287203972
0.078884877 0.12477182 0.86200672 4287007106
0.080804542 0.12411675 0.85748106 4287073413
0.082593217 0.12330291 0.85185856 4287073413
0.084397912 0.12255677 0.84670371 4287337098
0.08623112 0.1218906 0.84210134 4287666063
0.08830516 0.12159054 0.84002835 4287863442
0.090421282 0.12136211 0.83845013 4287929235
0.09245982 0.12104335 0.83624798 4288258200
0.09452194 0.12077004 0.83435977 4288323993
0.096637651 0.12057641 0.83302206 4288455579
0.0989011 0.12057178 0.83299005 4288456349
0.10114504 0.12054411 0.8327989 4288587165
0.10339197 0.12052113 0.83264011 4288718751
0.10550988 0.12035196 0.83147138 4284705378
0.10775962 0.12033712 0.83136886 4286679168
0.11000626 0.1203195 0.83124715 4283784276
0.11255231 0.12062348 0.8333472 4289573548
0.11495182 0.12076149 0.8343007 4283718484
0.11745209 0.12099795 0.83593434 4283586385
0.11963933 0.12090909 0.83532041 4286547331
0.12189695 0.12089334 0.83521158 4291152330
0.12438918 0.12110657 0.83668476 4289174690
0.12696907 0.12139597 0.83868408 4289958303
0.12959312 0.1217166 0.84089929 4290547619
0.13221627 0.12202529 0.84303188 4290548132
0.13523874 0.12268569 0.84759432 4291799739
0.066935778 0.12670451 0.85920316 4287072899
0.071838871 0.12710452 0.86191565 4278190080
0.077709205 0.12906191 0.87518895 4287269765
0.079214819 0.12764964 0.86561215 4286810241
0.081105672 0.12692182 0.86067665 4286941827
0.082919747 0.12611806 0.85522628 4287008133
0.084755175 0.1253898 0.85028785 4287337098
0.086587094 0.1246952 0.84557766 4287600270
0.088632643 0.12433627 0.84314364 4287666063
0.090589479 0.12387413 0.84000981 4288060821
0.092660785 0.12358741 0.83806556 4288126614
0.094707012 0.12328184 0.83599341 4288389786
0.096996807 0.12330022 0.83611804 4288389786
0.099244945 0.123266 0.83588606 4288390556
0.10148652 0.12322538 0.83561051 4288652958
0.10375635 0.12322007 0.83557457 4288916130
0.10596161 0.12313996 0.83503127 4284047448
0.10838248 0.12330851 0.83617425 4285297515
0.1106194 0.12326515 0.83588022 4284902757
0.11318571 0.1235832 0.83803695 4287929236
0.11551888 0.12363914 0.83841634 4283915863
0.11788291 0.12372531 0.83900064 4284771172
0.12006193 0.12361771 0.83827102 4282204734
0.12226817 0.12354163 0.83775508 4291611339
0.12467634 0.12366863 0.83861631 4290753722
0.12708664 0.12379314 0.83946061 4288248711
0.12947825 0.12389537 0.84015387 4289889689
0.13209178 0.12420272 0.84223807 4289957022
0.13508181 0.12484755 0.84661078 4293251289
0.07002259 0.13043696 0.86848432 4278190080
0.07751409 0.13111389 0.8729915 4287204485
0.079072952 0.12977277 0.86406195 4286810241
0.080901392 0.12893875 0.85850883 4286876547
0.082661867 0.12804627 0.85256654 4287139719
0.08443781 0.12722586 0.84710395 4287337098
0.086430572 0.12676705 0.84404916 4287534477
0.088525757 0.12647834 0.84212685 4287929235
0.090534225 0.12608345 0.83949745 4287930005
0.092589892 0.12577209 0.8374244 4288061591
0.094633974 0.12546034 0.83534867 4288258200
0.096923292 0.12548071 0.83548433 4288389786
0.099069215 0.12531877 0.83440602 4288324763
0.10131732 0.12529044 0.83421737 4288521372
0.1036486 0.12536393 0.83470678 4288718751
0.10595472 0.12540452 0.83497703 4284376413
0.10834034 0.12553552 0.83584917 4286810754
0.11038444 0.12527353 0.83410484 4283915862
0.11273597 0.12536398 0.83470702 4288258201
0.11512462 0.12549131 0.83555484 4287272333
0.11763329 0.125742 0.83722401 4286481790
0.12023114 0.12607668 0.83945245 4287797139
0.12253789 0.12609932 0.83960313 4291021255
0.12483393 0.12611032 0.83967632 4291940817
0.12702273 0.12601452 0.83903849 4292139225
0.12937188 0.12607837 0.83946365 4293059046
0.13211431 0.12651663 0.84238172 4291940308
0.13510294 0.1271717 0.84674329 4293455085
0.077896185 0.13414794 0.87729478 4287401351
0.079355054 0.13259587 0.86714458 4286875520
0.08114434 0.1316696 0.86108696 4286942340
0.08294718 0.1308167 0.85550928 4287008133
0.084756732 0.13002068 0.85030347 4287337098
0.086712539 0.12948537 0.84680271 4287535247
0.088786893 0.12915023 0.84461093 4287929235
0.09075655 0.12868355 0.84155899 4287864212
0.092809282 0.12835474 0.83940864 4287864212
0.09494254 0.12815042 0.83807242 4288061591
0.097253211 0.12818953 0.83832824 4288324763
0.099450752 0.12808116 0.83761948 4288390556
0.10160507 0.12792322 0.83658665 4288456349
0.10389272 0.12793639 0.83667278 4288652958
0.10620433 0.12797788 0.83694404 4288784544
0.10848852 0.12798525 0.83699232 4289047716
0.11063486 0.12783307 0.83599705 4289376681
0.11279284 0.12770019 0.83512813 4289508268
0.11525618 0.12791145 0.83650964 4289771440
0.11767114 0.12806188 0.83749342 4290495163
0.12037116 0.12851092 0.84043002 4290560702
0.12274471 0.12860116 0.84102023 4291086535
0.12500174 0.12856826 0.84080505 4291612879
0.12735522 0.12863396 0.84123468 4291941846
0.12967463 0.12866354 0.84142816 4292402399
0.13256425 0.12924804 0.84525061 4292731364
0.13543861 0.12979797 0.84884697 4293322729
0.079188645 0.13467298 0.86532617 4287006593
0.081009112 0.13378988 0.85965192 4286941827
0.082892023 0.13305661 0.85494035 4287139719
0.084680103 0.13221532 0.84953469 4287271305
0.086652011 0.13169813 0.84621161 4287534477
0.088648498 0.13124412 0.84329444 4287731856
0.090709284 0.13090582 0.84112072 4287995028
0.092680357 0.13045789 0.83824259 4288060821
0.094825752 0.13027097 0.83704156 4288193177
0.097071469 0.1302274 0.83676159 4288258970
0.099374086 0.13026042 0.83697379 4288390556
0.1015686 0.13015345 0.83628637 4288587935
0.10374784 0.130032 0.83550602 4288587935
0.10584483 0.12981488 0.83411098 4288785314
0.10809941 0.12979612 0.8339904 4288916131
0.11035261 0.12977649 0.83386433 4289179303
0.11274499 0.12991804 0.83477384 4289508268
0.11507182 0.12997995 0.83517164 4289903026
0.11748018 0.13012978 0.83613431 4290297530
0.11994409 0.13033427 0.83744824 4290429116
0.12241586 0.13053952 0.83876705 4290955464
0.12477126 0.13061543 0.8392548 4291481808
0.12729016 0.13085668 0.84080493 4291876566
0.12982385 0.13110436 0.84239644 4292336863
0.13277711 0.13175981 0.84660786 4292731621
0.13574399 0.13240616 0.85076094 4293191913
0.079488672 0.13754731 0.86860466 4287532937
0.081317335 0.13664757 0.86292279 4286876547
0.083271228 0.13600285 0.85885143 4286811524
0.085038058 0.13509618 0.85312581 4287205512
0.086877719 0.13435033 0.84841579 4287600270
0.088807859 0.13377939 0.84481037 4287731856
0.090818636 0.13335569 0.84213471 4287929235
0.092845447 0.1329758 0.83973575 4288126614
0.094972357 0.13275409 0.83833563 4288126614
0.097364441 0.13290475 0.83928704 4288193177
0.099643588 0.13289787 0.83924365 4288258970
0.10187033 0.13282298 0.83877069 4288522142
0.10392909 0.13253714 0.83696562 4288456349
0.10601692 0.13229986 0.83546716 4288653728
0.10825846 0.13226031 0.83521748 4288916900
0.11056893 0.13230488 0.83549887 4289310889
0.11304319 0.13253969 0.83698171 4289573807
0.11530667 0.13252297 0.83687609 4290034358
0.11760975 0.13255152 0.83705646 4290297530
0.11994612 0.1326158 0.83746243 4290494911
0.12235061 0.1327516 0.83831996 4291087050
0.12482771 0.13295977 0.83963448 4291481808
0.12745294 0.13331538 0.8418802 4291942359
0.13030514 0.13389167 0.84551942 4292336863
0.13326508 0.13455673 0.84971923 4292797414
0.1364308 0.13540334 0.85506546 4293323501
0.079400524 0.13975626 0.86764139 4286211945
0.081268594 0.13891289 0.86240554 4287659133
0.083076335 0.13801663 0.85684139 4287860362
0.084905028 0.13720317 0.85179126 4287665034
0.086768009 0.1364869 0.8473444 4287468684
0.088700086 0.1359136 0.84378517 4287928208
0.090683416 0.13544577 0.84088081 4288060308
0.092684932 0.13502747 0.83828396 4287995028
0.094872549 0.13489389 0.83745462 4288192407
0.097136743 0.1348729 0.83732426 4288521372
0.099388614 0.13483615 0.83709615 4288455579
0.101618 0.13477121 0.83669305 4288849310
0.1037903 0.13463509 0.83584791 4288980383
0.10585684 0.13437057 0.83420569 4289046689
0.10808077 0.13431272 0.83384657 4289309348
0.11037786 0.13434631 0.83405513 4289310375
0.1130142 0.13478315 0.83676708 4289836722
0.11521821 0.1346973 0.83623415 4289903544
0.11741993 0.13461214 0.83570546 4290231739
0.11968139 0.13459742 0.83561409 4290954181
0.12206427 0.13471726 0.83635801 4291020746
0.12469257 0.13509859 0.83872551 4291678676
0.12723576 0.13537566 0.84044564 4292072662
0.13031946 0.13620789 0.84561229 4292335836
0.13321555 0.13681854 0.84940338 4293846252
0.13651083 0.13781136 0.85556704 4294897143
0.07949926 0.14229447 0.86872035 4284107600
0.081410885 0.14150743 0.8639155 4283571242
0.083037086 0.14028241 0.85643655 4283701800
0.084906586 0.13952407 0.85180688 4283312684
0.086812809 0.13886479 0.8477819 4286478191
0.08897046 0.13863142 0.84635717 4288781462
0.090946905 0.1381346 0.84332407 4288914331
0.09299814 0.13777305 0.84111673 4288849308
0.095120192 0.13753127 0.83964062 4288981664
0.097311273 0.13739829 0.83882874 4288915101
0.099429578 0.137171 0.83744115 4288521372
0.10167676 0.13712771 0.83717692 4288784031
0.1039534 0.13712518 0.83716142 4288981410
0.10627946 0.13718654 0.8375361 4289047203
0.10840424 0.13699098 0.83634216 4289375654
0.11074848 0.1370751 0.83685571 4289310888
0.11323172 0.13732438 0.83837759 4289901743
0.11563966 0.13747431 0.83929288 4290361524
0.11782914 0.13736375 0.83861792 4290952893
0.12007806 0.13732538 0.83838362 4291413444
0.12241979 0.13739258 0.83879393 4291808718
0.12504105 0.1377653 0.84106946 4292532441
0.1275598 0.13801372 0.84258604 4293057758
0.13055225 0.13875684 0.84712285 4294239724
0.13328145 0.13919923 0.84982365 4294823648
0.13676549 0.14040141 0.85716307 4291195278
0.079581715 0.14480892 0.8696214 4284438107
0.081263453 0.14359824 0.86235094 4283966259
0.082744345 0.1421106 0.85341722 4284357420
0.084608711 0.14134483 0.84881854 4284749350
0.0865895 0.14080909 0.8456012 4284487718
0.088777013 0.14062853 0.84451693 4284290596
0.090804651 0.14021024 0.84200501 4283833638
0.092864133 0.13986051 0.83990473 4283573546
0.094948158 0.13956365 0.83812201 4283973181
0.096973896 0.13919705 0.83592051 4285225044
0.099030487 0.13889055 0.8340798 4286080610
0.10131615 0.13891186 0.83420777 4286476138
0.10367849 0.13903505 0.83494759 4287200888
0.10606601 0.13918598 0.83585399 4287858818
0.10820785 0.13901497 0.83482701 4287134327
0.11047673 0.13901083 0.83480221 4287265656
0.11291891 0.13922054 0.83606154 4287264888
0.11528782 0.1393334 0.8367393 4286935410
0.11768468 0.13947502 0.83758974 4286340963
0.11987838 0.13937506 0.83698946 4285287505
0.12234074 0.13958535 0.83825231 4285348678
0.1247874 0.13977036 0.83936334 4286262850
0.12731226 0.14003472 0.84095097 4287703624
0.1300195 0.14048682 0.84366596 4288162894
0.13283916 0.14104259 0.84700346 4289346655
0.13662238 0.14258501 0.85626614 4278190080
0.080048181 0.14803843 0.87471861 4289441712
0.081404597 0.14619881 0.86384875 4279964179
0.082894474 0.14469543 0.85496569 4281145626
0.084801637 0.14398263 0.85075402 4282916643
0.086772807 0.14341353 0.84739131 4285014573
0.088843316 0.14303382 0.84514767 4285209899
0.09088105 0.14262183 0.84271342 4285538094
0.093000002 0.14235446 0.84113359 4285537581
0.095078871 0.14204006 0.83927584 4285733932
0.097176604 0.14176792 0.83766788 4285799468
0.099190064 0.14138813 0.83542383 4285864491
0.10150476 0.14144515 0.83576065 4285929771
0.10369643 0.14133199 0.83509201 4285996078
0.10619936 0.14163879 0.83690488 4285996592
0.10833259 0.14145 0.83578938 4286259250
0.11065639 0.14151269 0.83615977 4286389810
0.11281556 0.14136656 0.83529633 4286980152
0.11523806 0.14154965 0.83637816 4287308604
0.11773003 0.14180933 0.83791256 4287702081
0.12009352 0.14190732 0.83849156 4287899460
0.12257124 0.14213413 0.83983171 4288358730
0.12495784 0.1422489 0.84050983 4288951637
0.12749092 0.14252329 0.84213114 4289281628
0.1301856 0.14296547 0.84474379 4289414241
0.13309675 0.14362586 0.84864593 4288498530
0.081847087 0.14935744 0.8685444 4279307534
0.083203673 0.14757079 0.85815471 4280360218
0.084981807 0.14660898 0.85256153 4279899920
0.086882114 0.14590344 0.84845871 4280356619
0.088668093 0.14504743 0.84348083 4281143055
0.090705507 0.14463556 0.84108567 4281798162
0.092862323 0.14442967 0.83988839 4282584082
0.095012985 0.14422432 0.83869427 4283568154
0.097132295 0.14398214 0.83728594 4283961884
0.099133924 0.14358062 0.83495098 4284487458
0.10140333 0.14357623 0.83492553 4284880933
0.10359351 0.14346233 0.83426315 4285274922
0.10609944 0.1437812 0.83611745 4285669167
0.1083503 0.14374828 0.835926 4285603374
0.11059934 0.14371435 0.8357287 4286129461
0.11266161 0.14344399 0.83415645 4285602349
0.11498502 0.14351022 0.83454162 4285471277
0.11749735 0.14380512 0.83625656 4285471277
0.11997563 0.14404792 0.83766848 4284551203
0.12249016 0.14432438 0.83927613 4284222238
0.12483416 0.14439346 0.83967787 4283961120
0.12744789 0.14476644 0.84184682 4282982440
0.13017623 0.14525415 0.84468293 4282328618
0.1334046 0.14627318 0.85060883 4282595899
0.084212482 0.151724 0.86855948 4280032282
0.085983053 0.15068407 0.86260629 4279769363
0.08772599 0.14965227 0.85669971 4279703057
0.089378461 0.14852358 0.85023838 4279835669
0.091232724 0.14777873 0.84597439 4279769363
0.093265221 0.14735214 0.84353238 4279900690
0.095481165 0.14722893 0.84282696 4279966483
0.097721897 0.14714882 0.84236836 4280032533
0.099804871 0.14684026 0.84060204 4279900947
0.10204322 0.14676903 0.84019423 4279966481
0.10416704 0.14653978 0.83888191 4280032274
0.10664545 0.14680852 0.84042031 4280294678
0.10884131 0.14668517 0.83971417 4280228885
0.11118954 0.14676802 0.84018844 4280228372
0.11314207 0.14633574 0.83771384 4280490776
0.11556392 0.14651556 0.83874321 4280753948
0.11785694 0.14652824 0.83881581 4280491546
0.1205872 0.14707372 0.84193844 4280623645
0.12313577 0.14738138 0.84369969 4280821538
0.12586948 0.14789532 0.84664184 4280887845
0.12863514 0.14842764 0.84968913 4281414189
0.13176657 0.14935577 0.85500228 4281546550
0.080018312 0.15512274 0.87439221 4282138689
0.084443666 0.15451099 0.8709439 4279967002
0.085939214 0.15295382 0.86216646 4279835669
0.08758942 0.15174738 0.85536605 4279638290
0.089638293 0.1512762 0.85271013 4279704083
0.09187074 0.1511308 0.85189056 4279704083
0.093749247 0.15042464 0.84791011 4279835156
0.095820248 0.15005387 0.84582013 4279900949
0.09795399 0.14979643 0.84436899 4279900949
0.10007014 0.14952451 0.84283626 4280032535
0.10229707 0.14942659 0.84228432 4280097815
0.10465216 0.14951608 0.8427887 4280294680
0.10708307 0.14970772 0.84386897 4280360473
0.10941828 0.14976032 0.8441655 4280491546
0.11151727 0.14949411 0.8426649 4280359960
0.11384413 0.14953794 0.84291196 4280492059
0.11619748 0.14961414 0.84334147 4280426266
0.11858885 0.14973539 0.84402496 4280557852
0.12104073 0.14992699 0.84510499 4280689952
0.123671 0.15032828 0.84736693 4280887845
0.12657186 0.15103778 0.85136622 4280887845
0.12964569 0.15192446 0.85636425 4280953897
0.08449664 0.15697986 0.87149024 4279177486
0.086075999 0.15554757 0.86353874 4279769876
0.087583341 0.15406473 0.85530663 4279506704
0.089518592 0.15339193 0.85157144 4279506704
0.091856085 0.15342493 0.85175467 4279704083
0.093980238 0.15310873 0.84999931 4279835669
0.096065424 0.15274578 0.84798431 4279835669
0.098287232 0.152612 0.84724158 4279769876
0.10025775 0.15210311 0.84441644 4279967255
0.10239262 0.15186077 0.8430711 4279704083
0.10454783 0.15165856 0.84194851 4280098328
0.10687667 0.15171151 0.84224242 4279900949
0.10925566 0.15183191 0.84291089 4280164121
0.11134725 0.15155619 0.84138018 4279900949
0.11382422 0.15180555 0.8427645 4280032535
0.11614798 0.15184477 0.84298223 4279966742
0.11854494 0.1519763 0.84371245 4280822051
0.12095045 0.15211359 0.84447461 4279900949
0.12334352 0.15223041 0.84512317 4282532670
0.12634061 0.15307479 0.84981084 4280953384
0.12929665 0.15383993 0.85405862 4284244063
0.13242689 0.1547817 0.8592869 4284638823
0.084721714 0.15977629 0.87381166 4278980109
0.086097397 0.15793714 0.86375344 4279769623
0.087653413 0.15651776 0.85599095 4279572497
0.089149043 0.15506686 0.84805602 4279572497
0.091526158 0.15518376 0.84869534 4279638290
0.093677826 0.15492207 0.84726411 4279704083
0.095968328 0.15489703 0.84712726 4279835669
0.097933069 0.15435971 0.84418863 4279835669
0.09991388 0.15387179 0.84152019 4279835669
0.10172886 0.15315606 0.83760589 4283256905
0.10388377 0.15297225 0.83660066 4283520077
0.10615633 0.15296587 0.83656579 4280164634
0.1087049 0.15334913 0.83866179 4283256905
0.11082712 0.15312752 0.83744985 4280757285
0.11333466 0.15343653 0.83913976 4285099623
0.11568528 0.15352507 0.83962399 4281283629
0.1181678 0.15378183 0.84102821 4285757553
0.12041395 0.15372708 0.84072882 4280954665
0.12282439 0.15388019 0.84156615 4285362798
0.1256132 0.15449306 0.84491795 4284310110
0.12853512 0.15524468 0.84902847 4281743929
0.13142021 0.15592603 0.85275477 4281152307
0.086429842 0.16090694 0.86708862 4279901209
0.08790414 0.15930191 0.85843945 4279572497
0.089376062 0.15777579 0.85021561 4279572497
0.09153039 0.15750095 0.84873456 4279572497
0.093788251 0.15741342 0.84826291 4279638290
0.096271917 0.15769997 0.84980702 4279769876
0.098133512 0.156978 0.84591651 4279835669
0.10023589 0.15666546 0.84423226 4279967255
0.10203585 0.15590484 0.84013355 4279769876
0.10423426 0.15577304 0.8394233 4279967255
0.10647362 0.15570676 0.83906615 4279967769
0.10896125 0.15599874 0.84063947 4281415215
0.11110602 0.15579791 0.83955729 4279639317
0.11350494 0.15595439 0.84040052 4280231454
0.11571232 0.15584671 0.83982027 4279705110
0.11820847 0.15612459 0.84131771 4280034075
0.12040336 0.15600158 0.84065485 4279573525
0.12297679 0.15636449 0.84261042 4280165408
0.12558164 0.1567533 0.8447057 4280428582
0.12847045 0.15747622 0.84860128 4281086512
0.13159637 0.15845911 0.85389787 4283125843
0.086097419 0.16263896 0.86375368 4279769364
0.087989569 0.16179542 0.85927373 4279506704
0.089679003 0.16063246 0.85309744 4279572497
0.091393366 0.15957174 0.84746403 4279638290
0.093634546 0.15946038 0.84687269 4279769876
0.096122272 0.15976419 0.84848613 4279835669
0.097998165 0.15906066 0.84474981 4279901462
0.10010538 0.15875624 0.84313303 4279835669
0.10197785 0.15810153 0.83965594 4280362013
0.104257 0.1580922 0.8396064 4282665282
0.10637051 0.15783748 0.83825362 4281283629
0.10881321 0.15807167 0.83949739 4281941559
0.11091276 0.15780799 0.83809704 4283981655
0.11318932 0.15780172 0.83806372 4284179034
0.11538932 0.15769106 0.83747602 4282994761
0.11799388 0.15812685 0.8397904 4284442207
0.1205106 0.15843059 0.8414036 4284573539
0.12311562 0.15883695 0.84356165 4284968040
0.12563774 0.15912341 0.845083 4285165165
0.12833911 0.15962252 0.84773374 4285034092
0.13143031 0.16058031 0.8528204 4283586394
0.090171441 0.16384916 0.85778189 4279572497
0.091717519 0.16245243 0.85046977 4279638290
0.093752854 0.16196972 0.84794271 4279769876
0.095996678 0.16186176 0.84737748 4279704083
0.098131046 0.16157863 0.84589523 4279638804
0.1001869 0.16118217 0.84381968 4279638804
0.10230514 0.16090159 0.84235084 4279638804
0.10458109 0.1608759 0.84221637 4280362527
0.10679426 0.16075684 0.84159303 4281415215
0.10914663 0.1608479 0.84206975 4280625699
0.11125019 0.16057609 0.84064674 4280955177
0.11338975 0.16036613 0.83954763 4281020970
0.11550291 0.16012791 0.83830041 4279968283
0.1180939 0.16054849 0.84050232 4279902490
0.12079008 0.1610934 0.84335494 4279639064
0.12345796 0.16158092 0.84590727 4279901725
0.12596986 0.1618502 0.84731698 4280033311
0.12873513 0.16242947 0.85034955 4280494377
0.091638245 0.16462475 0.84973466 4279572497
0.093627118 0.16405727 0.84680551 4279572497
0.095748499 0.16374366 0.84518677 4279704083
0.097669154 0.16310954 0.8419137 4279704083
0.099931367 0.16306183 0.84166741 4279704083
0.10215188 0.16294976 0.84108889 4279704083
0.10458496 0.16317423 0.84224755 4279770390
0.10668289 0.16287738 0.84071535 4279836183
0.10892319 0.1628058 0.84034586 4280033562
0.11102602 0.16253592 0.83895284 4281678387
0.11317131 0.16233782 0.83793032 4282073658
0.11531136 0.16214018 0.83691019 4283586385
0.11764298 0.16221434 0.83729297 4283652178
0.12028567 0.16270648 0.8398332 4285164649
0.12290592 0.16315044 0.84212482 4285164651
0.12566537 0.16375957 0.84526891 4284506721
0.115743 0.16503347 0.84004295 4280296220
0.11779035 0.16469927 0.83834183 4280032793
0.12018877 0.16485934 0.83915657 4280098586
