# .PCD v0.7 - Point Cloud Data file format
VERSION 0.7
FIELDS x y z rgba
SIZE 4 4 4 4
TYPE F F F U
COUNT 1 1 1 1
WIDTH 1029
HEIGHT 1
VIEWPOINT 0 0 0 1 0 0 0
POINTS 1029
DATA ascii
0.11438956 0.078957558 0.90144783 4287666064
0.11674619 0.078892104 0.90070057 4287666064
0.11902099 0.07877519 0.89936572 4287862930
0.074131325 0.080324821 0.88942027 4285428591
0.092064247 0.081195898 0.89906555 4293192163
0.09447933 0.081168473 0.89876193 4292797405
0.096774697 0.081042178 0.89736348 4292402646
0.099453822 0.081235573 0.89950484 4292600025
0.10185786 0.081200369 0.89911509 4292271573
0.10421077 0.08112701 0.89830279 4292008401
0.10652728 0.081029333 0.89722127 4291679436
0.10893427 0.081003308 0.89693308 4291613643
0.11104919 0.080766015 0.89430553 4291416264
0.11306631 0.080469288 0.89101994 4291350471
0.11529554 0.080332808 0.88950872 4291218372
0.11775519 0.080359191 0.88980091 4291020479
0.12041373 0.080517501 0.89155382 4291020479
0.12301385 0.080631271 0.89281356 4290888893
0.12579295 0.080855668 0.8952983 4290888893
0.071328044 0.082304172 0.8846758 4294770687
0.07377141 0.082343832 0.88510209 4294639357
0.076263778 0.082433946 0.88607073 4294705150
0.078805156 0.08256989 0.88753194 4294508025
0.081260845 0.082610637 0.88796991 4293586923
0.083922088 0.082851961 0.89056385 4292928991
0.086482033 0.082982533 0.89196742 4292863198
0.089260682 0.083310105 0.89548838 4292665819
0.091676056 0.083290219 0.89527464 4292534232
0.094106294 0.083284512 0.89521331 4292271060
0.096347891 0.08311636 0.89340585 4292139474
0.098629229 0.082989924 0.89204681 4292073681
0.1011503 0.083066449 0.89286935 4291811276
0.10355491 0.083045967 0.89264923 4291877069
0.10604151 0.083090678 0.89312983 4291745483
0.10838252 0.083021872 0.89239019 4291613384
0.11064744 0.082899056 0.89107013 4291613384
0.11296724 0.082821757 0.89023918 4291416003
0.11529537 0.082753673 0.88950741 4291284417
0.11779685 0.08281026 0.89011568 4291217856
0.1202124 0.08280538 0.89006317 4291217856
0.12256259 0.082756557 0.88953841 4291152061
0.12481438 0.082644463 0.8883335 4290954682
0.12708323 0.082547717 0.88729358 4290888889
0.12947558 0.0825333 0.88713866 4290362545
0.0661119 0.084201962 0.87934917 4286547072
0.068370193 0.08403597 0.87761569 4288849059
0.070714705 0.083983585 0.87706858 4294836222
0.073281042 0.084189467 0.8792187 4294901759
0.075724721 0.084245868 0.87980771 4294112497
0.078214042 0.08434803 0.88087463 4293192165
0.080769077 0.084512874 0.88259614 4293126372
0.083401725 0.084747069 0.88504189 4292994784
0.08610858 0.085041396 0.88811564 4292731611
0.088824801 0.085328646 0.89111549 4292665818
0.091371052 0.085441686 0.89229602 4292468439
0.093849316 0.085486948 0.89276874 4292402646
0.09615051 0.085372701 0.89157557 4292205267
0.098390236 0.085210845 0.88988531 4292205267
0.10082603 0.08522249 0.8900069 4291942349
0.1032462 0.085220695 0.88998812 4291942349
0.10578168 0.085311979 0.89094144 4291876554
0.10812658 0.08524891 0.89028281 4291810761
0.11050932 0.085217796 0.88995785 4291613382
0.11280295 0.085120767 0.88894457 4291613382
0.11503638 0.084983334 0.88750935 4291547589
0.11738149 0.084932372 0.88697708 4291546821
0.11979543 0.08493226 0.88697594 4291349442
0.12208406 0.084845059 0.88606524 4291217854
0.12427843 0.084697008 0.8845191 4290954682
0.12633337 0.084461361 0.88205814 4290823096
0.12854697 0.084338598 0.88077611 4290494131
0.065757811 0.086131498 0.87463939 4286809476
0.067900375 0.085830703 0.87158495 4286085751
0.070174493 0.085710905 0.87036842 4286414716
0.072682887 0.08587572 0.87204206 4289243813
0.075081363 0.085904352 0.87233281 4290691259
0.077590987 0.086054504 0.87385756 4292862428
0.080205411 0.086308494 0.87643677 4293521127
0.082790755 0.086517423 0.8785584 4293323748
0.085360676 0.086698957 0.88040179 4293060576
0.087873012 0.086813696 0.88156688 4292665818
0.090452075 0.086986497 0.88332164 4292600025
0.092923753 0.087049752 0.883964 4292665818
0.095319279 0.087040275 0.8838678 4292271060
0.0974961 0.086836487 0.88179833 4292205267
0.099979252 0.086908765 0.8825323 4291942349
0.10229093 0.086832091 0.88175368 4291942349
0.10486519 0.086976707 0.88322228 4291942349
0.10717778 0.086902693 0.88247067 4291810763
0.10960382 0.086921893 0.88266563 4291613384
0.11173371 0.086710438 0.88051838 4291547591
0.11367961 0.086368077 0.87704182 4291416005
0.065532848 0.088209212 0.87164718 4287138439
0.067368254 0.087511681 0.8647545 4287138439
0.069437265 0.08715447 0.86122465 4286348921
0.071579732 0.086909756 0.85880649 4286546555
0.073743552 0.086705633 0.85678947 4286480762
0.076044723 0.086670563 0.85644293 4286546555
0.078561038 0.086875498 0.858468 4287007106
0.080943525 0.086924873 0.85895592 4287204999
0.11874273 0.085524723 0.84512019 4291152579
0.12067752 0.085266545 0.84256899 4290626235
0.12268554 0.085068792 0.84061486 4290099892
0.12464208 0.084843226 0.83838588 4289902513
0.126753 0.084728964 0.83725685 4290888640
0.12901388 0.084717214 0.83714068 4290493882
0.13162659 0.084932894 0.83927196 4291019974
0.063790329 0.091484904 0.88033962 4278190080
0.066245288 0.091566347 0.8811233 4278190080
0.067536935 0.09009032 0.86691982 4287006851
0.069268093 0.089280427 0.85912639 4287072899
0.071065836 0.088606447 0.85264087 4287072897
0.073044799 0.088193901 0.84867102 4287072897
0.075031079 0.08781521 0.84502691 4286480760
0.077247784 0.087720707 0.84411758 4286612346
0.07941252 0.087574355 0.84270924 4286678141
0.081595749 0.08745604 0.84157073 4286678655
0.083722845 0.087285668 0.83993125 4286810241
0.086077213 0.087354988 0.84059834 4287073926
0.088299319 0.087289982 0.83997273 4287139719
0.090587169 0.087291598 0.83998835 4287337352
0.092787392 0.087210789 0.83921069 4287534218
0.095080085 0.087218672 0.83928657 4287928976
0.097122259 0.087001778 0.83719945 4287862929
0.099237323 0.086858623 0.83582187 4287863442
0.10153148 0.086875126 0.83598071 4288126614
0.10373591 0.086815812 0.83540994 4288257687
0.10583184 0.08667019 0.83400863 4288389273
0.107775 0.086408205 0.8314876 4288389273
0.11002082 0.086394653 0.83135718 4288389273
0.1123319 0.086431861 0.83171523 4288586652
0.1146168 0.086447857 0.83186918 4288915617
0.11679138 0.086381637 0.83123195 4289047204
0.11890229 0.086271733 0.83017439 4289441962
0.12110427 0.086230777 0.82978028 4290297273
0.1235326 0.086349547 0.83092314 4291217607
0.12600228 0.086492427 0.83229804 4291743951
0.12866226 0.086758569 0.83485907 4292204502
0.13148561 0.087123737 0.83837306 4293059557
0.060544509 0.092581488 0.86815441 4279572497
0.063640669 0.093660682 0.8782742 4287401609
0.067872018 0.092908517 0.87122101 4286612862
0.069361188 0.091741852 0.86028099 4287072897
0.071017362 0.090865068 0.85205925 4287599239
0.072724976 0.090107471 0.84495509 4287730825
0.074517816 0.089498684 0.83924639 4288125583
0.076496452 0.089142621 0.83590746 4288454548
0.07856369 0.088907391 0.83370167 4288520341
0.080688924 0.088749148 0.83221781 4288784283
0.082780555 0.088563606 0.83047795 4288981664
0.085025996 0.088548101 0.83033258 4289113509
0.087163009 0.088423401 0.82916325 4289245349
0.089425072 0.088428669 0.82921261 4289442728
0.091506235 0.088259183 0.82762331 4289508521
0.093700171 0.088204004 0.82710588 4289771693
0.095682122 0.08795654 0.82478535 4289771693
0.097836316 0.087875128 0.824022 4289968818
0.10015792 0.087944366 0.82467121 4289968818
0.10240901 0.087950006 0.82472414 4289968305
0.10460471 0.087908857 0.82433826 4290494135
0.10664826 0.087744251 0.82279474 4290428856
0.10896303 0.087804973 0.82336414 4290757821
0.11129552 0.087877251 0.82404184 4290955201
0.11367638 0.0879841 0.8250438 4290889408
0.11598584 0.088032618 0.82549876 4291020996
0.1184008 0.08815784 0.82667303 4291284168
0.12066683 0.088169575 0.82678306 4291547340
0.12321576 0.088383801 0.82879192 4291612879
0.12560493 0.088477798 0.82967335 4291941844
0.1284502 0.088884078 0.8334831 4292139223
0.13131663 0.089290649 0.83729559 4292862178
0.06829375 0.095871761 0.87663442 4286547069
0.069560505 0.094353661 0.86275315 4286875520
0.071258001 0.093499891 0.85494643 4287533446
0.072989009 0.092742696 0.84802282 4287731079
0.074829996 0.092167385 0.84276223 4288388755
0.076683179 0.091640867 0.83794791 4288388755
0.07868088 0.091312483 0.8349452 4288586904
0.080712318 0.091040596 0.83245909 4288719003
0.082877018 0.090929769 0.83144569 4288784796
0.085022353 0.090804137 0.83029699 4289113761
0.087230414 0.090750277 0.82980448 4289442726
0.089465044 0.090726078 0.82958323 4289376933
0.091561809 0.09056671 0.82812595 4289508519
0.093678273 0.090434007 0.82691258 4289705898
0.095756069 0.090271078 0.82542276 4289903279
0.098073542 0.090336397 0.82602 4289837486
0.10042883 0.090432838 0.82690185 4290034865
0.10266576 0.090420797 0.82679176 4290231477
0.10482217 0.090339892 0.82605195 4290297270
0.10689791 0.0901943 0.82472074 4290428856
0.10915601 0.090205416 0.82482237 4290560442
0.11146261 0.09025535 0.82527894 4290692029
0.11391225 0.090416849 0.82675564 4290889408
0.11633052 0.090547673 0.82795191 4290955203
0.11877107 0.090690538 0.8292582 4291218375
0.12102576 0.09068881 0.82924241 4291481547
0.12361563 0.090933695 0.83148164 4291744719
0.1260628 0.091066696 0.83269775 4291876051
0.12881628 0.091412365 0.83585852 4292402395
0.1315715 0.091747262 0.83892071 4292927971
0.06847921 0.098524541 0.87901503 4286415483
0.069485821 0.096597999 0.86182684 4286612348
0.071181275 0.095723629 0.85402584 4287401862
0.072835296 0.0948506 0.84623688 4287600009
0.074739739 0.094347216 0.84174579 4288060560
0.076517016 0.093718007 0.83613217 4288257939
0.078485459 0.093352534 0.8328715 4288455831
0.080522865 0.093087293 0.83050507 4288719003
0.082750328 0.093050264 0.83017468 4288784796
0.08486972 0.092896901 0.8288064 4289113761
0.087066554 0.092834055 0.8282457 4289245347
0.089250199 0.092760682 0.82759106 4289311140
0.091391392 0.092647865 0.82658458 4289574312
0.093426637 0.092435665 0.82469136 4289705898
0.095537856 0.092306815 0.82354176 4289771693
0.097825162 0.092350103 0.823928 4289837232
0.10011633 0.092395023 0.82432878 4289903025
0.10238065 0.092413731 0.82449567 4290100404
0.10463356 0.092421569 0.82456559 4290231477
0.10679464 0.092349663 0.82392406 4290297271
0.10903285 0.092346042 0.82389176 4290560443
0.11123927 0.09231618 0.82362533 4290626236
0.11370142 0.092495531 0.82522547 4290823615
0.11612701 0.092638783 0.82650352 4291218373
0.1185936 0.092808664 0.82801914 4291218375
0.12093081 0.092872851 0.82859182 4291481547
0.12348758 0.09310022 0.83062035 4291678926
0.12601008 0.093294024 0.83234948 4291810258
0.12864253 0.093560971 0.8347311 4292336602
0.13151248 0.093988381 0.83854437 4292927971
0.069861233 0.099478215 0.86648303 4286612862
0.071437754 0.098401323 0.85710305 4287139206
0.073175177 0.097607173 0.85018575 4287336837
0.075075075 0.097071789 0.8455224 4287600009
0.076812163 0.096363999 0.83935738 4288060560
0.078692302 0.095871374 0.83506644 4288390038
0.080645002 0.095492326 0.83176482 4288521624
0.082865447 0.095442355 0.83132958 4288653210
0.0849794 0.095275655 0.82987756 4289047968
0.08718887 0.095221892 0.8294093 4289113763
0.089366756 0.095137224 0.82867181 4289179556
0.091542684 0.095054701 0.82795298 4289508521
0.093538396 0.094793491 0.82567781 4289640107
0.09573406 0.094742432 0.82523304 4289640107
0.09796717 0.094729923 0.82512408 4289705646
0.10033405 0.094844416 0.82612139 4290100404
0.1026051 0.0948653 0.82630324 4289047203
0.1049449 0.09494748 0.8270191 4290363063
0.1070895 0.094853312 0.82619888 4290231478
0.10927247 0.094796315 0.82570237 4290428857
0.11146732 0.094751701 0.82531381 4290823615
0.11404663 0.095029205 0.82773095 4288784032
0.11650632 0.095198222 0.82920313 4286678656
0.11887158 0.095285125 0.82996005 4291086787
0.12109993 0.095261075 0.8297506 4291481547
0.12371646 0.09553767 0.83215982 4291744719
0.1263563 0.095822006 0.83463645 4291942098
0.12903684 0.096126623 0.83728975 4292271063
0.13190858 0.09656062 0.84107 4292862432
0.069845855 0.10181412 0.86629236 4286809472
0.071368806 0.1006369 0.85627586 4287270278
0.073085442 0.099798605 0.84914321 4287205253
0.074876346 0.099110015 0.84328425 4287600011
0.076607369 0.098385483 0.83711952 4287797903
0.078575775 0.097998857 0.83382988 4288192661
0.08052513 0.097610846 0.8305285 4288455833
0.082707323 0.097518556 0.82974321 4288653212
0.084807061 0.097336538 0.8281945 4288784798
0.087069891 0.097346291 0.82827747 4289047970
0.089308307 0.097328939 0.82812983 4289245349
0.091424257 0.097182259 0.82688183 4289640107
0.09342669 0.096924864 0.82469177 4289771439
0.095461033 0.096711881 0.82287955 4289376681
0.097722284 0.096733265 0.82306153 4289047716
0.10009339 0.096859999 0.82413983 4286810754
0.10248341 0.096999079 0.82532322 4287468684
0.10480377 0.097067684 0.82590693 4287337098
0.10693624 0.096963033 0.8250165 4290231477
0.10909734 0.09688811 0.82437903 4290428856
0.11132345 0.096872784 0.82424861 4291020994
0.11382432 0.097092427 0.82611746 4284441694
0.1163353 0.097312026 0.82798594 4287533965
0.11867755 0.097384818 0.82860529 4291546570
0.12105769 0.097485408 0.82946116 4291349191
0.12364267 0.097744241 0.83166349 4288980643
0.12631731 0.09806338 0.8343789 4289967540
0.1289241 0.098319501 0.8365581 4292467674
0.1319623 0.098890029 0.84141248 4292665053
0.061528891 0.10210822 0.84913057 4286546300
0.069872528 0.1042117 0.86662316 4286875520
0.071557082 0.10323908 0.85853481 4287073413
0.073257022 0.10234945 0.85113668 4287205253
0.075122148 0.10173809 0.84605259 4287534218
0.076828942 0.10095503 0.83954072 4287666317
0.078929961 0.10072027 0.83758843 4287995282
0.080792792 0.10020328 0.83328915 4288258454
0.083001614 0.10013191 0.83269566 4288455833
0.08499983 0.099817023 0.83007705 4288719005
0.087269478 0.099828936 0.83017612 4288916130
0.089547165 0.099849209 0.83034468 4289245095
0.091790907 0.099831566 0.83019799 4282007865
0.093902238 0.099674225 0.82888955 4285823859
0.095912069 0.09941905 0.8267675 4289574061
0.098141037 0.099397518 0.82658845 4289441961
0.1005711 0.099576063 0.8280732 4285823346
0.10293148 0.099679284 0.82893163 4287008133
0.10519717 0.099688359 0.82900709 4289903025
0.10727576 0.099523477 0.82763594 4290297271
0.10947337 0.099473514 0.82722044 4290297271
0.11170232 0.099453479 0.82705379 4288981411
0.11422771 0.099692948 0.82904524 4284310108
0.11670702 0.099883705 0.83063155 4285954933
0.11910025 0.099994935 0.83155656 4291349191
0.1214239 0.10004469 0.83197033 4287862162
0.12405507 0.10034136 0.83443743 4286349439
0.12668169 0.10062375 0.83678573 4291152328
0.12927343 0.10086895 0.83882481 4292204502
0.13235323 0.10147986 0.84390515 4292007123
0.059820436 0.10548194 0.85777187 4281348908
0.062203445 0.10556408 0.85843974 4287204230
0.069715992 0.10633166 0.86468166 4286941058
0.071358047 0.10528211 0.85614675 4286875520
0.07310006 0.10444175 0.84931302 4287139206
0.074914142 0.10375272 0.84370995 4287139973
0.076621108 0.10296074 0.8372696 4287666317
0.078729458 0.1027383 0.83546072 4287929489
0.080777101 0.10245135 0.83312726 4288061075
0.083055817 0.10246515 0.83323944 4288258200
0.085007064 0.10208494 0.83014768 4288981923
0.087174997 0.10197791 0.82927734 4288718751
0.089466244 0.1020169 0.82959437 4288652958
0.091727264 0.10202035 0.82962239 4285034343
0.093866579 0.10189152 0.82857478 4282139451
0.095840439 0.10159335 0.82615006 4289771439
0.097985178 0.10148583 0.82527578 4289113509
0.10020905 0.10146326 0.8250922 4289639853
0.10253731 0.10154505 0.82575732 4290034611
0.10491274 0.10166905 0.82676566 4289574060
0.10721043 0.10171408 0.82713187 4290166197
0.109445 0.10169861 0.82700604 4290363576
0.11167058 0.10167558 0.82681882 4290297784
0.11403021 0.10177311 0.8276118 4290823615
0.11649002 0.10195453 0.82908714 4291349959
0.11899738 0.10216987 0.83083832 4291218375
0.12135124 0.10224786 0.83147252 4291942098
0.12382147 0.10241923 0.83286613 4288849059
0.12644279 0.10270719 0.83520776 4291349193
0.12914215 0.10304724 0.837973 4288783266
0.13244919 0.10385197 0.84451699 4291875537
0.066352129 0.11093031 0.8825444 4286743681
0.069642156 0.10856997 0.8637659 4286941058
0.071570858 0.10793322 0.85870004 4286678655
0.073325962 0.10708323 0.85193765 4287073667
0.075225599 0.10648996 0.84721768 4287074180
0.076908953 0.10563491 0.84041506 4287468938
0.079007737 0.10538337 0.83841377 4287797903
0.081065431 0.10509268 0.83610111 4288061075
0.083398171 0.10516469 0.83667403 4287073926
0.085354559 0.10477091 0.83354121 4281152556
0.087487258 0.10460834 0.83224779 4289047716
0.089737333 0.10459078 0.83210808 4288916130
0.092094526 0.10469586 0.83294404 4289376681
0.094204046 0.10452109 0.83155364 4283323725
0.096248522 0.10428405 0.82966775 4288521372
0.098232716 0.10399406 0.82736063 4289639853
0.10034352 0.10384809 0.82619935 4289705646
0.10254741 0.10380275 0.82583863 4289903025
0.10497767 0.10398359 0.82727736 4290100404
0.10746771 0.10421479 0.82911682 4290231990
0.10979091 0.10427803 0.82961988 4290363577
0.11194114 0.10417774 0.82882202 4290429370
0.11420548 0.10418552 0.82888389 4290758335
0.1165591 0.10427286 0.82957876 4290889921
0.11908469 0.1045078 0.8314479 4291218375
0.12137908 0.10453487 0.83166325 4291481547
0.12380777 0.10467449 0.83277404 4291744465
0.12637992 0.10492819 0.83479244 4291810258
0.12924048 0.10540816 0.83861107 4292138709
0.13271324 0.10636212 0.84620059 4292401881
0.063551351 0.1126257 0.87704158 4287204230
0.065444142 0.11178147 0.87046736 4286743679
0.068989314 0.11371996 0.88556284 4278190080
0.069816947 0.11119928 0.86593378 4286744448
0.071540929 0.11022425 0.85834098 4286678655
0.07341896 0.10954072 0.85301816 4287007874
0.075181812 0.10873253 0.84672457 4287139973
0.077000745 0.10805109 0.84141809 4287337352
0.078956738 0.10759579 0.83787256 4287863696
0.080973104 0.10724602 0.83514881 4288192661
0.083168805 0.10714638 0.83437294 4288784544
0.085257009 0.10691724 0.83258855 4281876279
0.087407544 0.10677611 0.8314895 4281942072
0.089525357 0.10660313 0.8301425 4289048486
0.091679327 0.10648067 0.82918882 4288851107
0.093775168 0.10629819 0.82776785 4289509037
0.09586475 0.10611735 0.82635963 4289639853
0.097968355 0.10595997 0.82513404 4289705646
0.1000275 0.10576264 0.82359737 4289968818
0.10222069 0.10571257 0.8232075 4289837232
0.10458749 0.10584035 0.82420254 4290034611
0.10715225 0.10615888 0.82668304 4290231991
0.10946631 0.10622105 0.82716715 4290363577
0.11163171 0.10613936 0.82653099 4290495163
0.11389128 0.10614867 0.82660347 4290824128
0.11639913 0.10638454 0.82844025 4290889921
0.11896933 0.10666733 0.83064246 4291415754
0.12136538 0.10678636 0.83156931 4291547340
0.12371404 0.10686009 0.83214355 4291744976
0.12633291 0.10716037 0.83448189 4291810512
0.12919918 0.10765621 0.83834308 4292533981
0.13291129 0.1088274 0.84746337 4278190080
0.062398858 0.11292702 0.86113656 4286941058
0.065960839 0.11505188 0.8773399 4278190080
0.069991872 0.11384062 0.86810338 4286678655
0.071733333 0.11286313 0.86064941 4286415996
0.073612012 0.11215653 0.85526115 4286942594
0.075468019 0.11145976 0.84994787 4287139973
0.077328607 0.11081101 0.84500074 4287205512
0.079343453 0.1104144 0.84197634 4287139973
0.081258498 0.10990507 0.83809239 4283192139
0.083311066 0.10960448 0.83580017 4288718751
0.085422561 0.10939533 0.83420527 4288785314
0.087603077 0.10928311 0.83334959 4287995798
0.089743182 0.10912742 0.83216232 4288719521
0.091859497 0.10895117 0.83081836 4288851107
0.094013251 0.10882673 0.82986945 4289310888
0.096061498 0.10858887 0.82805562 4289442474
0.098163746 0.10842156 0.82677972 4289508267
0.10024817 0.1082425 0.82541424 4289771439
0.10248676 0.1082341 0.82535022 4289968818
0.10479697 0.10830007 0.82585335 4290034611
0.1072489 0.10850666 0.8274287 4290166197
0.10963536 0.10863988 0.82844454 4290429369
0.11183912 0.10859032 0.82806665 4290560956
0.11421336 0.108705 0.82894111 4290626749
0.11669897 0.10891916 0.83057421 4290889921
0.1193145 0.10924415 0.83305246 4291284168
0.12178106 0.10942316 0.83441752 4291415754
0.12420468 0.10955774 0.83544379 4291613133
0.1267796 0.10981853 0.8374325 4291810258
0.12953666 0.1102251 0.84053284 4292468188
0.13305628 0.11125518 0.84838784 4292402395
0.061901953 0.11435284 0.85427904 4287467145
0.065910988 0.117351 0.87667686 4278190080
0.070461705 0.1169834 0.87393069 4286152311
0.071550317 0.11491165 0.85845357 4286284410
0.073415853 0.11417924 0.8529821 4286810754
0.075235583 0.11342268 0.84733015 4287073926
0.077125177 0.1128133 0.84277779 4287337098
0.079200424 0.11250285 0.84045851 4286744961
0.08123745 0.11215705 0.83787525 4284639585
0.083218321 0.11175474 0.83486974 4288389786
0.085288763 0.1114909 0.83289868 4288324763
0.087354586 0.11123483 0.83098572 4288587935
0.089455888 0.11103573 0.82949835 4288916900
0.091488071 0.11076275 0.82745904 4289114279
0.093695015 0.11070938 0.82706034 4289245095
0.095804527 0.1105461 0.82584053 4289507754
0.09793409 0.1104129 0.82484549 4289574060
0.10009148 0.11031635 0.82412416 4289837232
0.10237172 0.11035646 0.82442379 4289771439
0.10469997 0.11044549 0.82508892 4290100404
0.10698666 0.11048786 0.82540548 4290166197
0.10934049 0.1105964 0.82621634 4290363576
0.11169422 0.11070048 0.82699382 4290495163
0.11414243 0.11089222 0.82842624 4290560956
0.11670525 0.11118573 0.83061892 4290955714
0.11934311 0.11153822 0.83325219 4291284168
0.1218526 0.11175982 0.83490771 4291481547
0.12432788 0.1119425 0.83627242 4291612879
0.12687652 0.11218349 0.83807272 4291941844
0.12969336 0.1126489 0.84154963 4292402397
0.13312784 0.11362534 0.84884417 4293125350
0.063720405 0.12010552 0.87937462 4285098597
0.070258729 0.11901814 0.87141311 4286414714
0.071778841 0.1176226 0.86119545 4287665550
0.07351543 0.11665883 0.85413903 4286810754
0.075398222 0.11597904 0.8491618 4287139719
0.077091105 0.11505625 0.8424055 4287271305
0.079333432 0.11498312 0.84187001 4287468684
0.081447273 0.11473309 0.84003937 4285626480
0.083659828 0.11463197 0.83929902 4286744961
0.085585333 0.11415337 0.83579487 4288389786
0.087601282 0.11381706 0.83333248 4288850337
0.089665458 0.1135588 0.83144158 4288719521
0.091773577 0.11336754 0.83004129 4288916900
0.094056271 0.11339594 0.83024919 4289114279
0.096252538 0.11332126 0.82970238 4289310888
0.098401204 0.11319524 0.8287797 4289442474
0.10057957 0.11310827 0.82814294 4289771439
0.10283971 0.11311505 0.82819259 4289837232
0.10504697 0.11306462 0.8278234 4289968818
0.10722529 0.11298584 0.82724655 4290100404
0.1096324 0.11314641 0.82842219 4290297783
0.11209779 0.11335944 0.82998192 4290429370
0.11458043 0.11358114 0.8316052 4290758335
0.11688442 0.1136206 0.8318941 4290824128
0.11945584 0.1139136 0.83403933 4291218375
0.12183263 0.11401352 0.83477086 4291415754
0.12431499 0.11420676 0.83618575 4291547086
0.12679161 0.11438788 0.83751184 4292138709
0.12972209 0.11496483 0.84173608 4292598749
0.13321 0.1160072 0.84936804 4293453545
0.066145398 0.12255745 0.87979466 4278190080
0.068257928 0.12205316 0.87617463 4285559405
0.070345327 0.1215395 0.87248725 4286941058
0.071724437 0.1198756 0.86054271 4287862415
0.073432207 0.11884886 0.85317212 4286876034
0.075356685 0.11822505 0.84869403 4287139206
0.076969802 0.1171644 0.84107995 4287205512
0.07921201 0.11709496 0.84058148 4287600270
0.081289336 0.11679251 0.83841038 4287797649
0.08359471 0.1168253 0.83864576 4288258200
0.08547765 0.11628168 0.83474326 4288455579
0.087492712 0.11594129 0.83229971 4288784544
0.089520186 0.11563411 0.83009458 4288916130
0.091545865 0.11533978 0.82798171 4288916130
0.093802132 0.11534314 0.82800585 4289113509
0.096004717 0.11528189 0.82756615 4289442474
0.098337457 0.11537614 0.82824278 4289574060
0.10055303 0.1153318 0.82792443 4289639853
0.10283871 0.11536805 0.8281846 4289968818
0.10499415 0.11525974 0.82740718 4289903025
0.10717092 0.11517894 0.82682705 4290166197
0.1094986 0.11526029 0.82741106 4290231990
0.1119702 0.11548681 0.82903719 4290494650
0.1144905 0.11575362 0.83095253 4290757822
0.11678496 0.11578618 0.83118623 4290955201
0.11918029 0.11591561 0.83211541 4291414984
0.12138233 0.11585572 0.83168548 4291546570
0.12397011 0.11615947 0.83386594 4291809744
0.12658864 0.11648059 0.83617115 4292203478
0.12956239 0.11711144 0.84069985 4292860638
0.13314924 0.11826497 0.84898055 4293452775
0.065410599 0.12356392 0.87002116 4286546300
0.070769243 0.1246609 0.87774503 4284046166
0.072086021 0.12283389 0.86488092 4287467657
0.073757924 0.12170842 0.85695642 4286744448
0.075726591 0.12112663 0.85286003 4287073926
0.077346869 0.12003876 0.8452003 4287139719
0.079395182 0.11965884 0.84252524 4287600270
0.081372268 0.11919592 0.83926576 4287863442
0.083739027 0.11931349 0.84009361 4288060821
0.085742608 0.1189211 0.83733076 4287863442
0.087764069 0.11857318 0.83488107 4289179302
0.089745872 0.1181906 0.83218729 4289179302
0.091834173 0.11796365 0.83058929 4289047716
0.094117425 0.11799201 0.83078903 4289508267
0.096299417 0.11789508 0.8301065 4289639853
0.098623946 0.11797309 0.83065575 4289705646
0.10086341 0.11794813 0.83048004 4289639853
0.10318451 0.11801764 0.83096939 4289902512
0.10539836 0.11796413 0.83059263 4290099891
0.10765626 0.11796112 0.83057147 4290231478
0.1099178 0.11796214 0.83057868 4290297271
0.11220389 0.11798895 0.83076745 4290428857
0.11459232 0.11812019 0.8316915 4290822847
0.11681139 0.11807515 0.83137435 4291086019
0.119171 0.11817119 0.83205056 4291546572
0.12144554 0.11818085 0.83211863 4291809490
0.12410539 0.11855825 0.83477592 4291940819
0.12677926 0.11893523 0.83743024 4292399060
0.12962273 0.1194552 0.84109139 4289372069
0.13323413 0.12065253 0.84952188 4293320932
0.072058059 0.1251393 0.86454546 4285822832
0.07369148 0.12392907 0.85618442 4286744448
0.075675607 0.12336476 0.85228586 4287073413
0.077469878 0.12253372 0.84654444 4287205512
0.079387203 0.1219397 0.84244061 4287600270
0.081221156 0.12125457 0.83770722 4287797649
0.083386503 0.12108807 0.83655697 4288192407
0.085479632 0.12082835 0.83476263 4284179034
0.087625399 0.12065455 0.8335619 4285955445
0.089670599 0.12035455 0.83148926 4288718751
0.091720276 0.12007517 0.82955915 4285692273
0.093942799 0.12003007 0.82924753 4286744961
0.096120209 0.1199308 0.82856172 4286613375
0.098434813 0.12000332 0.82906276 4289047204
0.10064133 0.11994378 0.82865143 4289837233
0.10290178 0.11994973 0.8286925 4290362037
0.1051891 0.11998606 0.82894349 4290952380
0.10752866 0.1200792 0.82958704 4287595910
0.10975233 0.12004177 0.82932842 4291412161
0.11196137 0.11999016 0.82897186 4291281858
0.11419039 0.11996158 0.82877439 4291478724
0.11656918 0.1200884 0.82965052 4292134346
0.11893251 0.12019476 0.83038539 4292593870
0.12142879 0.12042902 0.83200383 4291145398
0.12412267 0.1208471 0.83489215 4290680999
0.12694301 0.12137105 0.83851194 4290944171
0.12981062 0.12192088 0.84231055 4290289321
0.13361232 0.12331372 0.85193324 4278190080
0.07399524 0.12677981 0.85971367 4286218104
0.075984806 0.12619796 0.85576814 4287008133
0.077758953 0.1253036 0.84970331 4287205512
0.079576001 0.12452804 0.8444441 4287468684
0.081363 0.12375031 0.83917016 4287863442
0.083591558 0.12366831 0.83861411 4288258200
0.085876212 0.12367145 0.83863544 4285034343
0.088182449 0.12370471 0.83886099 4284771171
0.090025097 0.12310237 0.83477646 4284047448
0.092087828 0.12282322 0.83288348 4286876547
0.094331004 0.12279238 0.83267432 4283126346
0.096779004 0.12302335 0.83424056 4282468416
0.098884702 0.12281857 0.83285195 4283916632
0.10099427 0.12262769 0.83155751 4290231477
0.10308687 0.122425 0.83018309 4285752677
0.10542343 0.12251453 0.83079016 4286799721
0.1077483 0.12258699 0.83128154 4287850358
0.11003377 0.12261258 0.83145505 4287521906
0.1122452 0.12255629 0.83107334 4288576132
0.11428892 0.12232272 0.82948947 4287587956
0.11659125 0.12236963 0.82980758 4289365650
0.1189115 0.12243322 0.83023876 4289365650
0.12158345 0.12284978 0.83306354 4288708236
0.12431069 0.12330594 0.83615685 4291734200
0.12715314 0.12385792 0.8398999 4288773002
0.13023308 0.12461766 0.84505183 4288776082
0.074057534 0.12922841 0.86043745 4286744448
0.075943157 0.12845667 0.85529906 4287008133
0.077710807 0.12753725 0.84917724 4287205512
0.079540208 0.12676932 0.84406424 4287402891
0.08130464 0.12594388 0.83856827 4287732626
0.083376549 0.12562682 0.83645713 4288127384
0.085637912 0.12560447 0.8363083 4285429871
0.087995417 0.12572064 0.83708179 4286350203
0.09005221 0.12541217 0.83502787 4283981655
0.09199249 0.1249606 0.83202124 4288323993
0.093996711 0.1246155 0.82972348 4285100136
0.09627685 0.1246438 0.82991195 4282008635
0.098558746 0.12467304 0.83010662 4284377183
0.10088346 0.12475391 0.83064508 4289967791
0.10295653 0.12452687 0.82913339 4286213742
0.1051978 0.12450866 0.8290121 4286145895
0.10736997 0.12441113 0.8283627 4286998383
0.10967405 0.12446733 0.8287369 4287393398
0.11198437 0.12452819 0.82914215 4287129969
0.11418618 0.12446836 0.82874376 4287263609
0.11658327 0.1246196 0.82975078 4289963945
0.11891177 0.12469316 0.83024061 4290162094
0.1215069 0.12503837 0.83253902 4292137167
0.12417872 0.12544841 0.83526915 4291875024
0.1268874 0.12588026 0.83814454 4292599006
0.13001677 0.12670684 0.8436482 4292993507
0.074451409 0.13227002 0.86501366 4286678655
0.076139018 0.13112186 0.8575049 4286876547
0.077831425 0.13005 0.85049528 4287205512
0.079659797 0.12926067 0.84533328 4287337098
0.081590362 0.12867685 0.84151518 4287732626
0.083652586 0.12832686 0.83922637 4287930005
0.085806325 0.12813215 0.83795297 4288258970
0.088039458 0.12806301 0.83750075 4288850337
0.090087757 0.12773527 0.83535749 4289047716
0.092135027 0.12742224 0.83331037 4288981923
0.094132677 0.12705728 0.83092362 4289180072
0.096422859 0.12709504 0.83117056 4289509037
0.098700583 0.12711503 0.83130121 4289443244
0.1010541 0.12722954 0.83205009 4289640623
0.10320283 0.12708685 0.83111691 4289968305
0.10545782 0.12707832 0.83106118 4290165685
0.10764316 0.12698799 0.83047044 4290559675
0.10992742 0.12701567 0.83065146 4290953920
0.11227383 0.1271126 0.83128536 4290031791
0.11461914 0.12720446 0.83188611 4291019713
0.11699831 0.12732963 0.83270472 4291283398
0.11934777 0.12741832 0.83328474 4291349191
0.12185831 0.12767248 0.83494681 4291546572
0.1245712 0.12812546 0.83790916 4291743951
0.12708929 0.12836537 0.83947814 4291876051
0.13006815 0.129054 0.84398162 4292402395
0.074505188 0.13472161 0.86563855 4286283383
0.07599511 0.13320351 0.85588419 4286744448
0.077750802 0.1322277 0.84961426 4287008133
0.079616703 0.13149028 0.84487599 4287205512
0.081520796 0.13085555 0.84079766 4287731856
0.083466664 0.13032071 0.83736116 4288126614
0.085478336 0.12991433 0.83474994 4288258970
0.087661557 0.12978296 0.83390588 4288522142
0.089830168 0.12963714 0.83296889 4288587935
0.091988966 0.12948468 0.83198935 4288851107
0.094036892 0.12918724 0.83007812 4289114279
0.096228883 0.12909703 0.82949847 4289180072
0.098540582 0.12916785 0.82995361 4289311658
0.10084678 0.12922847 0.83034307 4289705646
0.10301794 0.12911718 0.82962799 4289837232
0.10515212 0.1289653 0.82865208 4289903025
0.10745005 0.12901641 0.82898051 4290034612
0.10971138 0.12902239 0.82901895 4290231991
0.11205813 0.12912656 0.82968825 4290297784
0.11438007 0.12919858 0.83015102 4290626749
0.11687516 0.12945962 0.83182824 4290955201
0.11936724 0.12970746 0.83342069 4291218375
0.12194722 0.13003978 0.83555603 4291415754
0.12450959 0.1303415 0.83749467 4291547599
0.12706017 0.13062026 0.83928579 4292139223
0.12981293 0.13109334 0.84232557 4292599774
0.13357861 0.13255516 0.85171831 4278190080
0.076340236 0.1361485 0.85977113 4287138692
0.077946469 0.13487868 0.85175234 4287007620
0.079829231 0.13414691 0.84713131 4287402378
0.081709057 0.13345145 0.8427394 4287534477
0.08372996 0.13301806 0.8400026 4287995028
0.08569058 0.13251449 0.83682263 4288127384
0.087859936 0.13235146 0.83579302 4288390556
0.089934707 0.13205776 0.8339383 4288653728
0.092199907 0.13205124 0.83389717 4288916900
0.094320871 0.13184343 0.83258486 4288916900
0.096584871 0.13184062 0.8325671 4289180072
0.098837063 0.13182218 0.83245069 4289509037
0.10108595 0.13180028 0.83231235 4289509037
0.10330931 0.13174677 0.83197445 4289837232
0.10536356 0.13148451 0.83031833 4290034611
0.10771599 0.13159758 0.83103234 4290231478
0.11002695 0.13165635 0.83140349 4290297273
0.1124272 0.13181745 0.83242083 4290429370
0.11473865 0.13187014 0.83275354 4290626749
0.11711512 0.13199405 0.83353609 4290824128
0.11959148 0.13222371 0.83498633 4291218632
0.12214929 0.13253316 0.83694053 4291350218
0.12478726 0.13291669 0.83936244 4291547599
0.1274768 0.13334034 0.8420378 4292139225
0.1303643 0.13395245 0.84590322 4292533467
0.076551192 0.13887124 0.86214697 4286542962
0.077998415 0.13728835 0.85232002 4287729289
0.079823092 0.13644208 0.84706616 4287335558
0.0816475 0.13564287 0.84210449 4287797136
0.083582148 0.13506545 0.83851975 4288060821
0.085613057 0.13467015 0.83606559 4287930518
0.087751769 0.13446049 0.834764 4288456349
0.089905612 0.13428403 0.83366847 4288718238
0.092117578 0.13420093 0.83315253 4288916130
0.094233312 0.133985 0.83181196 4289047716
0.096353315 0.13378513 0.83057112 4289376681
0.098592512 0.1337561 0.83039099 4289639340
0.10086773 0.13377617 0.83051556 4289705133
0.10314359 0.13379619 0.83063984 4289902512
0.1052081 0.13354707 0.82909322 4289968305
0.1075168 0.13361186 0.82949549 4290362294
0.10971594 0.13354066 0.8290534 4290625209
0.11203004 0.13360941 0.82948029 4290691259
0.11428226 0.13360311 0.82944113 4290430140
0.11679707 0.13389808 0.83127242 4291151810
0.11928861 0.13415569 0.83287168 4291414471
0.12183762 0.13446711 0.83480507 4291678158
0.12433934 0.13471588 0.83634955 4291941330
0.12715979 0.13529484 0.83994383 4292598236
0.13039787 0.13628985 0.84612107 4293715947
0.07836505 0.14026436 0.8563264 4283309095
0.080026634 0.13910134 0.84922606 4286543473
0.081910707 0.1383795 0.84481919 4288913561
0.083845355 0.13778019 0.8411603 4288718492
0.085873134 0.13736171 0.8386054 4288784285
0.087970808 0.1370738 0.83684772 4289375141
0.090105809 0.13685711 0.83552486 4289507240
0.092407845 0.13689856 0.83577788 4289310888
0.094514735 0.13665585 0.83429611 4289245865
0.096622057 0.13642514 0.83288765 4289441961
0.098664187 0.13611507 0.83099467 4289574060
0.10087797 0.13605042 0.8305999 4289574060
0.10321552 0.13615185 0.83121914 4289837232
0.10546809 0.13613921 0.83114207 4289968818
0.10785479 0.13629664 0.83210313 4290099892
0.1100096 0.13616057 0.83127236 4290231478
0.11221455 0.13609079 0.83084637 4290691259
0.11450679 0.13612753 0.83107072 4290887868
0.11707881 0.13648902 0.83327764 4291348419
0.11968879 0.13688019 0.8356657 4292005581
0.12209043 0.13702294 0.83653724 4292399056
0.12451204 0.13718247 0.83751118 4293057758
0.12719716 0.13762136 0.84019065 4294370797
0.13058808 0.13879491 0.84735531 4292915138
0.078130022 0.14216737 0.85375816 4284356391
0.079802126 0.14101598 0.84684366 4284290598
0.081796676 0.14048302 0.84364307 4283636259
0.083724305 0.13986737 0.83994591 4283180328
0.085753173 0.13944906 0.83743387 4285289554
0.08770813 0.13893536 0.83434892 4286805362
0.089799106 0.1386576 0.83268088 4288386704
0.092040963 0.13862075 0.83245963 4289045147
0.094318643 0.13863833 0.83256519 4289967276
0.096557356 0.13859916 0.83232993 4289967789
0.098548099 0.13821399 0.83001691 4290362036
0.10061447 0.13794979 0.82843035 4290427829
0.10287652 0.13795958 0.82848907 4290559415
0.10524447 0.1381079 0.8293798 4290954173
0.10768314 0.13834088 0.83077884 4291018939
0.10977954 0.13813357 0.82953393 4291347391
0.11193345 0.13800555 0.82876515 4290689974
0.11409838 0.13789588 0.82810658 4289963428
0.11673047 0.13834414 0.83079845 4288644488
0.11931384 0.13871869 0.83304781 4286472036
0.12188766 0.13906841 0.83514792 4285477184
0.12430491 0.13922994 0.83611792 4286786372
0.12712392 0.13982758 0.83970696 4288230743
0.13041848 0.14091793 0.84625483 4290007154
0.078243501 0.14470093 0.85499817 4282588963
0.079919711 0.14353202 0.84809142 4284228396
0.081948921 0.14304492 0.84521329 4284947754
0.083947197 0.1425319 0.84218204 4285669167
0.085914299 0.14199463 0.83900744 4285733933
0.087902948 0.14151987 0.8362022 4285668140
0.089934684 0.14113669 0.83393806 4285799213
0.092225045 0.14116825 0.83412457 4285995824
0.094480433 0.14114603 0.83399332 4285863466
0.096741512 0.14113319 0.83391738 4286060845
0.098722465 0.1407216 0.83148551 4286191917
0.10084039 0.14051935 0.83029044 4286519599
0.10313292 0.14056395 0.83055389 4286584881
0.1054742 0.14067164 0.83119029 4286650674
0.10789026 0.14087246 0.83237684 4286716467
0.11006206 0.14075263 0.83166879 4286782260
0.11232212 0.14074825 0.83164287 4287373629
0.11445643 0.14058955 0.83070523 4287438909
0.11701062 0.14094277 0.83279228 4287965253
0.1195346 0.14124689 0.83458918 4288621902
0.12220302 0.14170714 0.8373087 4289016660
0.12468419 0.14193738 0.83866912 4289018201
0.12748742 0.14251937 0.84210801 4289942129
0.13078584 0.1436246 0.84863853 4288961652
0.078024916 0.14661723 0.85260957 4280359190
0.079853557 0.14571957 0.84738946 4280292625
0.081895888 0.1452513 0.84466636 4280881423
0.083893508 0.14473146 0.84164339 4282124560
0.085935734 0.14431415 0.83921671 4283371545
0.087875679 0.14375116 0.83594275 4284552996
0.089927912 0.14339563 0.8338753 4285341485
0.092064053 0.1431881 0.83266842 4286194484
0.094333477 0.14319286 0.83269614 4286719800
0.096531548 0.14309163 0.83210748 4286916666
0.098620594 0.14283714 0.8306275 4286916154
0.10083128 0.14276628 0.83021545 4287244605
0.10314466 0.14284074 0.83064848 4287374908
0.10538828 0.14281747 0.83051312 4287505983
0.10763179 0.14279503 0.83038265 4287833921
0.10983375 0.14271954 0.82994366 4287833921
0.11226241 0.14293571 0.83120072 4287636799
0.11446182 0.14285724 0.83074439 4286980666
0.11698897 0.1431829 0.83263826 4286258739
0.11931746 0.14325768 0.83307308 4285338666
0.12218462 0.14396438 0.83718264 4284550436
0.12485074 0.14441264 0.83978939 4283963432
0.12794636 0.14533265 0.84513944 4282722865
0.080704167 0.14960271 0.85641593 4279835157
0.082528979 0.14869086 0.85119599 4279835154
0.084525734 0.14813013 0.84798604 4279900947
0.086425923 0.14743449 0.84400374 4279900690
0.088442355 0.14696804 0.84133345 4279965713
0.090479925 0.14655934 0.83899391 4280162063
0.09262652 0.14634305 0.83775568 4279899661
0.094739169 0.14608479 0.83627725 4280031758
0.09678594 0.14573945 0.83430034 4279965965
0.09895204 0.14558551 0.83341908 4280294417
0.10123345 0.14560431 0.83352673 4280097038
0.10357197 0.14570265 0.83408964 4280359442
0.10578922 0.14562982 0.83367276 4280097040
0.1079989 0.14554985 0.83321494 4280228626
0.11027294 0.14555812 0.83326226 4280491028
0.11274098 0.14581697 0.8347441 4280425237
0.11507597 0.14589691 0.83520174 4280426264
0.1176777 0.14630538 0.83754009 4280558620
0.1201572 0.14654927 0.83893621 4280624159
0.12303375 0.14725928 0.84300071 4280887845
0.12587395 0.14790057 0.84667188 4281216556
0.12903573 0.14888985 0.85233516 4281348144
0.081617869 0.15365377 0.86611199 4279835157
0.082882255 0.15165399 0.85483962 4279703570
0.084525056 0.15043691 0.84797925 4279835156
0.086682029 0.15017533 0.84650481 4279900949
0.088668697 0.14963987 0.84348655 4279835156
0.090860084 0.14946823 0.84251904 4280097815
0.092871018 0.14901549 0.83996701 4279966229
0.095054537 0.14885476 0.83906102 4280098326
0.097099803 0.14849016 0.83700585 4280032533
0.099239558 0.14828345 0.8358407 4280032533
0.10147936 0.14823216 0.83555156 4280164119
0.1037086 0.148168 0.83518994 4280032535
0.10592174 0.14808412 0.83471709 4280229914
0.1081109 0.14797093 0.83407909 4280229912
0.11049131 0.14811876 0.83491236 4280361241
0.11293758 0.14834717 0.83619982 4280427293
0.11554983 0.14878023 0.83864093 4280427293
0.11792096 0.14889209 0.83927149 4280427806
0.12059761 0.14937812 0.84201109 4280493599
0.12342532 0.15002966 0.84568363 4280624930
0.12721327 0.15180318 0.85568058 4278190080
0.081884608 0.15652095 0.86894256 4279769623
0.083239637 0.15464456 0.85852563 4279835669
0.084597081 0.15287502 0.84870183 4279638804
0.086851597 0.15277755 0.84816068 4280362527
0.089074284 0.15263058 0.84734482 4279704083
0.091304898 0.1525043 0.84664369 4279836183
0.093311787 0.15201971 0.84395349 4279638804
0.095519975 0.15187851 0.84316957 4279638804
0.097876571 0.15197435 0.84370166 4279441938
0.10008886 0.15184689 0.84299397 4279836696
0.10219993 0.15157498 0.84148455 4279967769
0.10423324 0.1512022 0.83941501 4279770390
0.10637534 0.15099987 0.8382917 4280099355
0.10872962 0.15110087 0.83885247 4279836183
0.11111049 0.15123393 0.83959109 4279835669
0.11337493 0.15120634 0.83943796 4280164634
0.11578787 0.15137398 0.84036863 4280164634
0.11792433 0.15118065 0.83929539 4280690978
0.12087315 0.15201637 0.84393495 4280559392
0.12351325 0.15243989 0.84628612 4280823079
0.12710677 0.15400307 0.85496426 4278190080
0.08042898 0.16070299 0.87887979 4280690212
0.081612386 0.15835775 0.86605376 4279769621
0.082668819 0.15590473 0.85263824 4279769876
0.083900191 0.15390658 0.84171045 4279573011
0.086087771 0.15372209 0.84070146 4282336317
0.088414088 0.15378848 0.84106457 4280230941
0.09061645 0.15364134 0.84025985 4282336317
0.092696592 0.15329933 0.83838946 4281546801
0.094895229 0.15316501 0.83765483 4284179034
0.09711279 0.15306681 0.83711779 4281284142
0.099142566 0.15268393 0.83502382 4283520591
0.10123747 0.15241624 0.83355987 4281612594
0.10358222 0.15252823 0.83417225 4283586384
0.10566799 0.1522622 0.83271736 4283323212
0.10794234 0.15227339 0.83277857 4284244314
0.11009406 0.15211467 0.83191061 4280559906
0.11246286 0.15225625 0.83268487 4284046421
0.11477379 0.15231544 0.83300859 4281743666
0.11698323 0.15224026 0.83259737 4284441179
0.11997724 0.15316956 0.83767968 4283322443
0.12255456 0.15354215 0.83971739 4281020460
0.12609801 0.15508935 0.84817898 4281875769
0.12901595 0.15582542 0.85220456 4280625448
0.079559848 0.16133261 0.86938244 4280953384
0.081079058 0.15966465 0.86039418 4279572242
0.082860485 0.15859221 0.85461509 4279638290
0.084103465 0.15657592 0.84374976 4279573011
0.086258553 0.15631974 0.84236926 4279836183
0.088327892 0.15592545 0.84024459 4279376145
0.090620115 0.1559346 0.84029388 4280560419
0.09276922 0.15570308 0.8390463 4279639317
0.095026359 0.15565968 0.83881235 4281744693
0.097160719 0.15542188 0.83753097 4280757798
0.09914615 0.15496223 0.83505398 4282468416
0.10126536 0.15472758 0.83378953 4283126346
0.10361845 0.15485275 0.83446401 4283915349
0.10582908 0.15476421 0.83398688 4283257419
0.10815044 0.15483791 0.83438408 4284244314
0.11035432 0.15474385 0.83387721 4279967769
0.112671 0.15480858 0.83422601 4282467903
0.11491111 0.1547676 0.83400524 4280362013
0.11732731 0.1549608 0.83504629 4280296220
0.12016322 0.15569045 0.83897817 4280427551
0.12267283 0.15597799 0.84052771 4280361760
0.12560287 0.15677981 0.84484851 4280756520
0.12885268 0.15794475 0.85112607 4282730826
0.080703691 0.16125637 0.85641092 4279572242
0.08256337 0.16034122 0.8515507 4279704083
0.084113874 0.15889202 0.84385413 4279375632
0.086182453 0.15847249 0.84162611 4282204731
0.088260815 0.1580922 0.83960646 4281152556
0.090567082 0.15812904 0.83980209 4280889384
0.092687018 0.15784675 0.83830285 4282994247
0.094854362 0.1576568 0.8372941 4281349935
0.096844152 0.15718758 0.83480215 4280165661
0.098811507 0.15670429 0.83223546 4280230941
0.1010173 0.15661235 0.83174711 4281152043
0.10337055 0.15674801 0.83246762 4279836183
0.10556486 0.156642 0.83190465 4280757285
0.10776556 0.15654975 0.8314147 4281283629
0.11008819 0.15663478 0.83186626 4280625699
0.11257876 0.1569505 0.83354306 4280099355
0.11476975 0.15684435 0.83297926 4284046166
0.1172513 0.1571317 0.83450532 4281677618
0.11995618 0.15770172 0.83753264 4281414448
0.12271538 0.15832058 0.8408193 4282927689
0.12525707 0.15864128 0.8425225 4283585619
0.12832464 0.15960452 0.84763819 4283125584
0.08101546 0.16421923 0.85971934 4279769364
0.083422147 0.16435078 0.86040801 4279769363
0.084711328 0.16233365 0.84984797 4279704083
0.086634919 0.16160718 0.84604472 4279573011
0.088374726 0.16058436 0.84069008 4280165148
0.090674095 0.16060428 0.84079438 4280034075
0.092775963 0.16028203 0.83910728 4281415728
0.094906338 0.16002332 0.83775288 4282731588
0.096925586 0.15959376 0.83550411 4281415728
0.099098779 0.15943158 0.83465499 4282336830
0.10145982 0.15957209 0.83539069 4284310620
0.10374042 0.15958272 0.83544624 4281809973
0.10591391 0.15943165 0.8346554 4283454798
0.1080752 0.15926895 0.83380359 4282336317
0.11058588 0.15961723 0.83562696 4280823078
0.11303829 0.15986909 0.83694547 4281546802
0.11525554 0.15978496 0.83650506 4281678388
0.11759876 0.15987535 0.83697826 4281019690
0.12031023 0.16045344 0.84000462 4280822313
0.12338232 0.16148192 0.84538895 4280559139
0.12568317 0.16148186 0.84538865 4280757034
0.1287221 0.16241303 0.85026354 4282007103
0.086766981 0.16415973 0.84733438 4279638290
0.088443577 0.16299938 0.84134507 4279441425
0.090498805 0.16257779 0.83916903 4279507218
0.092499875 0.16208206 0.8366102 4281217836
0.094539404 0.16167593 0.8345139 4279836696
0.096619345 0.16135634 0.83286428 4279770903
0.098786689 0.16119401 0.83202642 4279770903
0.10112349 0.16130929 0.8326214 4279507731
0.10335204 0.16125061 0.83231854 4279573524
0.1056166 0.16124941 0.83231241 4279639317
0.10784362 0.16119219 0.832017 4279507732
0.11035796 0.16155791 0.83390474 4279836697
0.11277311 0.16176662 0.83498198 4280954667
0.11496018 0.16164638 0.83436137 4281612595
0.11730298 0.16174553 0.83487314 4282598722
0.12005879 0.16239958 0.83824909 4280493346
0.12318724 0.16352387 0.84405231 4283717203
0.12553732 0.16359271 0.84440762 4283586133
0.12813644 0.16397774 0.84639502 4282533960
0.090583295 0.1650157 0.83995247 4279572497
0.092738345 0.16478281 0.83876705 4280822564
0.094658382 0.16415358 0.83556414 4280757285
0.096934296 0.16415653 0.83557916 4283257419
0.099069931 0.16392723 0.83441204 4283389005
0.10142896 0.16406956 0.83513653 4283783763
0.10368939 0.16404967 0.83503526 4283981142
0.10606019 0.16420151 0.83580816 4282994247
0.1084283 0.16434288 0.83652776 4282138938
0.11089972 0.16463181 0.83799845 4280888357
0.11320616 0.16466911 0.83818835 4280296737
0.11546216 0.16463304 0.83800465 4281086251
0.11767903 0.16454363 0.83754957 4281151276
