# .PCD v0.7 - Point Cloud Data file format
VERSION 0.7
FIELDS x y z rgba
SIZE 4 4 4 4
TYPE F F F U
COUNT 1 1 1 1
WIDTH 941
HEIGHT 1
VIEWPOINT 0 0 0 1 0 0 0
POINTS 941
DATA ascii
0.074694246 0.08093477 0.89617413 4289836720
0.064771272 0.083160199 0.89387709 4294770429
0.07467033 0.083347209 0.8958872 4293586921
0.0771612 0.083403975 0.89649743 4293257956
0.051300008 0.083466768 0.87167132 4283387979
0.053705156 0.083517633 0.87220252 4294638839
0.056351755 0.083923772 0.87644398 4294704634
0.058860142 0.084099457 0.87827867 4294705148
0.061424069 0.084337674 0.88076651 4294901757
0.063842185 0.084365323 0.88105524 4294770427
0.06647709 0.084667072 0.88420647 4294310644
0.051266506 0.085783154 0.87110209 4280756771
0.053557202 0.085654899 0.86979967 4285757039
0.055864912 0.085563555 0.86887211 4286283383
0.058182303 0.085493855 0.8681643 4286283383
0.060502954 0.085434198 0.86755854 4286612348
0.062894158 0.085474908 0.86797196 4287599243
0.065354779 0.085603602 0.86927879 4288322966
0.10844956 0.084161788 0.85463762 4291086787
0.11058187 0.084014565 0.85314262 4290428859
0.11266103 0.083833858 0.85130757 4290099640
0.11482109 0.083719417 0.85014546 4290099640
0.11715168 0.083731376 0.85026687 4290560193
0.11981161 0.083973706 0.85272765 4290560193
0.048597742 0.087617017 0.86579537 4278190080
0.051666379 0.088841639 0.87789661 4278190080
0.053354755 0.087689511 0.86651176 4281019943
0.055283301 0.087012947 0.85982621 4287336071
0.057239302 0.086432792 0.85409337 4287072899
0.059346743 0.086117677 0.85097951 4286743934
0.061601039 0.086031333 0.85012627 4286809727
0.063885562 0.085991919 0.84973681 4286875520
0.066027977 0.085770659 0.84755045 4286941827
0.068138935 0.085524857 0.8451215 4287139206
0.070279956 0.085331611 0.84321195 4287204999
0.072648332 0.085417904 0.84406465 4287204999
0.074945897 0.085418202 0.84406757 4287533964
0.077238701 0.085413218 0.84401834 4287402378
0.079415165 0.085283585 0.84273732 4287665550
0.081685387 0.085259087 0.84249526 4287928722
0.083871052 0.085150078 0.84141809 4287862929
0.086111024 0.085100539 0.84092855 4287336585
0.088355988 0.085058369 0.84051186 4287665550
0.090609193 0.085026056 0.84019256 4287994515
0.092711449 0.084857181 0.83852381 4287994515
0.094884694 0.084759824 0.83756179 4288323481
0.097126052 0.084726468 0.83723211 4289112997
0.099448606 0.08476384 0.83760142 4289771440
0.10170226 0.084742121 0.83738685 4290034612
0.10403507 0.084785871 0.83781916 4290560702
0.10640681 0.084858783 0.83853966 4291679185
0.10889314 0.085018113 0.84011406 4292007637
0.11120611 0.085038304 0.84031361 4292270809
0.11372517 0.085212119 0.84203118 4292600289
0.11619463 0.085342631 0.84332079 4292666082
0.11940071 0.085998632 0.84980315 4293651696
0.048604146 0.089985326 0.86590946 4278190080
0.053750429 0.090715699 0.87293774 4280098328
0.055363059 0.089482062 0.8610667 4287993488
0.057149049 0.088617444 0.85274667 4287665034
0.059126001 0.088104866 0.84781426 4287796620
0.061285984 0.0878933 0.84577835 4287993997
0.063417673 0.087657928 0.84351343 4288125585
0.065547079 0.087435968 0.84137756 4288521113
0.067589581 0.087116972 0.83830792 4288718492
0.069825076 0.087059438 0.83775431 4289047457
0.072155759 0.087120481 0.83834171 4289244836
0.074426606 0.08710774 0.83821911 4289639340
0.076574631 0.086956292 0.83676177 4289441961
0.078687504 0.086774826 0.83501554 4289705133
0.080884628 0.086693853 0.83423632 4289968305
0.083017647 0.086550459 0.83285654 4290034611
0.08522924 0.086494438 0.83231741 4289705646
0.087474748 0.086474836 0.83212882 4289705646
0.089853689 0.086584806 0.83318704 4289836719
0.092091955 0.086557142 0.83292085 4290034098
0.094366945 0.086564496 0.8329916 4290889408
0.096664391 0.086591624 0.83325261 4290955714
0.098987348 0.086639829 0.83371651 4291284679
0.10139859 0.086761422 0.83488655 4291613390
0.10390227 0.086955033 0.83674961 4291679183
0.10635761 0.087100767 0.83815199 4291810771
0.1088905 0.087302543 0.84009367 4292008150
0.11130419 0.087402426 0.8410548 4292271322
0.11386836 0.087614059 0.84309131 4292402910
0.11643147 0.087816536 0.84503973 4292665828
0.11943456 0.088336594 0.85004407 4293520110
0.053742513 0.093077883 0.87280917 4279835156
0.055406746 0.091898106 0.86174619 4288059281
0.057193674 0.091009393 0.85341257 4287796620
0.059142273 0.090437263 0.84804761 4287993997
0.06114636 0.089989781 0.84385145 4288257423
0.063270688 0.089745246 0.84155846 4288520595
0.065419547 0.089551374 0.83974046 4288718490
0.067499183 0.089279041 0.83718669 4288981662
0.069662228 0.089131206 0.83580047 4289244834
0.07184726 0.089019969 0.83475739 4289442213
0.074102655 0.089000054 0.83457065 4289770410
0.076182276 0.088776499 0.83247429 4289836973
0.078339636 0.088653833 0.83132404 4289705900
0.080570489 0.088618882 0.83099627 4290034865
0.082836807 0.088623784 0.83104223 4290166197
0.085088141 0.088612825 0.83093947 4290166197
0.087297074 0.088559411 0.83043861 4290297783
0.089657076 0.08865808 0.83136386 4290166197
0.091920555 0.088658795 0.83137059 4290166197
0.094190553 0.088665619 0.83143455 4290824128
0.096441358 0.088654466 0.83133 4291021507
0.09877938 0.088722177 0.83196491 4291416265
0.10119405 0.088854149 0.83320242 4291416265
0.10366385 0.08902768 0.83482969 4291679183
0.1060802 0.089148842 0.83596581 4291744978
0.1085527 0.089311123 0.83748758 4292073945
0.11109336 0.089521646 0.83946168 4292337117
0.11369009 0.089767963 0.84177142 4292468449
0.11635362 0.090056241 0.84447467 4292797414
0.11922757 0.090493076 0.84857094 4293389294
0.055785548 0.094887853 0.86763775 4288257173
0.057580542 0.093963452 0.85918516 4287665804
0.059479121 0.09327364 0.85287768 4287797388
0.061428063 0.092711672 0.8477391 4288126351
0.063514397 0.092390232 0.84479994 4288389523
0.065581918 0.09206485 0.84182471 4288718488
0.06764368 0.091753624 0.83897889 4288915869
0.069761761 0.091536619 0.83699465 4289179041
0.071976036 0.091455571 0.83625358 4289376420
0.074250288 0.091453366 0.83623338 4289574314
0.07632561 0.091213562 0.83404064 4289705900
0.078432947 0.091024756 0.83231425 4289705900
0.080597579 0.090911172 0.8312757 4289903279
0.083010308 0.091076002 0.83278286 4289903025
0.085312195 0.091113694 0.8331275 4290166197
0.087540559 0.091072939 0.83275485 4290166197
0.089788616 0.091054216 0.83258361 4290166197
0.092039891 0.091039591 0.83244991 4290297783
0.094384149 0.091115437 0.83314341 4290824128
0.096719541 0.091179363 0.83372796 4291021507
0.099022985 0.091210932 0.83401662 4291218886
0.10144656 0.091349259 0.83528149 4291416011
0.10386069 0.091473207 0.83641481 4291481804
0.10632904 0.091638565 0.83792681 4291810773
0.10865113 0.091673575 0.83824694 4292073945
0.11113967 0.091844693 0.83981162 4292271324
0.11374912 0.092106819 0.84220845 4292402656
0.11648518 0.09245909 0.84542954 4292731621
0.11933823 0.092888772 0.8493585 4293455087
0.055912863 0.09747126 0.86961788 4287994001
0.057531834 0.096220449 0.8584584 4284046935
0.059436206 0.095525958 0.85226232 4287863183
0.061297901 0.094817638 0.8459428 4288257939
0.063381068 0.094490774 0.84302658 4288389525
0.065380327 0.094066024 0.83923709 4288521111
0.067441128 0.093755506 0.83646673 4288981662
0.069580227 0.093570568 0.83481669 4289113763
0.071751267 0.093438908 0.83364207 4289245349
0.07402084 0.093439706 0.83364922 4289376935
0.076139323 0.093255408 0.83200496 4289574314
0.078308634 0.093142211 0.83099502 4289705900
0.080460541 0.093015254 0.8298623 4289771693
0.082828179 0.093137801 0.83095568 4289968818
0.085206188 0.093265198 0.83209229 4290166197
0.087523393 0.093321159 0.83259153 4290100404
0.089689896 0.093217663 0.8316682 4290231990
0.091863483 0.093126453 0.83085442 4290297784
0.09421289 0.093213573 0.83163172 4290889921
0.09670274 0.0934323 0.83358312 4291021507
0.099038959 0.093495965 0.83415115 4291218886
0.1013611 0.09354379 0.8345778 4291481804
0.10361333 0.093526408 0.83442277 4291744978
0.10612147 0.093735814 0.83629102 4291876564
0.10855197 0.093869299 0.83748192 4292073945
0.11100698 0.094018035 0.83880895 4292402656
0.11353789 0.094223782 0.84064454 4292534242
0.11620105 0.094528973 0.8433674 4292797414
0.11938883 0.095240846 0.84971857 4293520880
0.056109861 0.10018987 0.8726818 4280954150
0.057674937 0.098802075 0.86059368 4284441693
0.059576586 0.098076679 0.85427529 4287666317
0.061463103 0.0973818 0.84822267 4287666315
0.063473478 0.096926361 0.84425569 4287666315
0.06544333 0.096443035 0.84004581 4288258452
0.06757354 0.096220672 0.83810896 4288719003
0.069836073 0.096195109 0.83788627 4288916384
0.072074749 0.096139334 0.8374005 4289113763
0.074275173 0.096037522 0.83651364 4289179556
0.076395892 0.095841765 0.83480859 4289508521
0.078605026 0.095765047 0.8341403 4289640107
0.080762655 0.095631637 0.83297825 4289903279
0.083054684 0.095660314 0.83322805 4290034611
0.085328504 0.095667049 0.83328676 4290100404
0.087685786 0.095764592 0.83413637 4290100404
0.089833848 0.095634483 0.83300304 4290166197
0.092083 0.095615737 0.83283979 4290297270
0.094408266 0.095675036 0.83335632 4290824128
0.096936762 0.095932677 0.83560044 4291021507
0.0992864 0.096005559 0.83623523 4291350218
0.10161878 0.096058853 0.83669949 4291416011
0.10392413 0.096084833 0.83692575 4291613390
0.10640642 0.096269771 0.83853662 4291876564
0.10891063 0.096466355 0.84024894 4292008152
0.11124057 0.09650369 0.84057409 4292205531
0.11382508 0.096755899 0.84277093 4292402656
0.11641238 0.097000472 0.8449012 4292863207
0.11972654 0.097829491 0.85212219 4293257965
0.055831674 0.10205656 0.86835515 4284901730
0.057500407 0.1008383 0.85798943 4285033830
0.059526466 0.10031731 0.85355657 4287008133
0.061426159 0.099630497 0.84771281 4284310620
0.063373692 0.099068202 0.84292847 4284310620
0.065384366 0.098640442 0.83928889 4288258200
0.067504875 0.098401681 0.83725733 4288521372
0.069837928 0.098478213 0.83790851 4288784544
0.071953863 0.098253429 0.83599597 4288916130
0.07412871 0.098120406 0.83486414 4289179556
0.076221228 0.097889565 0.83289999 4289508521
0.078546166 0.097961932 0.8335157 4289574060
0.080777891 0.097917236 0.83313543 4289705646
0.083036497 0.097906679 0.8330456 4289837232
0.085287951 0.097888477 0.83289075 4289968818
0.08756014 0.0978944 0.83294111 4290100404
0.089695081 0.097750448 0.8317163 4290100404
0.091943502 0.097734213 0.83157814 4290166197
0.094206959 0.097734347 0.83157933 4290758334
0.096646264 0.097912639 0.83309633 4291021507
0.098972678 0.097971007 0.83359295 4291153093
0.10137077 0.098096117 0.83465743 4291481804
0.10380198 0.098247096 0.83594203 4291744976
0.10619759 0.098358616 0.83689094 4291679185
0.10871174 0.09857294 0.83871454 4292073943
0.11104964 0.09862192 0.8391313 4292205531
0.11359443 0.098848969 0.84106314 4292402656
0.11624279 0.099155389 0.84367031 4292797414
0.11949547 0.09995544 0.85047764 4293717487
0.055826619 0.10441052 0.86827654 4282927940
0.057708506 0.1035469 0.86109459 4287468171
0.059701014 0.10294142 0.85605943 4287073413
0.061691865 0.10237867 0.85137969 4286678655
0.063654922 0.10181222 0.84666908 4284441179
0.065702692 0.1014161 0.84337497 4288520859
0.067827359 0.10116143 0.8412571 4288258200
0.070021369 0.10102342 0.84010941 4288718751
0.072104096 0.10073867 0.83774143 4288916130
0.074295372 0.10061838 0.83674109 4289047716
0.076512545 0.10053927 0.83608329 4289376681
0.078854203 0.10062359 0.83678448 4289508267
0.081073426 0.10055133 0.83618355 4289771439
0.083335117 0.10053425 0.83604145 4289837232
0.085567035 0.1004831 0.83561617 4290034611
0.087837778 0.10047902 0.8355822 4290100404
0.089964777 0.10031487 0.83421713 4290231990
0.092159361 0.1002323 0.83353049 4290034611
0.094290733 0.1000866 0.83231884 4290758335
0.096658297 0.10019256 0.83320004 4291021507
0.099168561 0.1004382 0.83524275 4291153093
0.10169093 0.10068481 0.83729351 4291481804
0.10411848 0.10082879 0.8384909 4291613390
0.10633392 0.10076559 0.83796525 4292008150
0.1087331 0.1008755 0.83887929 4292008152
0.11102103 0.10087981 0.83891517 4292205531
0.11369029 0.10122345 0.84177291 4292534242
0.11645598 0.10163768 0.84521765 4292994536
0.11986235 0.10258418 0.85308874 4292862950
0.055762067 0.10665026 0.86727256 4280230425
0.057527516 0.10555845 0.85839397 4287402632
0.059568807 0.10503824 0.85416371 4287008133
0.061630089 0.10459105 0.85052717 4287402891
0.063692361 0.10417785 0.84716707 4287600270
0.065730169 0.10375491 0.84372771 4283915862
0.067795843 0.10340302 0.84086615 4284244827
0.069920763 0.10316152 0.83890235 4288784544
0.072019055 0.10289726 0.83675343 4288981923
0.074221008 0.10279276 0.83590358 4289047716
0.076480262 0.10277148 0.83573055 4289113509
0.078731179 0.10274054 0.83547896 4289705646
0.080903172 0.10261124 0.83442754 4289705646
0.083121002 0.10254557 0.83389342 4289903025
0.085429899 0.10259272 0.83427691 4289968818
0.087699331 0.10259129 0.83426523 4290034611
0.089813806 0.10241322 0.8328172 4290231990
0.091940396 0.1022574 0.83155006 4290100404
0.094080672 0.10212392 0.8304646 4290692542
0.096461594 0.10225179 0.83150446 4290955714
0.099010274 0.10254755 0.83390957 4291152839
0.10157498 0.10284629 0.83633888 4291416011
0.10403236 0.10302564 0.83779734 4291679183
0.10628595 0.10299981 0.8375873 4291876564
0.10854819 0.10298326 0.83745271 4292008150
0.11083981 0.1029947 0.83754575 4292271324
0.11349438 0.10333615 0.84032238 4292600035
0.11634489 0.10383898 0.84441137 4292928743
0.11983195 0.10487945 0.85287243 4293060327
0.057880543 0.10855687 0.86366165 4287204999
0.059805132 0.10778897 0.85755241 4287139719
0.061856579 0.10729882 0.85365283 4287205512
0.063873924 0.10678715 0.84958202 4287468684
0.065980971 0.10645594 0.84694701 4287600270
0.06804274 0.10607652 0.8439284 4287929235
0.07016068 0.10580659 0.84178084 4288455579
0.072231546 0.10548498 0.83922225 4288652958
0.074381039 0.10529439 0.83770591 4289113509
0.076638199 0.10526303 0.83745641 4289508267
0.078843899 0.10516483 0.83667517 4289442474
0.081017725 0.10503083 0.83560908 4289639853
0.083193645 0.10490678 0.83462214 4289837232
0.085480131 0.10492505 0.83476746 4290034611
0.08778771 0.10496759 0.83510596 4290034611
0.090045899 0.10495042 0.83496934 4290034611
0.092258215 0.10488195 0.83442456 4290166197
0.094426773 0.10476821 0.8335197 4290758335
0.096785434 0.10486579 0.83429599 4290955714
0.099289328 0.10511264 0.8362599 4291218632
0.10182154 0.10537773 0.83836895 4291284425
0.10423228 0.10550825 0.83940732 4291613390
0.10659462 0.10558523 0.84001976 4291744978
0.10883423 0.10553996 0.83965957 4292008150
0.11124036 0.1056547 0.84057248 4292205531
0.11389025 0.10599168 0.84325337 4292336604
0.1167555 0.10651181 0.84739149 4292797155
0.12011603 0.10745487 0.85489428 4293652464
0.057892896 0.11093117 0.86384594 4287270792
0.059784647 0.11008527 0.85725868 4286942340
0.061802305 0.10952604 0.85290384 4287337098
0.063716248 0.10883015 0.84748477 4287534477
0.065787107 0.10844154 0.84445858 4287929235
0.067905389 0.1081547 0.8422249 4288126614
0.070153281 0.10808628 0.84169209 4287797649
0.072349437 0.107945 0.84059191 4288652958
0.07438796 0.1075844 0.83778387 4282863174
0.076498725 0.10734662 0.83593225 4284310620
0.078499332 0.10697248 0.83301866 4289837232
0.080727287 0.10692044 0.83261347 4289705646
0.082909189 0.10681192 0.83176839 4289771439
0.085294195 0.10696387 0.83295166 4289771439
0.087583005 0.10699045 0.83315861 4290231990
0.089895189 0.10704351 0.83357185 4290100404
0.092194736 0.10707928 0.83385038 4290231990
0.094437778 0.10704929 0.83361679 4290758334
0.096673355 0.10701244 0.83332986 4290955714
0.098997347 0.1070729 0.83380073 4291218632
0.10149809 0.10731754 0.83570576 4291416011
0.10410109 0.10765721 0.83835083 4291744976
0.10653365 0.10780982 0.83953923 4291613390
0.10884959 0.10784049 0.83977807 4292073943
0.1112402 0.10794235 0.84057128 4292271324
0.11387438 0.1082717 0.84313595 4292402910
0.11647866 0.10856014 0.84538221 4288323744
0.11977813 0.10947282 0.85248941 4291416015
0.05808996 0.11366793 0.86678642 4287270792
0.059937607 0.11270611 0.85945201 4286942340
0.061911516 0.11204505 0.85441101 4287139719
0.06392011 0.11149235 0.85019636 4287468684
0.065952584 0.11101846 0.84658271 4287797649
0.06801457 0.11062457 0.84357899 4288192407
0.070168555 0.11040116 0.84187537 4288521372
0.072530515 0.11050875 0.84269583 4287666063
0.07473065 0.11037074 0.84164339 4282139451
0.076804921 0.11006058 0.83927822 4282534209
0.078706801 0.10952844 0.83522034 4289705646
0.080909275 0.10943273 0.83449048 4289574060
0.083059892 0.10927403 0.83328032 4289837232
0.08543694 0.10941374 0.8343457 4289968818
0.087679468 0.1093784 0.83407623 4290034611
0.090078205 0.1095348 0.83526886 4290034611
0.092393011 0.10958396 0.83564371 4290231990
0.094655767 0.1095705 0.83554107 4290824128
0.096837461 0.10946603 0.83474445 4290955714
0.099098898 0.10945443 0.834656 4291218632
0.10157347 0.10967349 0.83632648 4291481804
0.10411756 0.10995636 0.83848351 4291613390
0.10659186 0.11015496 0.83999795 4291810769
0.10910861 0.11038818 0.84177643 4292008150
0.11154612 0.11053329 0.84288293 4292205531
0.11414361 0.11082787 0.84512931 4292139738
0.11669604 0.11106794 0.84695995 4288586916
0.12019963 0.11218645 0.85548925 4293718516
0.057844549 0.1155369 0.86312455 4287336071
0.05983419 0.11484679 0.85796905 4286876547
0.061794106 0.11415362 0.85279065 4287139719
0.063889779 0.11375234 0.8497929 4287468684
0.065769516 0.11300806 0.84423274 4287929235
0.067847475 0.11264314 0.84150654 4288192407
0.069921292 0.1122954 0.83890873 4288652958
0.072368883 0.11255095 0.84081787 4288784544
0.074524611 0.11235083 0.83932287 4284376413
0.076630153 0.11208921 0.83736843 4289376681
0.078587614 0.11163236 0.83395553 4289376681
0.080793776 0.11154452 0.83329928 4289639853
0.082956865 0.11140363 0.83224672 4289771439
0.085290208 0.11149279 0.8329128 4289903025
0.087481722 0.11139672 0.83219516 4290231990
0.089833811 0.11150482 0.83300269 4290231990
0.092025369 0.11141325 0.8323186 4290297783
0.094348885 0.11148199 0.83283216 4290692542
0.096534334 0.11138821 0.83213151 4290955714
0.09888348 0.11148326 0.83284163 4291087046
0.10130157 0.11165006 0.83408773 4291547597
0.10382833 0.11192667 0.83615416 4291547597
0.1063123 0.1121463 0.8377949 4291810771
0.10889945 0.11246326 0.84016275 4292008150
0.11137538 0.11265467 0.84159273 4292402910
0.11395183 0.112938 0.84370935 4292600035
0.11653829 0.11321987 0.84581506 4292205277
0.12022164 0.11453582 0.85564595 4278190080
0.058143888 0.11849613 0.86759114 4284900704
0.06000986 0.11752597 0.860488 4287401351
0.061904956 0.11668361 0.85432047 4287401864
0.064014643 0.11629206 0.85145366 4287665036
0.065927714 0.11558317 0.84626341 4287797649
0.068008028 0.11520545 0.84349787 4288257687
0.070000634 0.11470868 0.83986062 4288258200
0.072325453 0.11477049 0.84031326 4288587165
0.074555784 0.11468319 0.839674 4289376681
0.076784983 0.11459938 0.83906037 4289047716
0.078941315 0.1144148 0.83770895 4289376681
0.081093252 0.11423438 0.83638799 4289639853
0.083262235 0.11408719 0.83531028 4289771439
0.085523851 0.11407136 0.83519441 4289968818
0.087772928 0.11404007 0.83496529 4290100404
0.090117395 0.11413117 0.83563226 4290166197
0.092311814 0.11403242 0.83490932 4290100404
0.094617933 0.1140731 0.8352071 4290692542
0.096905299 0.11408978 0.83532923 4291021253
0.099130198 0.11403383 0.83491963 4291218632
0.10150396 0.1141478 0.8357541 4291481804
0.10386435 0.11424208 0.83644432 4291613390
0.1064895 0.11461727 0.83919132 4291810771
0.10895357 0.11480696 0.84058028 4292139738
0.11150868 0.11508282 0.84259999 4292337117
0.11412214 0.11540657 0.84497041 4292534242
0.1169367 0.11591686 0.8487066 4293060586
0.058079854 0.12072436 0.86663562 4281676847
0.059836995 0.11952269 0.85800928 4287533450
0.061748683 0.1187084 0.85216379 4286876034
0.063841432 0.11828855 0.84914988 4287271305
0.065843537 0.11773594 0.8451829 4287993488
0.067971356 0.11743786 0.84304309 4287994515
0.070005283 0.11700232 0.83991647 4288849310
0.072231583 0.11690567 0.83922267 4288652445
0.074374735 0.1166845 0.83763492 4288850337
0.076663025 0.11669742 0.83772767 4289245095
0.078869194 0.11658818 0.83694357 4289245865
0.081081674 0.11649416 0.8362686 4289443244
0.0831967 0.11626908 0.83465284 4289771439
0.085466698 0.11626677 0.83463627 4289837232
0.087658644 0.11616117 0.83387816 4290100404
0.089960635 0.11620303 0.83417869 4290231990
0.092101969 0.11604042 0.83301139 4290166197
0.094499916 0.11620117 0.83416533 4290758335
0.096826211 0.11626834 0.83464748 4291021253
0.099075451 0.11624201 0.83445853 4291218632
0.10138421 0.11628514 0.83476812 4291547597
0.10376664 0.11640903 0.83565742 4291744976
0.10637324 0.11677368 0.83827513 4291876564
0.10880964 0.1169401 0.83946979 4292139738
0.11139522 0.11725671 0.84174263 4292337117
0.11403919 0.11762078 0.84435618 4292600035
0.11682571 0.11811459 0.84790105 4293323501
0.12036175 0.11933238 0.85664314 4278190080
0.058305658 0.12356162 0.87000495 4280425753
0.059937939 0.12206352 0.85945672 4284896854
0.061843168 0.12121294 0.85346776 4285227102
0.064024262 0.12094507 0.85158163 4287002743
0.066146694 0.12058897 0.8490743 4288054918
0.068269424 0.12025744 0.84674001 4287792259
0.070306137 0.11980098 0.84352607 4285553757
0.072441302 0.11953585 0.84165925 4288517009
0.074591421 0.11931089 0.84007531 4288981923
0.076829597 0.11923598 0.83954787 4289113509
0.079009406 0.11907743 0.83843148 4289180072
0.081235573 0.11899568 0.83785588 4289509037
0.083343931 0.11875055 0.8361299 4289574830
0.085633107 0.11876922 0.83626139 4289771439
0.087841377 0.11867763 0.83561647 4289968818
0.090109743 0.1186698 0.83556134 4290100404
0.092353776 0.11863109 0.83528882 4290231990
0.09475445 0.11879063 0.83641213 4290692542
0.097179949 0.11897308 0.83769673 4291087300
0.099400893 0.11890247 0.83719957 4291284425
0.10167836 0.11890111 0.83719003 4291481804
0.10406177 0.11902101 0.83803421 4291810769
0.10666125 0.11937758 0.84054482 4291876564
0.10922737 0.11968261 0.84269261 4292139738
0.11172927 0.11990619 0.84426689 4292271324
0.1143719 0.12026874 0.84681958 4292600035
0.11706999 0.12067413 0.84967399 4293191913
0.060027122 0.12458782 0.86073554 4284439126
0.061892997 0.12363537 0.85415542 4285488991
0.064033486 0.12328058 0.8517043 4284893517
0.06613268 0.12287387 0.84889442 4285090383
0.068222784 0.12247828 0.84616148 4288642178
0.070274442 0.12204178 0.84314579 4287327345
0.072422519 0.12179502 0.84144104 4284960080
0.074524581 0.12148838 0.83932257 4289375654
0.076709427 0.12133092 0.83823472 4289113509
0.078822225 0.12107189 0.83644515 4289245865
0.081109323 0.12108761 0.83655375 4289509037
0.083217375 0.12084247 0.83486021 4289640623
0.085515015 0.12087837 0.83510816 4289838002
0.087602541 0.12062307 0.83334446 4290100404
0.08982496 0.12056173 0.83292061 4290100404
0.092027694 0.12047762 0.83233958 4290231990
0.094548926 0.12080451 0.83459795 4290758335
0.096916884 0.12092482 0.83542907 4291087046
0.09929838 0.12105611 0.83633614 4291284425
0.10154095 0.12101595 0.83605868 4291613390
0.10402212 0.12125567 0.83771485 4291744978
0.10642719 0.12139831 0.83870029 4292008150
0.10909027 0.12182308 0.84163487 4292008152
0.11160696 0.12207028 0.84334266 4292337117
0.11420365 0.12239324 0.8455739 4292731621
0.11675444 0.12265521 0.8473838 4292994534
0.060351927 0.12761731 0.86539298 4287400324
0.062153671 0.12649065 0.85775286 4287069051
0.064195521 0.12591651 0.85385954 4284108879
0.066250741 0.1254078 0.85040992 4286343531
0.068327256 0.12497239 0.84745729 4285614417
0.070401102 0.12456068 0.84466547 4286077278
0.072571568 0.12434056 0.84317279 4288121224
0.074730106 0.12411412 0.84163725 4289178789
0.07684543 0.12383153 0.8397209 4289245095
0.078950211 0.12354874 0.8378033 4289376681
0.081208251 0.12351494 0.83757412 4289705646
0.083422199 0.12341776 0.83691508 4289771439
0.085726567 0.12345594 0.83717406 4289837232
0.087911785 0.12332502 0.83628625 4289968818
0.090096414 0.12319989 0.83543772 4290100404
0.092236571 0.12302161 0.83422875 4290231990
0.094660379 0.12322114 0.83558178 4290824128
0.097098023 0.12342888 0.83699054 4291087300
0.099591538 0.12369649 0.83880526 4291284425
0.10184759 0.12366379 0.83858347 4291481804
0.10426708 0.1238266 0.83968753 4291679183
0.10660561 0.12388837 0.84010637 4291942357
0.10925978 0.12430663 0.84294266 4292205531
0.11178458 0.12456354 0.84468484 4292271324
0.1144359 0.12494823 0.84729344 4292666082
0.11703599 0.1252629 0.84942728 4293258219
0.06036105 0.12999232 0.86552376 4287468171
0.062115565 0.12874623 0.85722697 4287138692
0.064010158 0.12787017 0.851394 4287467657
0.065968879 0.12717898 0.8467918 4287599757
0.068093702 0.12684385 0.8445605 4288323993
0.070163511 0.12643148 0.84181482 4288586652
0.072397485 0.12633166 0.84115016 4288455066
0.074558079 0.12611385 0.83969986 4288653728
0.07672675 0.12592223 0.83842403 4288981923
0.078946121 0.12582248 0.83775991 4289376681
0.081105568 0.12563552 0.83651507 4289508267
0.083366692 0.12561196 0.83635819 4289705646
0.085533775 0.12545174 0.83529139 4289968818
0.087778077 0.12541012 0.83501428 4290100404
0.089945614 0.12526371 0.83403945 4290034611
0.092066966 0.12506177 0.83269483 4290166198
0.094488263 0.12526716 0.83406246 4290824128
0.096961446 0.12553011 0.83581322 4291087046
0.099501371 0.12586543 0.83804584 4291350218
0.1017308 0.12580176 0.83762187 4291481804
0.10410836 0.12592003 0.83840942 4291744978
0.10645237 0.12599352 0.83889872 4291942359
0.10907494 0.1263867 0.84151661 4292205531
0.11162243 0.12667851 0.84345955 4292205531
0.11430297 0.1271065 0.84630924 4292534242
0.11700443 0.12754039 0.84919822 4293257965
0.06057252 0.1328117 0.86855608 4287139206
0.062273141 0.13141188 0.85940158 4286876034
0.0641746 0.13052189 0.85358131 4286942340
0.066056021 0.12965475 0.8479104 4287468171
0.068234377 0.1294093 0.84630525 4287928722
0.070271879 0.12892148 0.84311503 4288258200
0.072509125 0.12881938 0.84244728 4288521372
0.074638434 0.12853764 0.84060478 4288850337
0.076829813 0.12837639 0.83955026 4289179302
0.07905902 0.12828583 0.83895797 4289442474
0.08120507 0.12806921 0.83754134 4289639853
0.08350876 0.12810624 0.83778346 4289771439
0.085648268 0.12789613 0.83640945 4289903025
0.087960579 0.12794827 0.83675039 4289903025
0.090145215 0.12781674 0.83589023 4290100405
0.092355475 0.12772712 0.8353042 4290231991
0.094708115 0.12783399 0.83600312 4290692542
0.097258799 0.1281969 0.8383764 4291087300
0.099720038 0.12842797 0.83988756 4291284679
0.10193864 0.12834319 0.83933312 4291350218
0.10425753 0.12838563 0.8396107 4291744976
0.10670991 0.12858711 0.84092832 4292008150
0.10937157 0.12902702 0.84380519 4292205531
0.1118735 0.12926427 0.8453567 4292336863
0.11456302 0.12970433 0.84823465 4292731621
0.11741818 0.13031085 0.85220116 4293257965
0.060434546 0.13486776 0.86657763 4285297002
0.062173232 0.13353634 0.85802281 4286744961
0.063986316 0.13245535 0.85107696 4287073926
0.065899909 0.13165064 0.8459065 4287337098
0.068034127 0.13132617 0.84382159 4287666063
0.07016626 0.131019 0.84184784 4288060821
0.07232295 0.13077563 0.84028417 4288389786
0.074475825 0.13054052 0.83877349 4288784544
0.076634705 0.13032959 0.8374182 4289047716
0.078880131 0.13027379 0.83705968 4289310888
0.081000268 0.13002001 0.83542901 4289574060
0.083278075 0.13002627 0.83546919 4289705646
0.085497715 0.12994377 0.83493918 4290034611
0.087755792 0.12992248 0.83480233 4289968818
0.089973152 0.12984347 0.83429474 4290166197
0.092178412 0.12975135 0.8337028 4290231990
0.094620548 0.12998906 0.83523017 4290758334
0.097018063 0.13015576 0.83630127 4291153093
0.099454962 0.13036644 0.83765495 4291284679
0.10165321 0.13026185 0.83698297 4291547597
0.10410389 0.13047825 0.83837336 4291679183
0.1065556 0.13068663 0.83971226 4292008150
0.10922994 0.13115357 0.84271252 4292139738
0.11163794 0.13128805 0.84357667 4292402910
0.11426131 0.13166532 0.84600073 4292929000
0.11709311 0.13226311 0.84984177 4293323501
0.060519993 0.13742036 0.86780286 4283585868
0.062290456 0.13612781 0.85964054 4287139460
0.064192332 0.13520564 0.85381711 4286942340
0.066252343 0.13466935 0.85043043 4287337098
0.068231523 0.13401051 0.84626985 4287666063
0.070461094 0.13387042 0.84538525 4288192407
0.072497115 0.13338308 0.84230769 4288389786
0.074788295 0.1333807 0.84229261 4288652958
0.076879531 0.13303246 0.84009355 4288981923
0.079119883 0.13295491 0.83960384 4289114279
0.081214912 0.13264437 0.83764279 4289311658
0.08346159 0.13259171 0.83731025 4289574830
0.085699469 0.13252825 0.83690947 4289640623
0.087963633 0.13250767 0.83677948 4289968818
0.09016037 0.1323891 0.83603078 4289968818
0.092380479 0.13230985 0.83553034 4290166197
0.094737589 0.13242592 0.8362633 4290626748
0.097066216 0.13249767 0.83671635 4291153093
0.099482529 0.13268307 0.83788711 4291218886
0.10184192 0.13278593 0.83853674 4291416011
0.10434769 0.13307098 0.84033674 4291744976
0.10687441 0.13336992 0.8422246 4291942359
0.10948172 0.13375479 0.84465498 4292205531
0.11194289 0.13394895 0.8458811 4292402656
0.11452597 0.13427821 0.84796035 4292797414
0.11741008 0.13494045 0.85214233 4293784052
0.060415044 0.13953987 0.86629802 4280948758
0.062268753 0.13841927 0.85934103 4287196270
0.064155005 0.13744952 0.8533206 4288056458
0.066226579 0.13693072 0.85009974 4287729803
0.068190195 0.13623126 0.84575731 4287993488
0.070407823 0.13606836 0.84474605 4288125587
0.072401099 0.13549592 0.84119219 4288651931
0.074668832 0.13545646 0.84094715 4288652958
0.076707363 0.13501592 0.83821219 4288981923
0.078979097 0.13499942 0.83810985 4289179302
0.081074111 0.1346903 0.83619064 4289574060
0.083303757 0.13461559 0.83572686 4289771439
0.085459322 0.13442832 0.83456427 4289837232
0.087664418 0.13432665 0.83393312 4290034611
0.089901336 0.13427764 0.83362883 4290165170
0.092145085 0.13424101 0.83340138 4290230963
0.094510749 0.13437946 0.83426094 4290758335
0.096747324 0.13433219 0.83396745 4291152580
0.099212751 0.13459755 0.83561492 4291283396
0.10157503 0.13471423 0.83633929 4292005579
0.10411633 0.13505802 0.83847356 4291809229
0.10665903 0.13538884 0.84052736 4292598747
0.10923248 0.13574396 0.84273207 4293057758
0.11171578 0.13597475 0.84416491 4293649897
0.11420171 0.13619938 0.84555948 4294962164
0.11722973 0.13704889 0.85083336 4292846006
0.060799923 0.14280166 0.87181681 4280818199
0.062560827 0.14141838 0.86337185 4283574062
0.064417414 0.14034373 0.85681093 4283637801
0.066366978 0.13953963 0.85190189 4282982438
0.068359748 0.13887763 0.84786028 4285226071
0.070549354 0.13864566 0.84644413 4287925637
0.072582155 0.13812998 0.84329581 4289308317
0.074865773 0.13810858 0.84316522 4289703075
0.076907568 0.13765563 0.84039992 4290098603
0.0791981 0.1376612 0.8404339 4290164909
0.08134196 0.13741866 0.83895314 4290362547
0.083614349 0.13740058 0.83884281 4290428340
0.085688487 0.13706635 0.83680224 4290494903
0.087891363 0.13695 0.836092 4290822328
0.090136699 0.13690403 0.83581132 4291085757
0.092509694 0.13704944 0.83669901 4291282111
0.094761536 0.13701269 0.83647466 4292136907
0.097068757 0.13705586 0.83673823 4292202700
0.099431425 0.13717355 0.8374567 4292596176
0.10192348 0.13746046 0.8392083 4292794068
0.10442776 0.13775091 0.8409816 4293515738
0.10704273 0.13817178 0.84355104 4294432992
0.10940916 0.13826092 0.84409517 4293636803
0.11188348 0.1384799 0.8454321 4292115351
0.11427843 0.13859381 0.84612751 4288490833
0.11758163 0.13978297 0.85338742 4288622419
0.055192389 0.14294237 0.85841227 4280820511
0.060960278 0.14555739 0.87411618 4280623130
0.062759116 0.14422391 0.8661083 4283442476
0.064458258 0.14276618 0.85735416 4284358960
0.06623362 0.14157324 0.85019016 4284487975
0.068245247 0.14094879 0.84644014 4284683557
0.070283033 0.14041737 0.84324884 4284683555
0.072432607 0.14013584 0.84155822 4284487716
0.074652173 0.14000285 0.84075952 4284817194
0.076805301 0.13975687 0.83928239 4284620329
0.079006486 0.13961002 0.83840048 4284490796
0.081242725 0.13953163 0.83792967 4284557361
0.083532885 0.13954759 0.83802551 4284491825
0.085695259 0.13935488 0.83686835 4284557361
0.0878314 0.13913062 0.83552152 4284753459
0.089963205 0.13891098 0.83420253 4285214010
0.092263393 0.13895574 0.83447134 4285803324
0.094501346 0.1389069 0.83417797 4285541948
0.096898884 0.13908939 0.83527392 4285801784
0.099262096 0.13921538 0.83603054 4286521146
0.10167218 0.13939999 0.83713919 4287569984
0.10421345 0.13975243 0.83925569 4287701570
0.10665961 0.13996494 0.84053183 4288227144
0.10901727 0.14005482 0.84107167 4288753488
0.11143116 0.14021178 0.84201419 4289936736
0.11397856 0.14052701 0.84390724 4289739871
0.11751194 0.14202142 0.85288161 4290466417
0.063062549 0.14728992 0.87029582 4282269497
0.064702898 0.14565036 0.86060816 4280818969
0.066435978 0.14432681 0.85278761 4281998366
0.068357714 0.14348862 0.847835 4284490285
0.070423812 0.14299831 0.84493786 4285079340
0.07263203 0.14281847 0.84387523 4285801266
0.074966334 0.14288998 0.84429777 4286195254
0.077104211 0.14259395 0.84254867 4286325557
0.079317965 0.14245132 0.84170586 4286719801
0.081499115 0.14225976 0.84057403 4286981947
0.08381591 0.142309 0.8408649 4286981947
0.086019881 0.14216913 0.84003848 4287309631
0.088176079 0.14195959 0.83880043 4287112765
0.090229936 0.14160003 0.83667582 4287967561
0.092443518 0.14150266 0.83610052 4287704389
0.094635054 0.14137703 0.8353582 4288164426
0.09707351 0.14161752 0.83677924 4288557131
0.099419005 0.14171448 0.8373521 4288622154
0.1019269 0.1420334 0.8392365 4288621641
0.10443453 0.14233798 0.84103614 4289017941
0.10688302 0.1425506 0.84229249 4288690518
0.10921553 0.14260286 0.8426013 4288363350
0.11179261 0.14296573 0.84474546 4286131778
0.1145703 0.14356539 0.8482886 4283180846
0.11830977 0.14532271 0.85867214 4278190080
0.058023348 0.14888421 0.86579251 4280164634
0.060260557 0.14859021 0.86408281 4280098328
0.063117251 0.14978844 0.87105078 4283716943
0.064884603 0.14840829 0.86302495 4280360473
0.066722654 0.14728065 0.85646749 4280030995
0.0685817 0.14627393 0.85061312 4279964686
0.070536762 0.14553103 0.84629303 4280751120
0.07270623 0.14526349 0.84473729 4281208848
0.07495179 0.14515975 0.84413397 4281536786
0.077083282 0.14484781 0.84231997 4281994514
0.079297706 0.14470524 0.84149086 4282321426
0.081444189 0.14445016 0.84000754 4282845203
0.08375413 0.144491 0.84024513 4283041812
0.085918583 0.14428535 0.83904922 4283370777
0.088094532 0.14410917 0.83802468 4283172885
0.090098836 0.14366817 0.83546019 4283503133
0.092287719 0.14353597 0.83469141 4283699229
0.094514027 0.14346693 0.83428991 4284224546
0.096949287 0.14371085 0.83570838 4283961374
0.099357188 0.14390399 0.83683145 4283831328
0.1018347 0.144187 0.83847731 4283308321
0.10431644 0.14446349 0.84008509 4282457377
0.10656882 0.14441729 0.83981639 4281606177
0.10909101 0.14473099 0.84164065 4282002475
0.11183911 0.14532532 0.84509683 4281871916
0.11507 0.14651041 0.85198838 4282136372
0.062582448 0.15086991 0.86367017 4284901477
0.065277889 0.15167099 0.86825603 4278190080
0.0673941 0.1511173 0.86508632 4278190080
0.069237307 0.15000948 0.85874456 4279637777
0.071378402 0.14959836 0.85639101 4279768850
0.073395215 0.14896098 0.85274231 4279900436
0.075600214 0.14873292 0.85143673 4279966742
0.077435955 0.14781356 0.84617376 4280098328
0.07968796 0.14771895 0.84563214 4280098328
0.081735581 0.14726141 0.84301293 4280228887
0.084191427 0.14754428 0.84463221 4280359960
0.086287819 0.1471989 0.84265506 4280425753
0.08842475 0.14693877 0.84116596 4280360987
0.090560347 0.14668961 0.83973962 4280689952
0.092835709 0.14667355 0.83964765 4280689952
0.095171556 0.14675151 0.84009397 4280953124
0.097457536 0.14675075 0.84008956 4281018403
0.09989804 0.14697734 0.84138674 4281149989
0.10251831 0.14745234 0.8441059 4281018917
0.10492284 0.14760303 0.84496856 4280953637
0.1074631 0.14793409 0.84686381 4281085223
0.11005448 0.14832015 0.84907383 4281348395
0.11330353 0.14955844 0.85616255 4281414446
0.064865947 0.15306209 0.86277682 4278190080
0.067087226 0.15277298 0.86114717 4280032793
0.069034509 0.15190051 0.85622925 4279835669
0.071325213 0.151816 0.85575283 4279638290
0.073380858 0.15125231 0.85257548 4279638290
0.075501531 0.15085313 0.85032535 4279769876
0.077403285 0.15005328 0.84581679 4280032535
0.079616636 0.14988625 0.84487528 4280098841
0.081788391 0.14965248 0.8435576 4280032022
0.084208332 0.14987321 0.84480178 4280229401
0.086261451 0.14944668 0.84239757 4280229401
0.088404566 0.14919412 0.84097397 4280229401
0.090503789 0.14888212 0.83921522 4280492573
0.092863694 0.14900374 0.83990079 4280492573
0.095145762 0.14899762 0.83986628 4281084710
0.097558349 0.14919139 0.84095854 4281018917
0.099989519 0.14940405 0.84215724 4281084710
0.10248415 0.14969987 0.84382468 4280887844
0.10504312 0.15007463 0.84593719 4281085223
0.10761927 0.15045735 0.84809452 4281019943
0.11057474 0.15134317 0.8530876 4281217067
0.11316501 0.15170299 0.85511583 4281217839
0.11593168 0.15228 0.85836834 4282533699
0.064863861 0.15540533 0.8627491 4279835932
0.067122459 0.15519825 0.86159945 4280362530
0.069073431 0.15431789 0.85671198 4280427551
0.071205206 0.15388575 0.85431302 4281677873
0.073255219 0.15330984 0.85111576 4279901462
0.075291283 0.15274094 0.84795743 4280559392
0.077381164 0.1523118 0.84557503 4280493599
0.079587527 0.15213011 0.84456635 4280559392
0.081807233 0.15198341 0.84375197 4279967255
0.084235013 0.15222074 0.84506947 4279966742
0.086425096 0.15202731 0.84399563 4280098841
0.088691652 0.15197495 0.84370494 4280230427
0.090808697 0.15167549 0.84204251 4280361500
0.093104362 0.1516818 0.84207749 4280624672
0.095293179 0.1515179 0.84116757 4280887844
0.097607896 0.15155718 0.84138566 4280953637
0.099924922 0.15159816 0.84161317 4280887844
0.10236903 0.15182577 0.84287679 4280822564
0.10482935 0.15206693 0.84421563 4280822564
0.10748771 0.15257888 0.8470577 4281085481
0.11016007 0.15308876 0.84988844 4281151276
0.11287429 0.15363467 0.85291904 4281415218
0.11546703 0.15399654 0.85492808 4285099887
0.065314844 0.15885031 0.86874759 4280954417
0.066984646 0.15721983 0.8598305 4279770393
0.068922907 0.15630823 0.85484505 4279506449
0.07088466 0.15550774 0.85046715 4279638290
0.073156394 0.1554164 0.8499676 4279441425
0.074968569 0.15438427 0.84432292 4280296220
0.077110976 0.15407336 0.84262258 4281612080
0.079140909 0.15356217 0.83982694 4279901462
0.081443094 0.15359314 0.83999622 4279835669
0.083638646 0.1534268 0.83908653 4280033048
0.086103961 0.153751 0.84085959 4280098841
0.08855927 0.15404101 0.84244561 4280098841
0.090772234 0.15390548 0.84170443 4280493086
0.092928231 0.1536824 0.84048444 4280558879
0.095024869 0.15337425 0.83879918 4280953637
0.097355336 0.1534491 0.83920854 4280822051
0.09980464 0.15370354 0.84060007 4280822051
0.10220043 0.15386602 0.84148866 4280822564
0.10477538 0.15428519 0.84378105 4280756771
0.10720628 0.15447882 0.84483999 4281019688
0.10991223 0.1550523 0.84797639 4281217069
0.11234177 0.1552203 0.84889513 4281349171
0.11507078 0.15578695 0.85199416 4281941823
0.065614231 0.16195376 0.87272966 4282796621
0.067124858 0.15989402 0.86163026 4281019692
0.068903528 0.15859029 0.85460472 4280032793
0.07087227 0.15779488 0.85031843 4280625185
0.073209599 0.15784447 0.8505857 4280362013
0.075155452 0.15707286 0.84642768 4279835669
0.077303752 0.15675767 0.84472919 4279835669
0.07937029 0.15629967 0.84226114 4279901462
0.081684738 0.15634187 0.84248853 4279901462
0.083937109 0.1562662 0.84208077 4279901462
0.086322874 0.15643629 0.84299737 4280033048
0.088705659 0.15659232 0.84383821 4280098841
0.090927742 0.15646395 0.84314638 4280230427
0.093032159 0.15614441 0.84142447 4280493599
0.095282257 0.15607885 0.84107119 4280888357
0.097663037 0.1562254 0.84186095 4280756771
0.10028423 0.15674099 0.84463936 4280822564
0.10273295 0.15696996 0.84587324 4280888357
0.10519367 0.15720683 0.84714967 4280954150
0.10751103 0.15722388 0.84724152 4281085481
0.10983699 0.15725252 0.84739584 4281217069
0.11236671 0.15756571 0.84908354 4281678136
0.11565977 0.15891512 0.85635513 4282270275
0.066848785 0.16157188 0.85808653 4279967004
0.068605535 0.16022034 0.8509087 4279704083
0.070677057 0.15966819 0.84797633 4280033562
0.073092103 0.15990248 0.84922057 4281020457
0.075199388 0.15946975 0.84692246 4280954664
0.077254139 0.15895469 0.84418702 4281217322
0.079364903 0.1585813 0.84220397 4282993733
0.081621327 0.15851174 0.84183455 4279901460
0.083882712 0.15845536 0.84153509 4279901462
0.086023867 0.15818088 0.8400774 4279967255
0.08821781 0.15801518 0.8391974 4280033048
0.090445891 0.15791745 0.83867836 4280427806
0.092625216 0.15774149 0.83774388 4280559392
0.095090769 0.15804973 0.83938086 4280954150
0.097627185 0.15845852 0.8415519 4280888357
0.10025948 0.15900064 0.84443098 4280822564
0.10240902 0.15876999 0.84320611 4280888357
0.1046278 0.15865445 0.84259248 4280888357
0.10685697 0.15855931 0.84208721 4281019943
0.10933948 0.15883617 0.84355754 4281415218
0.11197751 0.15932293 0.84614265 4281612856
0.11587401 0.16154455 0.85794139 4278190080
0.068976738 0.16341572 0.85551274 4279704083
0.071081534 0.16290312 0.85282916 4280230427
0.073316045 0.16271082 0.85182244 4279769876
0.075435489 0.16228276 0.84958154 4279572497
0.077419966 0.16159846 0.84599906 4279704083
0.07955537 0.16125962 0.84422517 4279769876
0.081804208 0.16116327 0.84372079 4279835669
0.08403258 0.16103297 0.84303862 4279835669
0.086124651 0.16065533 0.84106165 4279901462
0.08835689 0.16055197 0.84052044 4280033048
0.090734974 0.16071212 0.8413589 4280164634
0.092917822 0.16052711 0.84039032 4280493599
0.095326073 0.16073105 0.84145796 4280822564
0.097722761 0.16090636 0.84237581 4280822564
0.10029531 0.16135657 0.8447327 4280888357
0.1023626 0.16099195 0.84282386 4280954150
0.1044049 0.16060486 0.84079742 4281085736
0.10656032 0.1604047 0.83974946 4281019688
0.10941288 0.16124026 0.84412384 4281217837
0.077270411 0.16358441 0.84436482 4279835669
0.079463586 0.16336866 0.84325117 4279769874
0.0815612 0.16297407 0.84121442 4279835667
0.083637714 0.16256 0.83907717 4279835667
0.085853517 0.16243149 0.83841383 4279901460
0.088103749 0.16237308 0.83811235 4279967255
0.090431325 0.16245656 0.83854324 4280296220
0.092598476 0.16225484 0.837502 4280296220
0.094956331 0.16238894 0.83819419 4280888357
0.097392067 0.1626468 0.83952516 4280954150
0.099902898 0.16301538 0.84142768 4280954150
0.1020919 0.16285408 0.84059507 4280954150
0.10414696 0.16249084 0.8387202 4280888357
0.1064038 0.16245127 0.83851594 4280822309
