# .PCD v0.7 - Point Cloud Data file format
VERSION 0.7
FIELDS x y z
SIZE 4 4 4
TYPE F F F
COUNT 1 1 1
WIDTH 1458
HEIGHT 1
VIEWPOINT 0 0 0 1 0 0 0
POINTS 1458
DATA ascii
0.21577781 0.16384496 1.034673
0.21825874 0.16359374 1.0330865
0.22108251 0.16360264 1.0331427
0.22500385 0.1644133 1.038262
0.22959316 0.16568589 1.0462984
0.23345675 0.16641001 1.0508711
0.23627618 0.16638131 1.0506899
0.23854631 0.16597113 1.0480996
0.24050532 0.16535673 1.0442197
0.24300005 0.16512071 1.0427293
0.24446803 0.16420051 1.0369183
0.24698462 0.16399758 1.0356368
0.24885525 0.16337515 1.0317062
0.24607998 0.1597506 1.0088173
0.24622297 0.15807959 0.99826503
0.24657576 0.1565783 0.98878443
0.24638699 0.15476924 0.97736031
0.24743895 0.15376988 0.97104931
0.24926747 0.15326913 0.9678871
0.2524344 0.1535932 0.96993357
0.25589392 0.15408672 0.97305024
0.2598294 0.15485384 0.97789448
0.26560545 0.15669121 0.98949736
0.27255592 0.15917756 1.0051986
0.27728093 0.1603277 1.0124617
0.28212687 0.16152446 1.0200192
0.2853612 0.1617842 1.0216594
0.28484231 0.15993159 1.0099602
0.28339946 0.15760057 0.99523991
0.28485492 0.1569102 0.99088025
0.2877945 0.15704261 0.9917165
0.29183516 0.15776782 0.99629617
0.29536167 0.1582043 0.99905246
0.29974091 0.15908538 1.0046165
0.30519679 0.1605168 1.0136558
0.30897129 0.16104618 1.0169988
0.31171393 0.16103309 1.0169162
0.31434795 0.16096461 1.0164837
0.31618315 0.16049184 1.0134982
0.3158704 0.15894641 1.0037389
0.31665489 0.15797487 0.99760365
0.31721032 0.15690655 0.99085724
0.31676456 0.1553652 0.98112369
0.31648862 0.1539322 0.97207439
0.31732908 0.15306145 0.96657562
0.31943282 0.15280934 0.96498358
0.32366309 0.15357032 0.96978915
0.32885903 0.15477349 0.97738713
0.33417496 0.15601337 0.98521686
0.33775958 0.15643165 0.9878583
0.34004197 0.15624496 0.98667938
0.34108764 0.1554974 0.98195857
0.34075391 0.15413751 0.97337091
0.34183663 0.15343438 0.96893066
0.344515 0.15345272 0.96904653
0.34947759 0.15448052 0.97553694
0.35502136 0.15574774 0.98353946
0.3605735 0.15699968 0.99144536
0.36366516 0.15716963 0.99251854
0.36019024 0.15452003 0.97578651
0.3549625 0.15116277 0.95458555
0.35793301 0.1513202 0.95557976
0.36210686 0.15198041 0.95974898
0.3778353 0.15744606 0.99426419
0.38416499 0.15894528 1.0037317
0.38313308 0.15739904 0.99396729
0.3797586 0.15491885 0.97830504
0.37947604 0.15372574 0.9707706
0.38251498 0.15388536 0.97177863
0.38589323 0.15417837 0.97362888
0.38818848 0.15403761 0.97274005
0.39002353 0.1537174 0.97071797
0.39115399 0.15312567 0.96698117
0.39284959 0.15276161 0.96468216
0.39493376 0.15255247 0.96336144
0.39892668 0.15307853 0.96668345
0.40463945 0.15425332 0.97410226
0.41104054 0.1556735 0.98307061
0.41495025 0.15613787 0.98600304
0.41623616 0.15561531 0.98270315
0.41448656 0.15397181 0.97232449
0.41321087 0.1525241 0.96318227
0.41237718 0.15125674 0.95517904
0.41437951 0.151039 0.95380402
0.41785502 0.15135759 0.95581585
0.4229635 0.15226008 0.96151501
0.42914459 0.15353522 0.96956748
0.42822623 0.15227032 0.96157968
0.42845643 0.1514267 0.95625234
0.429418 0.15085022 0.9526118
0.44212753 0.15438281 0.97491997
-0.87025303 0.20088851 1.2471656
-0.85895514 0.19905694 1.2357947
-0.83451706 0.19492011 1.2101122
-0.82578862 0.19364564 1.2022001
-0.84188068 0.19820455 1.2305028
-0.84923947 0.20073558 1.2462162
-0.85145348 0.20206596 1.2544755
-0.84803915 0.20206596 1.2544755
-0.81480163 0.19572231 1.2150925
-0.79942507 0.19281133 1.1970204
-0.81399357 0.19712844 1.2238221
-0.81658 0.19856735 1.2327552
-0.81975973 0.20016301 1.2426615
-0.81743008 0.20042107 1.2442635
-0.81936932 0.20173229 1.252404
-0.81596065 0.20173229 1.252404
-0.80806273 0.20061776 1.2454847
-0.8020336 0.19995974 1.2413995
-0.80670059 0.20197415 1.2539055
-0.80686706 0.20287411 1.2594926
-0.65905523 0.16712925 1.0375797
-0.64665496 0.16469035 1.0224384
-0.64149898 0.16408332 1.0186698
-0.65315682 0.16779035 1.041684
-0.70759481 0.18256749 1.1334242
-0.66649383 0.17271596 1.0722634
-0.67509955 0.17571546 1.090885
-0.67213053 0.17571546 1.090885
-0.58281791 0.15510711 0.96294332
-0.58245468 0.15571067 0.9666903
-0.57947439 0.15561688 0.96610802
-0.58071131 0.15665992 0.97258353
-0.57935917 0.15701087 0.97476226
-0.58082259 0.15813158 0.98171997
-0.58156371 0.15906511 0.98751551
-0.58053476 0.15952091 0.99034524
-0.61087739 0.16864155 1.0469685
-0.60878932 0.16885275 1.0482796
-0.6150701 0.17139804 1.0640814
-0.62385798 0.17466936 1.0843905
-0.65881509 0.18533354 1.1505964
-0.670398 0.18949269 1.1764175
-0.67358732 0.19130787 1.1876866
-0.67035478 0.19130787 1.1876866
-0.66986865 0.19209544 1.1925761
-0.66129899 0.19056134 1.1830519
-0.65311855 0.18912491 1.1741343
-0.64785814 0.18852408 1.1704041
-0.63530022 0.18578327 1.1533885
-0.64087647 0.18834461 1.1692899
-0.64060181 0.18920346 1.1746218
-0.64022386 0.19004023 1.1798167
-0.63704234 0.19004907 1.1798716
-0.63492215 0.19037622 1.1819026
-0.63023174 0.18993212 1.1791456
-0.62431782 0.18911286 1.1740594
-0.61915112 0.18851267 1.1703333
-0.61827046 0.18921801 1.1747122
-0.61672181 0.18972516 1.1778607
-0.61381865 0.18981875 1.1784418
-0.60952353 0.18948062 1.1763425
-0.60475606 0.18899129 1.1733047
-0.60076755 0.18874149 1.1717539
-0.59668726 0.18846004 1.1700065
-0.59348285 0.1884537 1.1699672
-0.58971471 0.18826731 1.16881
-0.58634979 0.18820833 1.1684438
-0.58282804 0.18809809 1.1677594
-0.57994622 0.1881943 1.1683568
-0.57649362 0.18810534 1.1678045
-0.57305419 0.18801971 1.1672728
-0.5662716 0.18683009 1.1598874
-0.54753929 0.1816625 1.1278057
-0.53428978 0.17826596 1.1067191
-0.54269958 0.18209849 1.1305125
-0.55024302 0.1856824 1.1527623
-0.54887432 0.18628271 1.1564891
-0.54655182 0.18656439 1.1582378
-0.54255199 0.18627341 1.1564314
-0.53939569 0.18627039 1.1564126
-0.53586364 0.18613678 1.1555831
-0.53353721 0.18642284 1.1573591
-0.53075552 0.1865523 1.1581628
-0.52774984 0.18660411 1.1584845
-0.52414256 0.18644254 1.1574814
-0.52055293 0.18628535 1.1565055
-0.51685697 0.18608792 1.1552799
-0.51336503 0.18596202 1.1544982
-0.51046145 0.186049 1.1550382
-0.50758594 0.18614733 1.1556487
-0.50381184 0.18591532 1.1542083
-0.50090235 0.18600146 1.1547431
-0.49942538 0.18662396 1.1586077
-0.49988508 0.18798268 1.167043
-0.5007109 0.18949734 1.1764463
-0.50082934 0.19076204 1.1842979
-0.49975273 0.191585 1.1894071
-0.49791545 0.19212519 1.1927607
-0.49601698 0.19264869 1.1960107
-0.49527761 0.19363227 1.2021171
-0.49490726 0.19477417 1.2092062
-0.49242347 0.19509403 1.211192
-0.4157407 0.16694823 1.0364559
-0.39951515 0.16152859 1.0028094
-0.39440703 0.16056021 0.9967975
-0.39150089 0.16048105 0.996306
-0.38996661 0.16096704 0.99932313
-0.38848197 0.16148049 1.0025108
-0.38666221 0.16186091 1.0048726
-0.38451618 0.16210921 1.0064141
-0.3810769 0.16181193 1.0045685
-0.37715235 0.1613028 1.0014077
-0.37290105 0.16064551 0.99732709
-0.36898094 0.16012232 0.99407893
-0.3657673 0.1599002 0.99270004
-0.36359489 0.16013339 0.99414766
-0.36225501 0.16073947 0.99791032
-0.36131975 0.16153559 1.0028529
-0.3589496 0.16169746 1.0038579
-0.35572743 0.16147508 1.0024772
-0.35209918 0.16106346 0.9999218
-0.34910136 0.16093609 0.99913102
-0.34667808 0.16107364 0.99998498
-0.34411603 0.16114838 1.0004491
-0.34142816 0.16116494 1.0005518
-0.33860523 0.16111749 1.0002573
-0.33629242 0.16131398 1.0014771
-0.33470833 0.1618661 1.0049047
-0.33391804 0.16281433 1.0107917
-0.33303991 0.16373515 1.0165083
-0.33111542 0.16415267 1.0191003
-0.32832333 0.16414346 1.0190432
-0.32466787 0.16369881 1.0162827
-0.32033262 0.16290081 1.0113285
-0.31687137 0.16253728 1.0090716
-0.31369594 0.16231528 1.0076934
-0.31120354 0.16244592 1.0085044
-0.30837864 0.16240376 1.0082427
-0.30581543 0.1624999 1.0088396
-0.30294472 0.16243294 1.0084238
-0.30078724 0.16275063 1.0103961
-0.30002254 0.16383475 1.0171267
-0.30007121 0.16538738 1.0267657
-0.29986328 0.16682643 1.0356997
-0.29821625 0.16748457 1.0397856
-0.29535544 0.1674671 1.0396771
-0.28988397 0.16595472 1.030288
-0.28366891 0.16398296 1.0180467
-0.27778792 0.1621673 1.0067747
-0.27384475 0.161458 1.0023712
-0.27033004 0.1609896 0.9994632
-0.2674529 0.16089523 0.99887735
-0.26497859 0.16104373 0.99979931
-0.26331782 0.1616949 1.0038419
-0.26176041 0.16242383 1.0083673
-0.25881493 0.16229779 1.0075848
-0.255496 0.16193236 1.0053161
-0.25139523 0.16105813 0.99988866
-0.24725783 0.16014105 0.99419522
-0.24280354 0.15899615 0.98708743
-0.24125865 0.15975213 0.9917807
-0.24241789 0.16233604 1.0078223
-0.24959813 0.16905724 1.0495491
-0.25415701 0.17413799 1.0810918
-0.25989181 0.18015291 1.1184338
-0.26613352 0.18666595 1.1588684
-0.26733345 0.1897565 1.1780553
-0.25821671 0.18551031 1.1516938
-0.24546643 0.17851721 1.108279
-0.23991582 0.17665128 1.0966948
-0.23688827 0.17661949 1.0964974
-0.23612984 0.17830025 1.106932
-0.2371642 0.18139571 1.1261494
-0.24103519 0.18677023 1.1595157
-0.2451544 0.19248223 1.1949773
-0.24498263 0.19493349 1.2101953
-0.2430169 0.19600464 1.2168453
-0.24019147 0.19640245 1.2193149
-0.23738801 0.19682959 1.2219667
-0.23413113 0.19688758 1.2223268
-0.23101163 0.19706444 1.2234248
-0.22757739 0.19697405 1.2228637
-0.22428377 0.19700451 1.2230527
-0.22091024 0.19696464 1.2228051
-0.21739422 0.19679454 1.2217492
-0.21388459 0.19662505 1.2206969
-0.21018358 0.19627149 1.2185019
-0.20705739 0.19645196 1.2196224
-0.20384927 0.19655934 1.220289
-0.20061097 0.19664069 1.220794
-0.1970758 0.19642887 1.219479
-0.1936374 0.1963079 1.2187279
-0.19027503 0.19626112 1.2184376
-0.18683927 0.19613566 1.2176586
-0.18351528 0.19612511 1.2175932
-0.18020786 0.19613221 1.2176373
-0.17685385 0.19608791 1.2173623
-0.17344669 0.19598189 1.216704
-0.17002182 0.19585131 1.2158934
-0.16656233 0.19567491 1.2147982
-0.16315989 0.19555971 1.2140831
-0.15967725 0.19534165 1.2127292
-0.15631135 0.19526021 1.2122236
-0.15282838 0.19502586 1.2107688
-0.14963417 0.19515778 1.2115878
-0.14648727 0.19535877 1.2128356
-0.143181 0.19535157 1.2127908
-0.13974643 0.19516484 1.2116317
-0.13624553 0.19487426 1.2098275
-0.13297649 0.19490908 1.2100438
-0.1296453 0.19485228 1.2096912
-0.12625329 0.19469872 1.2087379
-0.12308067 0.19488433 1.2098901
-0.11989827 0.19506423 1.211007
-0.11684799 0.19547532 1.2135592
-0.11352655 0.19544351 1.2133616
-0.11051355 0.19595671 1.2165477
-0.10746794 0.19644199 1.2195605
-0.10461631 0.19732408 1.2250367
-0.10165032 0.19804147 1.2294904
-0.098426297 0.19828786 1.2310201
-0.094623134 0.19734377 1.2251589
-0.089330249 0.1931103 1.1988765
-0.055010296 0.12829117 0.79646337
-0.051743396 0.12562266 0.7798965
-0.048981871 0.12400526 0.76985532
-0.04667313 0.12344083 0.76635122
-0.04438889 0.12289143 0.76294035
-0.042087413 0.12223803 0.75888389
-0.039820842 0.12162379 0.75507057
-0.037645899 0.12123781 0.75267428
-0.03552768 0.12100058 0.75120151
-0.033465777 0.12093789 0.75081235
-0.031308707 0.12050077 0.74809861
-0.029208276 0.12023601 0.74645489
-0.027106887 0.11992742 0.74453908
-0.025114169 0.12008859 0.74553967
-0.023072863 0.12002534 0.74514699
-0.020991758 0.11972291 0.74326944
-0.018966818 0.11971048 0.74319226
-0.016990513 0.12003867 0.74522978
-0.01505392 0.12077446 0.7497977
-0.013043772 0.12105834 0.75156015
-0.010972627 0.12077644 0.74980998
-0.0089366343 0.12084104 0.75021106
-0.006911811 0.12113965 0.75206494
-0.0048904633 0.12177612 0.75601625
-0.0028393494 0.12205759 0.75776374
-0.000778883 0.1223642 0.75966722
0.001292779 0.12275001 0.76206243
0.0033816916 0.1232894 0.76541108
0.005518314 0.1244939 0.7728889
0.007722503 0.12613715 0.78309059
0.010154534 0.12998609 0.8069858
0.020905087 0.18679544 1.1596723
0.024546571 0.19056207 1.1830565
0.027822085 0.19094343 1.1854241
0.031076774 0.19111748 1.1865046
0.034301896 0.19109404 1.186359
0.037542049 0.19115119 1.1867138
0.040758718 0.19108917 1.1863288
0.043978825 0.19105119 1.186093
0.047180679 0.19094451 1.1854308
0.050409716 0.19095448 1.1854926
0.053587906 0.19078222 1.1844232
0.056846391 0.19089916 1.1851492
0.059988543 0.19063385 1.1835021
0.063242592 0.19073305 1.1841179
0.066436276 0.19064941 1.1835986
0.069674753 0.19069608 1.1838884
0.072784126 0.19040091 1.182056
0.07594157 0.19025116 1.1811262
0.079145953 0.19022638 1.1809723
0.082349621 0.19020189 1.1808203
0.085604236 0.19029248 1.1813828
0.088806011 0.19026332 1.1812017
0.091980852 0.1901805 1.1806875
0.095104568 0.19000113 1.179574
0.098220862 0.18981914 1.1784441
0.10138252 0.18973355 1.1779128
0.10447621 0.18952993 1.1766486
0.10759544 0.18938333 1.1757386
0.11088313 0.18953319 1.1766689
0.11411624 0.18958394 1.176984
0.11736012 0.18964931 1.1773899
0.12040649 0.18940055 1.1758455
0.12334013 0.18899192 1.1733086
0.12646483 0.18888929 1.1726714
0.12958342 0.18878283 1.1720104
0.1328813 0.18893638 1.1729637
0.13596858 0.18879031 1.1720569
0.13908207 0.1886865 1.1714125
0.14238881 0.18884365 1.1723881
0.14603217 0.18943056 1.1760318
0.14955306 0.18983684 1.1785541
0.1523001 0.1892644 1.1750002
0.15511122 0.18879348 1.1720766
0.15825345 0.18873642 1.1717224
0.16177414 0.18912409 1.1741291
0.16515151 0.18933241 1.1754224
0.16856459 0.18957299 1.176916
0.17150654 0.18928462 1.1751257
0.17244701 0.18683831 1.1599385
0.16692643 0.17760555 1.1026192
0.16307072 0.170439 1.0581275
0.16371922 0.16814724 1.0438997
0.16337331 0.16492976 1.0239247
0.16452307 0.16330481 1.0138366
0.16676655 0.16280118 1.01071
0.16945434 0.1627406 1.0103339
0.17221799 0.16275366 1.010415
0.17497779 0.16276272 1.0104712
0.17745677 0.16251431 1.008929
0.17994359 0.16228056 1.0074779
0.18194455 0.16162223 1.0033908
0.18453363 0.16149807 1.00262
0.18798846 0.16212417 1.0065069
0.19223996 0.16340947 1.0144864
0.19640276 0.16458404 1.0217785
0.19913666 0.16454515 1.0215369
0.20175785 0.16441545 1.0207318
0.2043142 0.16423717 1.0196249
0.20700932 0.16417371 1.019231
0.21009319 0.16441616 1.0207362
0.21296738 0.16449034 1.0211967
0.21604052 0.16471429 1.0225871
0.21964647 0.16533361 1.0264319
0.22385179 0.16638285 1.0329459
0.22817306 0.1674912 1.0398268
0.23131952 0.16772056 1.0412507
0.23417337 0.16773479 1.041339
0.23729797 0.16794029 1.0426148
0.23978837 0.1676974 1.0411069
0.2420433 0.16729742 1.0386238
0.24215484 0.1654423 1.0271068
0.24365953 0.1645705 1.0216943
0.24294578 0.16223688 1.0072067
0.24304891 0.16049477 0.99639124
0.24308459 0.15874708 0.98554111
0.24293365 0.15691696 0.97417933
0.24264118 0.15503596 0.96250153
0.24351518 0.15393247 0.95565087
0.24543436 0.15350603 0.95300335
0.24720642 0.15299745 0.94984597
0.24692634 0.15124245 0.93895054
0.24858728 0.15070012 0.93558359
0.24961798 0.14979057 0.92993695
0.25419113 0.15100372 0.93746841
0.25775906 0.15160152 0.94117975
0.26628849 0.15507695 0.96275604
0.27259469 0.15720256 0.97595233
0.27990434 0.15986021 0.99245167
0.2845521 0.16096133 0.99928772
0.28924483 0.16206679 1.0061507
0.2917183 0.16191971 1.0052376
0.29258266 0.1608905 0.99884808
0.2935783 0.15995179 0.99302024
0.29638186 0.16000623 0.99335825
0.30029944 0.16065568 0.99739015
0.30366856 0.1610027 0.9995445
0.30707034 0.16136071 1.0017672
0.30949697 0.1612045 1.0007974
0.31156561 0.16086619 0.99869704
0.31210414 0.15975054 0.9917708
0.31264809 0.15865678 0.98498046
0.3139503 0.15796311 0.98067409
0.31578118 0.15754491 0.97807777
0.3171598 0.15690997 0.97413588
0.31765527 0.15585221 0.96756911
0.31963265 0.15553299 0.96558726
0.32336104 0.15606405 0.96888417
0.32891244 0.15745923 0.97754586
0.33381516 0.15852398 0.98415601
0.33795282 0.15921135 0.98842347
0.34112316 0.15943576 0.98981661
0.34355024 0.15931198 0.98904818
0.34452015 0.15851966 0.98412925
0.34464407 0.15735331 0.97688824
0.34447497 0.15607207 0.96893394
0.3458955 0.15552503 0.96553785
0.34774554 0.15517791 0.96338278
0.35050562 0.15523905 0.96376234
0.35310578 0.15522896 0.96369976
0.35591361 0.15530965 0.96420074
0.35487857 0.15372454 0.95435989
0.35770679 0.15382373 0.95497578
0.36065823 0.15397413 0.95590949
0.36997405 0.15682003 0.9735775
0.37578356 0.15814979 0.98183304
0.37555262 0.1569366 0.97430122
0.37529942 0.15573117 0.96681762
0.37532541 0.15465759 0.96015251
0.37741983 0.15444526 0.95883435
0.38020203 0.15451537 0.95926964
0.38280389 0.15451175 0.95924711
0.38487342 0.15429476 0.95789999
0.38736609 0.15424918 0.95761698
0.39079461 0.15457436 0.95963591
0.39453468 0.15501766 0.96238792
0.39886239 0.15568447 0.9665277
0.40329441 0.15638299 0.9708643
0.40728658 0.15690297 0.97409242
0.40985242 0.15687029 0.97388959
0.41095483 0.15628152 0.97023433
0.40967891 0.15480158 0.96104646
0.40790471 0.15315333 0.95081377
0.40873337 0.15249699 0.94673902
0.41262385 0.15298407 0.94976288
0.41898465 0.15437527 0.95839983
0.42580748 0.15591843 0.96798021
0.43038985 0.15662728 0.97238088
0.4304159 0.15567945 0.96649653
0.43176898 0.15522021 0.96364546
0.4350144 0.1554427 0.96502674
0.44303757 0.1573595 0.97692668
-0.86201197 0.20234844 1.2353553
-0.86099923 0.20290212 1.2387356
-0.84552419 0.20003861 1.2212535
-0.77483028 0.18403696 1.123562
-0.81303549 0.19387658 1.1836338
-0.82013094 0.19634655 1.1987132
-0.84625846 0.20341091 1.2418417
-0.84992075 0.20511039 1.2522172
-0.84651256 0.20511039 1.2522172
-0.83693862 0.20361038 1.2430595
-0.82187289 0.20075674 1.2256378
-0.79942507 0.19606929 1.1970204
-0.79853159 0.19665158 1.2005754
-0.8064537 0.19941856 1.217468
-0.79608011 0.19766557 1.2067659
-0.82472837 0.20562726 1.2553728
-0.79674804 0.19947742 1.2178274
-0.80839604 0.20323917 1.2407932
-0.80501896 0.20323917 1.2407932
-0.80479205 0.20403783 1.2456691
-0.80224425 0.20425235 1.2469788
-0.79699224 0.20377727 1.2440784
-0.65998715 0.17019355 1.0390468
-0.64427811 0.16685757 1.0186803
-0.63856739 0.16609333 1.0140146
-0.63540691 0.1659887 1.0133758
-0.65693527 0.17236076 1.0522778
-0.65915376 0.17370008 1.0604545
-0.65890187 0.17439735 1.0647113
-0.65600401 0.17439735 1.0647113
-0.66846305 0.17849807 1.0897466
-0.58577985 0.15852955 0.96783704
-0.58138639 0.15805128 0.96491718
-0.58440459 0.1595927 0.97432768
-0.58361465 0.1601035 0.97744608
-0.58186811 0.16035531 0.97898346
-0.57952482 0.16044426 0.97952646
-0.57747877 0.16061668 0.98057914
-0.58754587 0.16417544 1.0023056
-0.59787422 0.16784073 1.0246826
-0.61734194 0.17493795 1.0680118
-0.62296367 0.17736614 1.082836
-0.66114014 0.18913025 1.154657
-0.66923213 0.19235945 1.1743716
-0.67070532 0.19370808 1.182605
-0.66748661 0.19370808 1.182605
-0.66463017 0.19381371 1.18325
-0.66165352 0.19388516 1.1836861
-0.65631813 0.19326274 1.1798862
-0.65168959 0.19284335 1.1773258
-0.64380026 0.19145016 1.1688203
-0.63510239 0.1898015 1.1587551
-0.62889218 0.18888353 1.1531508
-0.63292849 0.19104925 1.1663727
-0.63182181 0.19167659 1.1702026
-0.63162905 0.19258893 1.1757725
-0.62462455 0.19142303 1.1686547
-0.62367743 0.19211106 1.1728551
-0.61850065 0.1914966 1.1691037
-0.61754924 0.19219078 1.1733419
-0.61386502 0.19203727 1.1724046
-0.61044711 0.19196591 1.1719689
-0.60557944 0.19143547 1.1687306
-0.60100192 0.19099167 1.1660211
-0.59774679 0.19096561 1.1658621
-0.59578222 0.19135378 1.1682318
-0.59315348 0.19153166 1.1693178
-0.59029329 0.19163629 1.1699567
-0.58679944 0.19153528 1.1693399
-0.58444554 0.19180724 1.1710002
-0.58243889 0.19219679 1.1733785
-0.57850224 0.19195025 1.1718733
-0.56887901 0.18980365 1.1587682
-0.55414188 0.18591741 1.1350423
-0.54868484 0.18511854 1.1301652
-0.54499477 0.18491021 1.1288933
-0.54457128 0.1858141 1.1344116
-0.54922128 0.18846929 1.1506218
-0.54881716 0.18941063 1.1563687
-0.54718292 0.18993582 1.1595751
-0.54344314 0.18973203 1.1583309
-0.53975427 0.18954371 1.1571813
-0.53584445 0.18927518 1.1555418
-0.53355575 0.18957943 1.1573993
-0.53110564 0.18982963 1.1589268
-0.52780408 0.18977669 1.1586035
-0.52429056 0.18964641 1.1578082
-0.52098894 0.18959169 1.1574742
-0.51761639 0.18951033 1.1569774
-0.51383001 0.18927552 1.1555439
-0.51053333 0.18921933 1.1552008
-0.50799429 0.18944497 1.1565784
-0.50508046 0.1895328 1.1571146
-0.50230277 0.18967314 1.1579714
-0.50093955 0.19035275 1.1621205
-0.50061989 0.19144005 1.1687585
-0.50080591 0.19273584 1.1766695
-0.49940452 0.19343349 1.1809287
-0.49829066 0.19425227 1.1859274
-0.49648425 0.19480997 1.1893322
-0.49430797 0.1952289 1.1918899
-0.49294451 0.19597656 1.1964543
-0.4922179 0.19698898 1.2026353
-0.48776165 0.19651237 1.1997255
-0.4061721 0.1658618 1.012601
-0.39454737 0.16221549 0.99033999
-0.39068994 0.16173445 0.98740321
-0.38767803 0.16159919 0.98657745
-0.38622978 0.16211839 0.98974717
-0.38388684 0.1622667 0.99065268
-0.3819122 0.16257389 0.99252808
-0.37897485 0.16247272 0.99191046
-0.37648427 0.16256303 0.99246174
-0.37335449 0.16237663 0.99132377
-0.37068456 0.16238897 0.99139911
-0.36795923 0.16237704 0.99132627
-0.36607793 0.16274014 0.99354309
-0.36371687 0.1628938 0.99448121
-0.3609122 0.16284961 0.99421132
-0.35757062 0.16256063 0.99244714
-0.35441053 0.16235039 0.99116361
-0.35161436 0.16230492 0.99088603
-0.34884107 0.1622694 0.99066913
-0.34680551 0.16257916 0.99256027
-0.34468633 0.16285427 0.99423981
-0.34243852 0.16307248 0.99557203
-0.33956623 0.16299443 0.99509549
-0.33687332 0.16300191 0.99514115
-0.33436224 0.1630982 0.99572903
-0.33187437 0.16320749 0.99639624
-0.32944363 0.1633469 0.99724734
-0.32695597 0.16346017 0.99793887
-0.32450813 0.16359541 0.99876451
-0.32162422 0.16351123 0.99825066
-0.31834376 0.16322231 0.99648678
-0.31530878 0.16305538 0.9954676
-0.3127476 0.16313268 0.99593955
-0.31085145 0.16356125 0.99855602
-0.30861107 0.16381466 1.0001031
-0.3058033 0.16376872 0.99982268
-0.30241644 0.16340907 0.9976269
-0.29958007 0.16334303 0.99722373
-0.2978617 0.16389093 1.0005687
-0.29708037 0.1649693 1.0071522
-0.29604071 0.16592295 1.0129744
-0.2940391 0.16635032 1.0155835
-0.29117641 0.16629404 1.01524
-0.2877605 0.16591769 1.0129423
-0.28338856 0.16497751 1.0072024
-0.27909288 0.16406378 1.001624
-0.27521896 0.16338241 0.99746418
-0.27196878 0.16306143 0.9955045
-0.26908189 0.16295399 0.99484861
-0.26632807 0.16292576 0.99467629
-0.26423705 0.16330659 0.99700129
-0.26268518 0.16403201 1.00143
-0.26069379 0.16449529 1.0042584
-0.25724396 0.16403838 1.0014689
-0.25228599 0.16259968 0.99268556
-0.24697231 0.16089809 0.98229718
-0.24208823 0.1594422 0.97340882
-0.23849423 0.15881316 0.96956849
-0.23674485 0.1594121 0.97322512
-0.23641585 0.16099185 0.98286957
-0.23751499 0.16359138 0.99874002
-0.24519058 0.17083319 1.0429518
-0.25327107 0.17853004 1.0899417
-0.26009083 0.18773507 1.1461393
-0.24897477 0.18189301 1.110473
-0.2428553 0.17960259 1.0964898
-0.23958348 0.17938733 1.0951756
-0.23768117 0.18020499 1.1001675
-0.23804733 0.18278536 1.1159209
-0.24135733 0.18772207 1.14606
-0.24640119 0.19415429 1.1853292
-0.24704754 0.19724612 1.2042052
-0.24532498 0.19850431 1.2118865
-0.2425866 0.19896363 1.2146907
-0.23964985 0.1992707 1.2165654
-0.23668128 0.19955955 1.2183288
-0.23332559 0.19952555 1.2181213
-0.23006967 0.19957714 1.2184362
-0.22646889 0.19932671 1.2169073
-0.22300927 0.19919492 1.2161027
-0.21955673 0.19906558 1.2153131
-0.21638119 0.19918726 1.216056
-0.2132148 0.1993213 1.2168742
-0.20978422 0.19920869 1.2161868
-0.20644811 0.1991836 1.2160336
-0.20313677 0.19918199 1.2160238
-0.19982365 0.19917856 1.2160028
-0.19641715 0.19908036 1.2154033
-0.19304898 0.1990183 1.2150245
-0.18978179 0.19906001 1.2152791
-0.1862586 0.19882992 1.2138743
-0.18289091 0.19876049 1.2134506
-0.17953208 0.19869834 1.2130711
-0.17645293 0.1989492 1.2146026
-0.17298532 0.19876327 1.2134675
-0.16956608 0.19862679 1.2126342
-0.16610442 0.1984342 1.2114584
-0.16284712 0.19848287 1.2117556
-0.15945965 0.19837165 1.2110766
-0.15590319 0.19804105 1.2090583
-0.15253614 0.197942 1.2084535
-0.1493793 0.19811736 1.2095242
-0.14620475 0.19827664 1.2104965
-0.14288148 0.19823688 1.2102538
-0.13929771 0.19782531 1.2077411
-0.13582434 0.19755442 1.2060874
-0.13252762 0.19753343 1.2059592
-0.12938152 0.19774157 1.2072299
-0.12604587 0.19766328 1.2067519
-0.12276378 0.19766708 1.2067751
-0.11943423 0.19759254 1.20632
-0.11640956 0.19803244 1.2090057
-0.11311095 0.19801837 1.2089198
-0.110168 0.19864474 1.2127439
-0.10707223 0.19902575 1.2150699
-0.10437369 0.20019294 1.2221957
-0.10144416 0.20097937 1.2269969
-0.098368756 0.20152047 1.2303004
-0.094699331 0.20083991 1.2261455
-0.089837164 0.19748764 1.2056797
-0.055425033 0.13144249 0.80246812
-0.052071944 0.12855645 0.78484851
-0.049279433 0.12686664 0.77453214
-0.04688213 0.12608872 0.7697829
-0.044564977 0.12546366 0.76596683
-0.042226374 0.12471391 0.76138949
-0.039883219 0.12387262 0.75625336
-0.03773243 0.12356975 0.75440431
-0.035592798 0.12327066 0.75257838
-0.033550728 0.12329357 0.75271821
-0.031401079 0.12289841 0.75030577
-0.029291201 0.12261478 0.74857414
-0.027204864 0.12239464 0.74723017
-0.025189769 0.12248534 0.7477839
-0.023217851 0.1228204 0.74982947
-0.021165386 0.12275288 0.74941725
-0.019083243 0.12248047 0.74775422
-0.017054303 0.12252527 0.74802768
-0.015069239 0.12294016 0.75056064
-0.013065647 0.12331033 0.75282055
-0.011008182 0.12321517 0.75223958
-0.0089775687 0.12344576 0.75364739
-0.0069358363 0.12361475 0.75467908
-0.0049015866 0.12411544 0.75773579
-0.0028407506 0.12418127 0.7581377
-0.00078006886 0.12462124 0.76082379
0.0012955515 0.12509184 0.76369679
0.0033963281 0.12591526 0.76872391
0.0055381465 0.12705246 0.77566659
0.0077507626 0.12873788 0.7859562
0.010167959 0.13235724 0.80805272
0.020858739 0.1895306 1.1571012
0.024479978 0.19325629 1.1798469
0.027779907 0.19387548 1.183627
0.031023344 0.19401269 1.1844647
0.0342732 0.19416042 1.1853666
0.037503164 0.19417974 1.1854846
0.040729504 0.19417873 1.1854784
0.043917801 0.19400981 1.1844472
0.047101572 0.19384536 1.1834432
0.050295003 0.19373918 1.1827949
0.053453308 0.19351859 1.1814482
0.056688938 0.19358711 1.1818665
0.059825908 0.19332944 1.1802934
0.0630733 0.19343668 1.1809481
0.066272363 0.19339249 1.1806784
0.069499388 0.19343022 1.1809087
0.072636239 0.19322471 1.1796541
0.075807989 0.19312553 1.1790485
0.079068661 0.19325174 1.1798191
0.082329087 0.19336751 1.1805259
0.085527346 0.19333407 1.1803217
0.088578753 0.19298311 1.178179
0.091641888 0.19268131 1.1763365
0.094719239 0.19242877 1.1747948
0.097916707 0.1924288 1.1747949
0.10108425 0.19237186 1.1744473
0.10437845 0.19255206 1.1755475
0.10747574 0.1923691 1.1744305
0.11069828 0.19241445 1.1747073
0.11379507 0.19224478 1.1736715
0.11700798 0.19227518 1.1738571
0.12008917 0.1920933 1.1727467
0.1230446 0.19172485 1.1704973
0.12632495 0.19186851 1.1713743
0.12936933 0.19165553 1.1700741
0.13264173 0.19178246 1.170849
0.13561775 0.19148496 1.1690327
0.13882543 0.19152071 1.169251
0.14193007 0.19141588 1.1686109
0.14525795 0.19161011 1.1697968
0.14883058 0.19211194 1.1728605
0.15169385 0.19169629 1.1703229
0.15377408 0.19032854 1.1619726
0.15668766 0.19002658 1.1601292
0.16047482 0.19077508 1.1646988
0.16482687 0.19215313 1.1731119
0.16855018 0.19275974 1.1768154
0.17112523 0.19205505 1.1725131
0.17202677 0.18953232 1.1571118
0.16960029 0.18349957 1.1202812
0.16656323 0.17703092 1.0807896
0.16659066 0.17398737 1.0622084
0.16687098 0.17130725 1.045846
0.16697812 0.16854224 1.0289654
0.16881567 0.16758625 1.023129
0.17078127 0.16678634 1.0182455
0.17323615 0.16648218 1.0163885
0.17510781 0.16563591 1.011222
0.17693198 0.1647716 1.0059453
0.17918421 0.16432621 1.0032262
0.18151344 0.16396375 1.0010133
0.18438834 0.16409762 1.0018306
0.18747137 0.16441011 1.0037384
0.19107355 0.16516238 1.0083311
0.19504675 0.16620952 1.0147239
0.19849619 0.16678731 1.0182514
0.20168063 0.16712961 1.0203412
0.20465486 0.16729076 1.021325
0.20806661 0.16780046 1.0244367
0.21156216 0.16836333 1.0278732
0.21384324 0.16795768 1.0253966
0.2161693 0.16759732 1.0231966
0.21950445 0.16801853 1.0257682
0.22311468 0.16863711 1.0295446
0.22588111 0.16861045 1.0293819
0.22757016 0.1677901 1.0243735
0.2302642 0.16772163 1.0239555
0.23388901 0.16832463 1.0276369
0.23631576 0.16806136 1.0260296
0.23747502 0.16691338 1.019021
0.23796804 0.16532902 1.0093484
0.23939754 0.16442402 1.0038233
0.24118602 0.16378321 0.99991107
0.24341246 0.16345081 0.99788171
0.24479958 0.16256833 0.99249417
0.24467494 0.16071215 0.98116201
0.24427752 0.15871882 0.96899253
0.2448975 0.15742205 0.96107566
0.24654239 0.15680456 0.95730579
0.24770112 0.155894 0.95174676
0.24722065 0.15398133 0.94006968
0.2486185 0.15326576 0.93570107
0.24960861 0.15231588 0.92990202
0.25324959 0.15298645 0.9339959
0.25570619 0.15293534 0.93368387
0.260923 0.15451984 0.94335735
0.26327989 0.1543963 0.94260311
0.26289979 0.15268557 0.93215901
0.264146 0.15194303 0.92762572
0.26552576 0.15129064 0.92364287
0.26950106 0.15211552 0.92867881
0.27339277 0.1528783 0.93333566
0.28003654 0.15515181 0.94721568
0.28355446 0.1556678 0.95036572
0.29013619 0.15784122 0.96363473
0.29811531 0.16072913 0.98126566
0.30577952 0.16339746 0.99755603
0.30852482 0.16341347 0.99765378
0.30975616 0.16263431 0.99289697
0.31064031 0.16168793 0.9871192
0.31186232 0.16093212 0.98250496
0.31301385 0.16015311 0.97774893
0.31423253 0.15942128 0.97328109
0.31649533 0.15922698 0.97209495
0.31773907 0.15852748 0.9678244
0.3206785 0.15867855 0.96874666
0.32341954 0.15872978 0.96905941
0.32777417 0.1595657 0.97416282
0.33131722 0.15999629 0.97679156
0.3357206 0.16083218 0.98189479
0.33991081 0.16155355 0.9862988
0.34392238 0.16217938 0.99011952
0.34689987 0.16231163 0.99092692
0.34809715 0.16161533 0.98667592
0.34773445 0.16021095 0.97810215
0.34732676 0.15880737 0.96953309
0.34771633 0.15778671 0.9633019
0.34919485 0.15727179 0.96015823
0.35174173 0.15724209 0.95997697
0.35584867 0.15790512 0.96402478
0.35983688 0.15850613 0.96769398
0.36194265 0.15827523 0.96628439
0.36416286 0.15809736 0.9651984
0.36645767 0.15795416 0.96432424
0.36866185 0.15777422 0.96322572
0.36990213 0.15718724 0.95964205
0.37097609 0.15653829 0.95568019
0.37231654 0.15601006 0.95245528
0.37569627 0.15633771 0.95445567
0.37902915 0.15664153 0.95631045
0.38118017 0.15645608 0.95517832
0.38364097 0.15639944 0.95483255
0.38674456 0.15660386 0.9560805
0.39133316 0.15740284 0.96095836
0.39584738 0.15816149 0.96559
0.3994984 0.15856752 0.96806884
0.40209246 0.15855145 0.96797079
0.40322018 0.15796116 0.96436697
0.40527025 0.15773749 0.96300143
0.40725365 0.15749092 0.96149611
0.40766743 0.15664437 0.95632786
0.40670854 0.15528446 0.94802552
0.40670329 0.15430354 0.94203681
0.41130617 0.15507226 0.9467299
0.41998014 0.15735674 0.96067691
0.43010029 0.16015147 0.97773898
0.43346867 0.16041319 0.97933686
0.43259963 0.15911318 0.97140014
0.43534571 0.15915054 0.97162819
0.4377645 0.15906852 0.97112751
0.44110578 0.15932068 0.97266698
-0.85238165 0.20341253 1.2215539
-0.84995341 0.20362732 1.2228438
-0.85424924 0.20546103 1.2338557
-0.84996861 0.2052383 1.2325182
-0.77720904 0.18841295 1.1314769
-0.82889634 0.2017425 1.2115248
-0.82863945 0.20248547 1.2159866
-0.83127069 0.20394298 1.2247394
-0.8279373 0.20394298 1.2247394
-0.82756042 0.2046742 1.2291306
-0.82236141 0.20421389 1.2263663
-0.78856558 0.19661954 1.1807599
-0.79853159 0.19991919 1.2005754
-0.81512946 0.20491312 1.2305654
-0.77616471 0.1959229 1.1765764
-0.78360933 0.19862157 1.1927828
-0.76789451 0.19544807 1.1737249
-0.79140651 0.20227395 1.2147163
-0.78810042 0.20227395 1.2147163
-0.78005111 0.20105141 1.2073747
-0.76600051 0.19826524 1.1906428
-0.664177 0.17337704 1.0411817
-0.65120316 0.17071874 1.0252178
-0.64143121 0.16888057 1.014179
-0.63375771 0.16758141 1.0063771
-0.62864488 0.166951 1.0025914
-0.64126503 0.17104502 1.0271772
-0.65432143 0.17529178 1.0526803
-0.636949 0.17138818 1.029238
-0.58912456 0.16135836 0.96900582
-0.59390432 0.163399 0.98126048
-0.58966494 0.16296546 0.97865695
-0.58341414 0.16196959 0.97267646
-0.58698726 0.16370441 0.98309457
-0.5820958 0.16308363 0.9793666
-0.5799517 0.16323039 0.98024791
-0.57744545 0.16327612 0.98052257
-0.59540439 0.16913579 1.0157117
-0.59736085 0.17048311 1.0238028
-0.6213429 0.17815849 1.0698957
-0.60951394 0.17558967 1.0544691
-0.61567509 0.17820367 1.0701671
-0.65684825 0.19102472 1.1471614
-0.66567868 0.19451742 1.168136
-0.66472882 0.19517201 1.172067
-0.66224003 0.19537888 1.1733094
-0.65904659 0.19537888 1.1733094
-0.65545714 0.19526091 1.172601
-0.6526199 0.19536696 1.1732378
-0.64918858 0.19529532 1.1728076
-0.64595395 0.19528246 1.1727303
-0.64192808 0.19502907 1.1712086
-0.63758713 0.19467694 1.169094
-0.63296211 0.1942341 1.1664346
-0.62504405 0.19277118 1.1576494
-0.5809682 0.18008547 1.0814677
-0.57978368 0.18249205 1.0959201
-0.57457244 0.181787 1.091686
-0.60081017 0.19107638 1.1474715
-0.60363466 0.19297777 1.15889
-0.60246462 0.19361542 1.1627192
-0.59960604 0.19371428 1.1633129
-0.59667593 0.19379096 1.1637734
-0.59366715 0.19384277 1.1640846
-0.59030873 0.19378036 1.1637098
-0.58653486 0.19358017 1.1625075
-0.5824948 0.19328947 1.1607618
-0.57931983 0.19328423 1.1607304
-0.57524186 0.19297601 1.1588794
-0.55435765 0.18699531 1.1229635
-0.55643505 0.18873663 1.1334207
-0.55429429 0.18905866 1.1353545
-0.55257499 0.18952884 1.1381781
-0.54752773 0.18885642 1.13414
-0.5419541 0.18799376 1.1289595
-0.54357225 0.18963021 1.1387869
-0.5449605 0.19120479 1.1482427
-0.54437858 0.19210225 1.1536323
-0.54127318 0.19211449 1.1537057
-0.53713435 0.19175793 1.1515645
-0.53311604 0.19144046 1.149658
-0.53081566 0.19173978 1.1514555
-0.52862877 0.1920839 1.153522
-0.52588534 0.1922287 1.1543916
-0.52231973 0.1920729 1.153456
-0.51926577 0.1921045 1.1536458
-0.51626974 0.19215806 1.1539674
-0.51293564 0.19208564 1.1535325
-0.50975722 0.19207104 1.1534448
-0.5072757 0.19232042 1.1549424
-0.5050059 0.19265369 1.1569438
-0.50218123 0.19277816 1.1576912
-0.50027412 0.19325864 1.1605767
-0.49886733 0.19393973 1.1646669
-0.49839771 0.19499621 1.1710113
-0.49628928 0.19542098 1.1735622
-0.49482232 0.19610547 1.1776727
-0.49327967 0.1967687 1.1816556
-0.49162602 0.19739605 1.1854231
-0.49053329 0.19825841 1.1906018
-0.4900395 0.19937593 1.1973128
-0.48203358 0.19743156 1.1856364
-0.40235969 0.16703513 1.0030966
-0.392115 0.16389424 0.98423457
-0.38767305 0.16315222 0.97977847
-0.38402757 0.16273743 0.97728759
-0.38171297 0.16288479 0.97817248
-0.37928161 0.16298403 0.97876847
-0.37724322 0.16325474 0.98039412
-0.37444523 0.16319823 0.9800548
-0.37201422 0.16330202 0.98067808
-0.36878511 0.16305442 0.97919118
-0.36638397 0.16317198 0.97989714
-0.36377448 0.16319777 0.98005205
-0.36154222 0.16339444 0.98123312
-0.35843351 0.16319498 0.98003531
-0.35539776 0.16302601 0.97902054
-0.35260159 0.16296521 0.97865546
-0.35031161 0.16313921 0.97970039
-0.34806833 0.1633378 0.98089296
-0.34556922 0.16341847 0.98137748
-0.34290409 0.16342129 0.98139435
-0.34023282 0.16342118 0.98139375
-0.33795983 0.16361392 0.9825511
-0.3353714 0.16365579 0.98280263
-0.33291 0.16376081 0.98343331
-0.33013886 0.16371395 0.98315185
-0.32734874 0.16365682 0.98280877
-0.32442197 0.16352989 0.98204648
-0.32178956 0.16355044 0.98216993
-0.31920519 0.16359594 0.98244321
-0.31691188 0.16379267 0.98362464
-0.31432518 0.16383982 0.98390776
-0.31178236 0.16391084 0.98433423
-0.3092058 0.16396521 0.98466074
-0.30743107 0.16444944 0.98756868
-0.30520642 0.16469941 0.98906982
-0.30234623 0.16460781 0.98851979
-0.29853046 0.16398966 0.98480761
-0.2954666 0.1637771 0.98353112
-0.29340416 0.16412079 0.98559511
-0.29162261 0.16462941 0.98864949
-0.28973868 0.16508918 0.99141049
-0.28721401 0.16518904 0.9920103
-0.28437239 0.1651068 0.99151641
-0.28188536 0.16523084 0.99226123
-0.27902773 0.16513795 0.99170339
-0.2762371 0.16508326 0.99137503
-0.27291799 0.16470855 0.98912477
-0.26950419 0.16426867 0.98648316
-0.26671171 0.16420247 0.98608553
-0.26435345 0.16440494 0.98730153
-0.26239157 0.16486064 0.9900381
-0.26047212 0.16535272 0.99299318
-0.25753778 0.16520409 0.99210066
-0.25344315 0.16430014 0.98667216
-0.24815714 0.16259621 0.97643954
-0.24358423 0.16132767 0.96882159
-0.23972344 0.16050819 0.96390033
-0.23652712 0.16012038 0.9615714
-0.2342447 0.1603495 0.96294737
-0.23258731 0.16101649 0.96695286
-0.23168932 0.16223051 0.97424334
-0.23397656 0.16572876 0.99525148
-0.23790079 0.17048207 1.0237964
-0.24975026 0.18109463 1.0875281
-0.2491187 0.1828032 1.0977886
-0.24529523 0.18218258 1.0940616
-0.24182136 0.18180957 1.0918216
-0.23996177 0.18265603 1.0969049
-0.23889787 0.18413714 1.1057993
-0.24108897 0.18819691 1.1301795
-0.24631737 0.19476324 1.1696123
-0.2480039 0.19866428 1.1930392
-0.24655926 0.2001273 1.2018251
-0.24371646 0.20047957 1.2039405
-0.24080405 0.20078337 1.205765
-0.23785646 0.20106585 1.2074614
-0.23475991 0.20122857 1.2084385
-0.2316933 0.20142192 1.2095996
-0.22855413 0.20155686 1.21041
-0.22513133 0.20144196 1.20972
-0.22154123 0.20117174 1.2080972
-0.21817835 0.20110281 1.2076833
-0.21497796 0.20118384 1.2081699
-0.21194707 0.20142846 1.209639
-0.20850013 0.20127919 1.2087425
-0.20510817 0.20117901 1.208141
-0.20159198 0.20095178 1.2067764
-0.1982429 0.20088634 1.2063833
-0.1949338 0.2008599 1.2062246
-0.19151837 0.2007211 1.205391
-0.18833415 0.20082401 1.206009
-0.18501689 0.20078619 1.2057819
-0.18188894 0.20095618 1.2068027
-0.17852201 0.20086351 1.2062463
-0.17542334 0.20107487 1.2075155
-0.17193502 0.20083913 1.2060999
-0.16861323 0.20079252 1.20582
-0.16515772 0.2005817 1.2045538
-0.16204226 0.20078366 1.2057667
-0.15873572 0.2007523 1.2055784
-0.15523593 0.20047008 1.2038835
-0.15182127 0.20028798 1.20279
-0.14863065 0.20039994 1.2034624
-0.14532831 0.20036292 1.20324
-0.14195602 0.20022552 1.2024149
-0.13835531 0.19975185 1.1995704
-0.13508736 0.19974732 1.1995432
-0.13183622 0.19976805 1.1996677
-0.12864226 0.19987866 1.2003319
-0.12528802 0.19973953 1.1994964
-0.12195724 0.19963135 1.1988467
-0.11864906 0.19955522 1.1983895
-0.11554699 0.19983126 1.2000473
-0.11234722 0.19994947 1.2007571
-0.10936558 0.2004746 1.2039107
-0.10640655 0.2010749 1.2075157
-0.10378749 0.20237637 1.2153314
-0.10106067 0.20354651 1.2223585
-0.097973622 0.20404607 1.2253585
-0.094515204 0.20378013 1.2237614
-0.090047352 0.20123889 1.2085005
-0.055688325 0.13426137 0.8062802
-0.052130729 0.13084011 0.78573453
-0.049170226 0.12868889 0.77281576
-0.046666354 0.12759389 0.76623994
-0.044392277 0.12705413 0.76299852
-0.042102691 0.12641482 0.75915933
-0.039854903 0.12584151 0.75571644
-0.037621431 0.12525347 0.75218505
-0.035485245 0.12494028 0.75030428
-0.033358678 0.12462478 0.74840957
-0.031329207 0.12465457 0.74858844
-0.029284135 0.12462211 0.74839354
-0.027253296 0.12464991 0.74856049
-0.025203198 0.12458698 0.74818259
-0.023207011 0.12480292 0.74947935
-0.021177759 0.12486553 0.74985534
-0.019089149 0.12455419 0.74798566
-0.01703205 0.12439866 0.74705166
-0.01502702 0.12463282 0.74845785
-0.013019715 0.1249186 0.75017405
-0.010990684 0.12506345 0.75104392
-0.0089573776 0.12521473 0.75195241
-0.0069247275 0.12546749 0.75347036
-0.004890494 0.12589222 0.75602096
-0.002837806 0.12611383 0.75735182
-0.00077888271 0.12649935 0.75966692
0.0012938428 0.12700267 0.76268953
0.0033977095 0.12805957 0.76903653
0.0055421796 0.12925766 0.77623147
0.0077522267 0.13090175 0.78610468
0.010137827 0.13415778 0.8056581
0.020721417 0.19141139 1.1494834
0.024364229 0.19553855 1.1742682
0.027613889 0.19591908 1.1765535
0.030848023 0.19612183 1.177771
0.034076866 0.19625591 1.1785762
0.037313554 0.19640824 1.179491
0.040510003 0.1963414 1.1790895
0.043681059 0.19617034 1.1780623
0.046824422 0.1959068 1.1764797
0.049996048 0.19578768 1.1757643
0.053164974 0.19567296 1.1750754
0.056390472 0.19576764 1.175644
0.059502874 0.19548063 1.1739204
0.062711097 0.19552162 1.1741666
0.065857165 0.19537422 1.1732814
0.069098771 0.1955108 1.1741016
0.072229072 0.19533427 1.1730415
0.075458445 0.1954293 1.1736121
0.078678094 0.19549242 1.1739912
0.081943788 0.19566058 1.175001
0.085001938 0.19533914 1.1730708
0.087986365 0.1948777 1.1702996
0.091025501 0.19456545 1.1684245
0.09416423 0.19447996 1.1679111
0.097344235 0.19448252 1.1679264
0.10052896 0.19449405 1.1679957
0.10377041 0.19461125 1.1686995
0.1069756 0.19465551 1.1689653
0.11002794 0.19442712 1.1675937
0.11306541 0.194186 1.1661458
0.11612576 0.19399627 1.1650064
0.11931448 0.1940254 1.1651813
0.12239117 0.19387554 1.1642814
0.12569308 0.19408099 1.1655152
0.12863551 0.19373494 1.163437
0.1317879 0.19371414 1.1633121
0.13469088 0.19333629 1.161043
0.13788192 0.19337979 1.1613042
0.14089921 0.19318311 1.1601231
0.14400408 0.19311251 1.1596991
0.14734344 0.19335264 1.1611412
0.15047663 0.19331782 1.1609321
0.15258184 0.19199091 1.1529636
0.15523885 0.19139786 1.1494021
0.15881538 0.19193952 1.152655
0.16322535 0.19344796 1.1617136
0.16675442 0.19387488 1.1642774
0.1694804 0.19336961 1.1612431
0.17042358 0.19088598 1.1463281
0.16870153 0.18556008 1.1143445
0.16607703 0.1794472 1.0776348
0.16593882 0.17618631 1.0580522
0.16575791 0.1729921 1.03887
0.16522509 0.16954394 1.0181627
0.16657415 0.16810873 1.0095439
0.16867898 0.1674705 1.0057111
0.17159526 0.16764538 1.0067613
0.17440169 0.16770914 1.0071442
0.17697777 0.16755286 1.0062057
0.17978303 0.16761501 1.0065789
0.18245596 0.16755375 1.006211
0.18531781 0.16766526 1.0068806
0.18817455 0.16776893 1.0075033
0.19173318 0.16848643 1.0118121
0.19612591 0.1699062 1.0203382
0.20020942 0.17102218 1.02704
0.20323473 0.17121594 1.0282036
0.20543344 0.17071754 1.0252105
0.20809066 0.17060839 1.0245551
0.21090451 0.17062886 1.024678
0.21285106 0.16995628 1.0206389
0.21432723 0.16893028 1.0144775
0.21683435 0.16873263 1.0132905
0.21968208 0.16880167 1.0137051
0.22216366 0.16859113 1.0124408
0.22394231 0.16785885 1.0080433
0.22673085 0.16789213 1.0082431
0.22984432 0.16816233 1.0098658
0.23274407 0.16827163 1.0105221
0.23498325 0.16790637 1.0083287
0.23694438 0.16735315 1.0050064
0.23878281 0.16672692 1.0012456
0.24080025 0.16623837 0.99831176
0.24392653 0.16651767 0.99998909
0.24656263 0.1664599 0.99964213
0.24877121 0.16611791 0.99758834
0.25100607 0.16580065 0.99568313
0.25274372 0.16516525 0.99186736
0.25431997 0.16443892 0.9875055
0.25373524 0.16234516 0.97493184
0.25119844 0.15905866 0.95519549
0.25114533 0.15739606 0.94521105
0.25033647 0.15529834 0.93261361
0.25355792 0.15571789 0.9351331
0.25549668 0.15534918 0.93291891
0.26018083 0.15664056 0.94067401
0.2626296 0.1565741 0.94027495
0.26253214 0.15500556 0.93085539
0.26336384 0.15401036 0.9248789
0.26428434 0.15308546 0.91932452
0.2673564 0.15341249 0.92128849
0.27012286 0.1535597 0.92217255
0.27371186 0.15416752 0.92582262
0.27589965 0.15398221 0.9247098
0.27981332 0.15475476 0.92934924
0.28060925 0.15380462 0.92364329
0.28400198 0.15428203 0.92651039
0.28874573 0.15547852 0.93369561
0.296312 0.15816069 0.94980288
0.30560404 0.16170967 0.97111553
0.30886438 0.16203348 0.97306013
0.30998975 0.16124128 0.96830273
0.30645034 0.1580565 0.94917715
0.30673936 0.15688303 0.94213015
0.30921903 0.15684016 0.94187266
0.31645042 0.15918829 0.95597392
0.32169235 0.16050552 0.96388423
0.32510275 0.160895 0.96622324
0.32707238 0.1605709 0.96427697
0.33107185 0.16124055 0.96829838
0.33512953 0.16192776 0.97242528
0.34039444 0.16318293 0.97996294
0.34449932 0.16386679 0.98406971
0.34652704 0.16355969 0.98222548
0.34757972 0.1628006 0.97766691
0.34834516 0.16191952 0.97237581
0.34899068 0.16099642 0.96683234
0.34926298 0.15991625 0.96034557
0.35087848 0.15946256 0.95762098
0.35393292 0.15966469 0.95883483
0.35777691 0.16021743 0.96215427
0.35993099 0.16001087 0.96091378
0.3619639 0.15975383 0.95937014
0.36332786 0.15920731 0.95608819
0.36410627 0.15841383 0.95132303
0.36615059 0.15817843 0.94990939
0.36856028 0.15810306 0.94945681
0.37150413 0.15825628 0.95037693
0.37452295 0.15843911 0.95147491
0.37793773 0.15878578 0.95355672
0.38011676 0.15861207 0.95251358
0.38297582 0.15872256 0.95317709
0.38602674 0.15891054 0.95430595
0.38986787 0.15941913 0.95736021
0.39293391 0.15960614 0.95848322
0.39455959 0.15920947 0.95610112
0.39655858 0.15896764 0.95464891
0.39763433 0.15836129 0.95100749
0.40031072 0.15839611 0.95121664
0.40256482 0.15826447 0.9504261
0.40546989 0.15838881 0.95117277
0.40654776 0.15780231 0.94765073
0.40559995 0.15644193 0.93948114
0.40116936 0.15376365 0.92339736
0.40354234 0.15371023 0.92307651
0.41184491 0.1559021 0.93623936
0.42489025 0.15985133 0.95995563
0.43194371 0.16151179 0.96992725
0.43042374 0.1599658 0.96064311
0.42968559 0.15872727 0.95320541
0.4302766 0.15799168 0.94878793
-0.84124517 0.20403622 1.2055942
-0.84215361 0.20505637 1.211622
-0.8490352 0.20754467 1.2263247
-0.85815114 0.21060096 1.2443835
-0.85134053 0.2097574 1.2393991
-0.80827135 0.19993803 1.1813791
-0.79227728 0.19676439 1.162627
-0.79643548 0.19859026 1.1734155
-0.7932418 0.19859026 1.1734155
-0.79612809 0.20011857 1.1824459
-0.79778749 0.20134962 1.1897198
-0.78871542 0.1998712 1.1809843
-0.7750262 0.19720587 1.1652355
-0.77249068 0.19736834 1.1661955
-0.77845329 0.19971234 1.1800456
-0.76322681 0.1966172 1.1617572
-0.77048701 0.19931325 1.1776875
-0.75649625 0.19651158 1.1611332
-0.75333601 0.19651158 1.1611332
-0.74708009 0.19570066 1.1563417
-0.71273625 0.18829058 1.1125575
-0.68706858 0.18228415 1.0770671
-0.6587432 0.1755181 1.0370884
-0.64235675 0.17188855 1.0156424
-0.63209641 0.169874 1.003739
-0.62667072 0.16914693 0.99944288
-0.6279363 0.17022742 1.0058273
-0.64745021 0.176286 1.0416257
-0.61489677 0.16815875 0.99360412
-0.54442245 0.15087646 0.89148778
-0.59457636 0.16551334 0.97797304
-0.58694965 0.16412503 0.96976984
-0.58990449 0.16569638 0.97905457
-0.59102076 0.16676322 0.98535824
-0.58539373 0.16592842 0.98042566
-0.5836162 0.16618212 0.98192465
-0.58252162 0.16663349 0.98459172
-0.58250278 0.16739818 0.98911005
-0.58844078 0.16988978 1.0038322
-0.6001671 0.17408358 1.0286123
-0.6094324 0.17759952 1.049387
-0.59741515 0.17491724 1.0335381
-0.63414162 0.18654875 1.1022656
-0.64696831 0.19122672 1.1299064
-0.65646386 0.19496007 1.1519657
-0.65774226 0.19627719 1.1597482
-0.65764421 0.19719426 1.165167
-0.65447301 0.19719426 1.165167
-0.6515972 0.19728372 1.1656955
-0.64956516 0.19763078 1.1677462
-0.64672136 0.19773304 1.1683505
-0.64553297 0.19834496 1.1719661
-0.64330983 0.19864343 1.1737297
-0.64021266 0.19867365 1.1739082
-0.633793 0.19766796 1.1679659
-0.62714678 0.19658111 1.161544
-0.59785336 0.18834844 1.1128994
-0.54592437 0.17286448 1.0214089
-0.57295781 0.18329123 1.0830177
-0.57484853 0.18484704 1.0922107
-0.59055609 0.19088504 1.1278875
-0.59909016 0.19465534 1.1501652
-0.59807956 0.19534774 1.1542563
-0.5964666 0.19584966 1.157222
-0.59432876 0.19618364 1.1591954
-0.59129733 0.19622464 1.1594378
-0.58777547 0.19610247 1.1587158
-0.58469683 0.19612765 1.1588646
-0.57691991 0.19456857 1.1496525
-0.55698407 0.18886951 1.1159782
-0.54635733 0.18628189 1.1006887
-0.55956119 0.19183566 1.1335044
-0.55714005 0.19206452 1.1348567
-0.55575258 0.19265428 1.1383414
-0.5530116 0.19277883 1.1390773
-0.54737145 0.19188844 1.1338162
-0.53987479 0.19033343 1.1246282
-0.53865242 0.19098531 1.12848
-0.54163933 0.19314566 1.1412449
-0.54155385 0.19422902 1.1476462
-0.53914189 0.19448574 1.149163
-0.5345962 0.19397123 1.1461229
-0.5310986 0.19383322 1.1453074
-0.52878702 0.19412896 1.1470549
-0.52618927 0.19432256 1.1481988
-0.5224672 0.19410077 1.1468884
-0.51904041 0.19398667 1.1462141
-0.5162763 0.19412036 1.1470041
-0.51383263 0.19437689 1.1485199
-0.51119888 0.19456422 1.1496267
-0.50797087 0.19452628 1.1494026
-0.50609881 0.19501036 1.1522629
-0.50505275 0.19582075 1.1570512
-0.50274479 0.19614895 1.1589905
-0.50014913 0.19636834 1.1602868
-0.49667889 0.19624494 1.1595577
-0.49546045 0.19701539 1.1641101
-0.49255744 0.19712159 1.1647376
-0.4921824 0.19824743 1.1713898
-0.49030286 0.19877797 1.1745247
-0.48896119 0.19953498 1.1789976
-0.48729396 0.20016827 1.1827395
-0.48704812 0.20139772 1.190004
-0.47527856 0.19784659 1.1690214
-0.40022326 0.16886386 0.99777037
-0.39159006 0.16635004 0.98291689
-0.38727933 0.16565049 0.97878343
-0.38343623 0.16514266 0.97578275
-0.38109174 0.16527766 0.9765805
-0.37871495 0.16540048 0.97730613
-0.37647027 0.16558312 0.97838539
-0.37375137 0.16555831 0.97823876
-0.37132898 0.16566543 0.9788717
-0.36793751 0.16533862 0.97694069
-0.36555082 0.16546187 0.97766888
-0.36287394 0.16545458 0.97762591
-0.36055681 0.16561244 0.97855866
-0.35716447 0.16527513 0.97656554
-0.35419446 0.16512963 0.9757058
-0.35121641 0.16497816 0.97481084
-0.34916246 0.16526178 0.97648662
