# .PCD v0.7 - Point Cloud Data file format
VERSION 0.7
FIELDS x y z rgba
SIZE 4 4 4 4
TYPE F F F U
COUNT 1 1 1 1
WIDTH 1081
HEIGHT 1
VIEWPOINT 0 0 0 1 0 0 0
POINTS 1081
DATA ascii
-0.91321534 -0.020228053 1.946488 4280493084
-0.90609771 -0.020187506 1.9425865 4280558877
-0.90011352 -0.020171886 1.9410834 4280493597
-0.89405233 -0.020154346 1.9393954 4281019941
-0.11311341 -0.018475244 1.7778202 4281414701
-0.10845704 -0.018506357 1.7808143 4281086250
-0.1040814 -0.018590527 1.7889137 4281020458
-0.099477649 -0.018640215 1.793695 4280823338
0.26399839 -0.01191162 1.1462214 4278190080
0.26902264 -0.01199655 1.1543939 4279112974
0.27005604 -0.01190361 1.1454506 4279310353
0.45021838 -0.014370336 1.3828167 4283389008
0.41171205 -0.011590942 1.1153635 4279968031
0.41017836 -0.011463242 1.1030753 4279902238
-1.356258 -0.018168436 2.368655 4279836696
-1.3355862 -0.017976966 2.3436928 4279836696
-1.333719 -0.018037984 2.3516479 4279836696
-0.95635486 -0.015109628 1.9698722 4281677358
-0.95577794 -0.015185647 1.9797828 4281545772
-0.95423102 -0.015247026 1.9877851 4281348647
-0.95254481 -0.015306869 1.9955868 4281217061
-0.95352268 -0.015410453 2.0090914 4281216548
-0.95473981 -0.015519122 2.0232587 4281150757
-0.95436561 -0.015603035 2.0341985 4280953635
0.35416326 -0.0084856087 1.1062857 4278915341
0.35940805 -0.0085386783 1.1132045 4278783755
0.36261284 -0.0085428003 1.1137419 4278849548
0.36333871 -0.0084889373 1.1067196 4279046927
-1.2053308 -0.010670834 2.1563151 4278586117
-0.97024322 -0.0098346258 1.9873378 4282072629
-0.97742856 -0.0099630002 2.0132792 4278190080
-0.98050076 -0.010050661 2.0309932 4281546285
-0.97906178 -0.010092811 2.0395107 4281546285
-0.98078239 -0.010168198 2.0547447 4281151014
-0.98243344 -0.010243725 2.0700068 4280953635
-0.98725957 -0.010353421 2.0921736 4278190080
-0.98918772 -0.010433821 2.1084206 4280690463
-0.9897334 -0.010500493 2.1218934 4280493084
-0.99046934 -0.010569979 2.1359346 4280427291
-0.99385309 -0.010668707 2.1558852 4280361498
-0.99631578 -0.010758662 2.174063 4280164632
-0.99829119 -0.010844399 2.1913884 4280033046
-0.074541494 -0.0060568266 1.2239368 4285365115
-0.070393853 -0.0059873848 1.2099043 4285365115
-1.2841388 -0.005269879 2.3664355 4279836183
-1.0370668 -0.0043209558 1.9403224 4279375632
-1.0036894 -0.0046038828 2.0673704 4280559390
-1.002645 -0.0046250205 2.0768623 4280690976
-1.0065955 -0.004669569 2.0968668 4280427804
-1.0108806 -0.0047161872 2.1178007 4280559390
-1.0110183 -0.0047438792 2.1302357 4280625183
-1.0124203 -0.0047778571 2.1454935 4280230425
-1.0134258 -0.0048103477 2.1600833 4280296218
-1.0138884 -0.004840625 2.1736794 4280230425
-0.59645349 -0.0053998679 2.4248071 4280229914
-0.60593575 -0.0055470909 2.4909174 4278190080
-0.6201365 -0.0057413303 2.5781405 4278190080
-0.61787432 -0.005785855 2.5981343 4280229912
-0.079094879 -0.002550211 1.1451706 4285694334
-0.075868338 -0.0025465288 1.143517 4285760127
-0.073770657 -0.0025820422 1.1594644 4278190080
-0.071411066 -0.0026111533 1.1725366 4285496955
-0.068230189 -0.0026115528 1.172716 4285496953
-0.064406894 -0.0025861959 1.1613295 4285233779
-0.061534144 -0.0025983595 1.1667916 4284444516
-1.3459493 0.0011630777 2.350651 4279705110
-1.2884498 0.0011349702 2.2938442 4278520324
-1.2723296 0.0011718753 2.3684316 4279639317
-0.99664527 0.00099893392 2.0189066 4278190080
-1.0194373 0.001027443 2.0765252 4278190080
-1.0228292 0.0010602514 2.142833 4280362781
-1.0235667 0.0010671006 2.1566756 4280165402
-1.0237265 0.001073423 2.1694534 4280296220
-0.59882778 0.0012045451 2.4344594 4280164121
-0.60615742 0.0012329308 2.4918287 4278190080
-0.61717063 0.0012695362 2.5658104 4278190080
-0.61945927 0.0012888273 2.6047988 4280164634
-0.6109125 0.0012857604 2.5986004 4280164634
-0.080559142 0.00051609596 1.0430615 4285956736
-0.07934469 0.00052688317 1.0648631 4278190080
-0.077659026 0.00053524051 1.0817538 4278190080
-0.075968638 0.00054422277 1.0999075 4278190080
-0.073201038 0.00054590846 1.1033144 4285825920
-0.070830502 0.0005508262 1.1132535 4285759357
-0.068527177 0.00055672956 1.1251845 4285693564
-0.065387428 0.0005560721 1.1238557 4285364851
-0.061975516 0.00055292191 1.117489 4284838505
-0.059450682 0.00055776915 1.1272856 4284575332
-1.0152655 0.0066151484 2.0566256 4278190080
-1.0281396 0.0068889391 2.141746 4280428574
-1.0306332 0.0069450238 2.1591825 4280362781
-0.5989908 0.0078325849 2.4351223 4280164121
-0.60364926 0.0079818172 2.481518 4278190080
-0.61346495 0.0082972767 2.5795932 4280164634
-0.27733302 0.0075559043 2.3491032 4278190080
-0.27289525 0.0076104486 2.3660607 4278190080
-0.26830217 0.0076631927 2.3824587 4280098069
-0.092417538 0.0030024271 0.93344367 4287534998
-0.089893684 0.0030029854 0.93361723 4287469205
-0.088167444 0.0030309965 0.94232577 4287403671
-0.085730426 0.003035519 0.94373178 4287338391
-0.08359047 0.0030511641 0.94859582 4287141012
-0.081724815 0.0030781375 0.95698178 4287141012
-0.080973499 0.0031502403 0.97939825 4278190080
-0.07967861 0.0032053844 0.99654233 4278190080
-0.078045674 0.0032503363 1.0105177 4278190080
-0.076469012 0.0033010014 1.0262693 4278190080
-0.074774198 0.0033502148 1.0415696 4278190080
-0.07271108 0.0033861548 1.0527432 4286417287
-0.070390061 0.0034125398 1.0609462 4286417287
-0.068010569 0.0034382266 1.0689322 4286219908
-0.065212063 0.00344408 1.0707519 4286088320
-0.062523559 0.0034565621 1.0746325 4285891193
-0.059741743 0.0034648573 1.0772115 4285628021
-0.057376955 0.0034994432 1.0879642 4285430641
-0.05623702 0.003616563 1.1243763 4278190080
-1.1115363 0.011527617 1.9412572 4278520837
-1.018121 0.01224705 2.0624101 4278190080
-1.0333985 0.012711149 2.1405647 4278190080
-0.59960276 0.014637027 2.4648836 4278190080
-0.61432803 0.015339748 2.5832222 4280164632
-0.6025852 0.015220727 2.563179 4280230425
-0.10134409 0.0054762228 0.92219901 4290363323
-0.087053344 0.0055250311 0.93041837 4288390566
-0.084564082 0.005527847 0.93089253 4288193700
-0.082296044 0.0055457447 0.9339065 4288193700
-0.080004424 0.0055631427 0.93683636 4288127652
-0.078577481 0.0056437915 0.9504177 4278190080
-0.076844908 0.0057072323 0.96110111 4278190080
-0.075136274 0.0057769851 0.97284752 4278190080
-0.59543651 0.021197421 2.4477565 4280098839
-0.60941565 0.021940561 2.5335701 4278190080
-0.61356729 0.022342844 2.5800233 4278190080
-0.60682684 0.022353219 2.5812213 4280033046
-0.055428967 0.007881566 0.91011798 4287667093
-0.053222928 0.0079219099 0.91477662 4287667093
-1.1268404 0.02239893 1.9679853 4278520324
-1.041559 0.024417898 2.1453731 4278190080
-0.59440809 0.027811404 2.4435289 4280098839
-0.60141087 0.028457452 2.5002911 4278190080
-0.61133534 0.029258117 2.5706382 4278190080
-0.60900801 0.029484171 2.5904994 4280164632
-0.60227746 0.029499846 2.5918765 4280033046
0.0064733159 0.010319125 0.90664536 4288060568
0.0089495387 0.010329041 0.90751654 4287863189
0.011465588 0.010370689 0.91117585 4287994775
0.013972471 0.01039071 0.9129349 4287797396
0.032234922 0.010678655 0.93823397 4287534994
0.034815453 0.010686921 0.93896013 4287337615
0.039974194 0.010699655 0.94007897 4287403408
0.042558596 0.010706138 0.94064862 4287667093
0.045128066 0.010708342 0.94084227 4287601300
0.047712076 0.010713575 0.94130206 4287535507
0.0501564 0.010688507 0.93909955 4287601300
0.052880295 0.010722559 0.94209135 4287667093
0.055239499 0.010682933 0.93860978 4287338128
0.057978909 0.010717088 0.94161069 4287207055
0.060615741 0.010730194 0.94276214 4287272848
0.063330591 0.010755484 0.9449842 4287338130
-1.6946237 0.03425112 2.4285767 4279178507
-1.6880138 0.03425112 2.4285767 4279112714
-1.1291038 0.027419968 1.9442136 4278520324
-1.184168 0.02902928 2.058322 4278454531
-0.59645182 0.034971774 2.4796746 4278190080
-0.61180931 0.036702827 2.6024151 4280098839
0.10673239 0.012975656 0.9200393 4289903546
0.10912548 0.012962472 0.91910446 4289903546
0.11193068 0.012997732 0.92160463 4289903546
0.1149089 0.013051101 0.92538869 4289903546
0.11778258 0.013090559 0.92818654 4290035132
0.12073589 0.013137026 0.93148124 4289903546
0.12364113 0.013176458 0.93427718 4290165948
0.1266041 0.013220329 0.93738782 4290034108
0.12940332 0.013245706 0.93918723 4289903292
0.13228771 0.013278649 0.94152302 4289903292
0.13536957 0.013329784 0.94514877 4289771706
0.13800423 0.013335798 0.94557518 4289969085
0.14097394 0.013373376 0.94823962 4289771706
0.1440521 0.013419706 0.95152467 4290099901
0.14712554 0.013463967 0.95466304 4289968315
0.15035386 0.01352062 0.95867997 4290165694
0.15343764 0.013562564 0.96165401 4289508534
0.15624546 0.013579117 0.96282774 4289771706
0.15934737 0.013620262 0.96574509 4289640120
0.16266678 0.013678361 0.96986461 4289705913
0.16570371 0.01371123 0.97219521 4289771706
0.16870688 0.013740316 0.97425753 4289640120
0.17169636 0.013767406 0.97617835 4289574327
0.17487508 0.013808611 0.97909999 4289836729
0.17846096 0.013880247 0.98417938 4289705143
0.18750191 0.013955044 0.98948282 4289705913
0.21353856 0.013556335 0.96121234 4290168264
0.21291026 0.013352857 0.94678473 4290497229
0.21452776 0.013293407 0.94256943 4290365643
0.21560551 0.013202313 0.93611044 4290234057
0.21774779 0.013177769 0.93437016 4290365643
0.21921667 0.013113512 0.92981392 4289970885
0.2221161 0.013135317 0.93136007 4289970885
-1.6997106 0.040983673 2.4358668 4279244046
-1.6930809 0.040983673 2.4358668 4279244559
-0.58837241 0.041155599 2.4460852 4278190080
-0.61088783 0.04371991 2.5984952 4280098841
-0.27935934 0.034280557 2.0374668 4278586117
-0.27737668 0.034726601 2.0639775 4278586117
0.29273006 0.01512746 0.89910144 4289311669
0.2965295 0.015196767 0.90322065 4289509048
0.34471256 0.015947383 0.94783354 4286942861
0.34900528 0.016026042 0.95250863 4286877068
0.35762867 0.016181622 0.96175557 4287073677
0.36192328 0.016256949 0.96623266 4286810505
-1.6853913 0.047212288 2.4153457 4279310352
-1.1450098 0.038538527 1.9716023 4278454531
-1.2299252 0.041788276 2.1378572 4278520323
-1.2690147 0.046174657 2.3622611 4279507472
-0.58844602 0.047819134 2.4463913 4278190080
-0.60143447 0.049433976 2.5290055 4279966742
-0.61057717 0.050766449 2.5971739 4278190080
-0.26108906 0.035800029 1.8315028 4278651910
0.34622762 0.017557388 0.89822292 4291152589
0.35228273 0.01773919 0.90752381 4278190080
-1.5927889 0.052680261 2.3656831 4279836950
-1.5820726 0.052538209 2.359304 4279771157
-1.5756513 0.052538209 2.359304 4279836950
-1.5280993 0.052012496 2.335696 4279836950
-1.4238888 0.052388415 2.3525772 4279967769
-1.1383324 0.043648627 1.9601045 4278454531
-1.3185457 0.05103717 2.2918975 4278190080
-1.3337884 0.05212032 2.340538 4279836183
-1.3341141 0.052383233 2.3523445 4279836183
-1.3182299 0.052009139 2.3355453 4279836183
-1.273862 0.052538805 2.3593307 4279770644
-1.0360552 0.047521841 2.1340368 4281020970
-0.59047931 0.054665755 2.4548445 4278190080
-0.60393429 0.056551293 2.5395172 4279835154
-0.61189693 0.057960235 2.6027877 4278190080
-0.60481632 0.057960562 2.6028025 4279835408
-0.25788167 0.040283829 1.8090034 4278190080
-1.5615925 0.057961073 2.3193486 4280165661
-1.5372865 0.058235984 2.3303494 4280363040
-1.5258687 0.058042925 2.322624 4280428320
-1.5098 0.057670604 2.3077254 4280428833
-1.4903728 0.057166357 2.2875476 4280165661
-1.4475549 0.055756919 2.231148 4280428833
-1.5191497 0.058761105 2.3513625 4278190080
-1.5097085 0.058642969 2.3466351 4280231454
-1.4739863 0.057498623 2.3008435 4280231454
-1.4838742 0.058131315 2.3261609 4280297247
-1.477543 0.058131315 2.3261609 4280165661
-1.4571663 0.05858478 2.3443067 4280559390
-1.4378569 0.058577947 2.3440332 4280296734
-1.4225123 0.058211092 2.3293533 4280033562
-1.4059299 0.057790078 2.3125062 4280296734
-1.4142127 0.058391947 2.3365903 4280165148
-1.4099916 0.058480639 2.3401394 4280296734
-1.4041445 0.058502391 2.3410099 4280165661
-1.172492 0.050218042 2.0095065 4278585347
-1.3210651 0.057384495 2.2962766 4279046153
-1.3235627 0.057766277 2.3115537 4279836183
-1.3242773 0.058352206 2.335 4279968023
-1.3268995 0.058749691 2.3509057 4279901976
-1.2956158 0.057642531 2.306602 4279967769
-1.3001411 0.058125515 2.3259289 4280098841
-1.3038937 0.058578506 2.3440557 4280033048
-1.2848786 0.058876552 2.3559821 4279836437
-1.2643656 0.058227178 2.3299971 4280033816
-1.2576489 0.058209818 2.3293023 4279901976
-1.0253646 0.052779794 2.1120164 4280757798
-1.0311021 0.05337435 2.135808 4278190080
-1.0330245 0.053777043 2.151922 4280626212
-0.5890494 0.061198585 2.4488997 4278190080
-0.60510814 0.065076031 2.6040583 4279900688
-1.4044908 0.064018473 2.3101392 4280691746
-1.4000838 0.064104572 2.3132463 4280691492
-1.3942728 0.064126879 2.3140512 4280757285
-1.1538833 0.054296978 1.9593341 4278190080
-1.1485505 0.054296978 1.9593341 4278651395
-1.1874356 0.056661408 2.0446558 4279046153
-1.3160945 0.063696228 2.2985108 4280231195
-1.2854517 0.063727789 2.2996497 4280427806
-1.2850121 0.064017706 2.3101115 4280427806
-1.2827778 0.064220622 2.3174338 4280362011
-1.2831283 0.064555585 2.3295212 4280296988
-1.2813828 0.064787902 2.3379045 4280165402
-1.2437664 0.063199826 2.2805979 4280165402
-1.0124869 0.057470854 2.0738652 4280823078
-1.015726 0.057977926 2.0921631 4280691492
-1.0228652 0.058714591 2.118746 4280429087
-1.0243047 0.05913059 2.1337576 4280363294
-1.0256608 0.059546478 2.1487651 4280626466
-1.02789 0.060018122 2.1657846 4280758052
-1.0068238 0.061614819 2.2234023 4280493599
-1.0005358 0.061600264 2.222877 4280296220
-0.99523544 0.0616467 2.2245526 4280362011
-0.990403 0.061722867 2.2273011 4280362011
-0.98416865 0.061712064 2.2269113 4280362011
-0.97791004 0.061699595 2.2264614 4280362011
-0.97434533 0.061857998 2.2321775 4280362011
-0.97422069 0.062238161 2.2458959 4280164632
-0.97133398 0.062445559 2.2533798 4280230425
-0.60245222 0.065691367 2.3705065 4279835154
-0.59203517 0.065254323 2.3547356 4279769363
-0.58116865 0.06475763 2.336812 4279769104
-0.57539517 0.064823724 2.3391972 4279703309
-0.57406396 0.065397352 2.3598969 4279900688
-0.5944863 0.070076026 2.5287292 4279834893
-0.60138971 0.071720093 2.5880563 4279965965
-0.26340598 0.051204924 1.8477558 4278190080
-1.1332264 0.059385598 1.9513124 4281283113
-1.1111031 0.059338618 1.9497687 4278190080
-1.0008636 0.062390763 2.0500572 4281678641
-1.0022863 0.062829718 2.0644805 4281415215
-1.00362 0.063268006 2.078882 4281415982
-1.0074005 0.063866392 2.0985439 4281350189
-1.0112813 0.064477988 2.1186399 4281284396
-1.0125551 0.064929441 2.1334739 4281087017
-1.0150939 0.065467678 2.1511595 4281152810
-1.0110323 0.065583996 2.1549816 4281021224
-1.0071069 0.065710574 2.1591406 4280889638
-1.0074606 0.066119462 2.172576 4281152810
-1.0030677 0.066219822 2.1758738 4280954918
-0.99437183 0.066035621 2.169821 4280823332
-0.98727304 0.065955907 2.167202 4281085734
-0.97877145 0.06578096 2.1614535 4280756769
-0.97329265 0.065808281 2.1623511 4280888355
-0.96814436 0.065858416 2.1639986 4280953635
-0.96591324 0.066108823 2.1722264 4280822049
-0.95883757 0.066028699 2.1695938 4280953889
-0.95594186 0.066237219 2.1764452 4280756510
-0.95609063 0.066660598 2.190357 4280822303
-0.95558786 0.067043588 2.2029412 4280559388
-0.95505321 0.067429155 2.2156103 4280690974
-0.94895601 0.067424402 2.2154541 4280625183
-0.94388682 0.067493089 2.2177112 4280690976
-0.94039476 0.067676164 2.2237267 4280427804
-0.94091868 0.068152495 2.2393782 4280493597
-0.9393813 0.068484761 2.2502959 4280427804
-0.85344893 0.070492849 2.3162782 4280624924
-0.8477869 0.070546284 2.3180342 4280690717
-0.84408611 0.070764951 2.3252192 4280624411
-0.83916873 0.070884153 2.3291359 4280690463
-0.83168375 0.07078664 2.3259318 4280690463
-0.82304323 0.070588522 2.319422 4280953635
-0.81963539 0.070839591 2.3276718 4280756256
-0.64768296 0.072150774 2.370755 4280098326
-0.64052695 0.072071612 2.3681538 4280032533
-0.58583051 0.069409452 2.2806797 4279900688
-0.57963699 0.069411106 2.2807341 4280032274
-0.57239956 0.069286443 2.2766378 4279900688
-0.56543344 0.069192246 2.2735426 4279900688
-0.56245315 0.069589108 2.2865829 4279966481
-0.56510299 0.070699237 2.3230598 4279900688
-0.56997705 0.072115898 2.3696089 4278190080
-0.58147162 0.074412227 2.4450626 4278190080
-0.59563375 0.078010187 2.5632856 4280163090
-0.12021874 0.027787361 0.91304666 4280360469
-0.96973056 0.064772837 1.9536144 4284704088
-0.96587437 0.064870961 1.9565738 4284309589
-0.96439707 0.065130837 1.9644119 4284310359
-0.95986074 0.06518586 1.9660715 4284178773
-0.96377379 0.065818533 1.9851534 4284047187
-0.92999345 0.074348554 2.2424276 4281085732
-0.86351115 0.076571308 2.309468 4280756510
-0.85232794 0.07613384 2.2962737 4281085473
-0.84214681 0.075780086 2.285604 4280953887
-0.68574512 0.078528516 2.3684995 4280493086
-0.67337573 0.078589596 2.3703418 4280558366
-0.57621241 0.071351245 2.1520257 4280032274
-0.57251674 0.072364792 2.1825953 4280032274
-0.57213557 0.073074833 2.204011 4280032272
-0.57046753 0.07363382 2.2208705 4279966481
-0.56883621 0.074209571 2.2382357 4279900688
-0.56450778 0.074442111 2.2452493 4279900688
-0.56027079 0.074691936 2.2527843 4279966481
-0.5596559 0.075435504 2.2752111 4279966481
-0.56123894 0.076495282 2.3071752 4279900688
-0.56656408 0.078094855 2.3554199 4278190080
-0.59161782 0.084413722 2.5460033 4280097297
-0.58385509 0.084293433 2.5423751 4280097297
-0.77152967 0.069479257 1.9365904 4284309843
-0.76688564 0.06953609 1.9381746 4284440916
-0.7615785 0.069533169 1.9380932 4284309330
-0.74844992 0.069294423 1.9314387 4284572502
-0.74451029 0.069417238 1.9348619 4284375125
-0.74154562 0.069633357 1.9408857 4284309332
-0.58493233 0.073871434 2.0590134 4280098069
-0.5785712 0.073774897 2.0563226 4280098069
-0.57534486 0.074080102 2.0648296 4280098067
-0.57524097 0.07479734 2.084821 4280163860
-0.57352072 0.075316593 2.0992942 4280098067
-0.56672645 0.07593739 2.1165977 4280098067
-0.56383395 0.07632567 2.1274202 4279966481
-0.56554675 0.077351883 2.1560237 4279966481
-0.56610632 0.078240238 2.1807847 4278190080
-0.56727302 0.079232216 2.2084341 4280032274
-0.56628573 0.079941362 2.2282 4280032274
-0.56189859 0.081058189 2.2593293 4280097297
-0.56226653 0.082008757 2.2858243 4278190080
-0.56302452 0.083038107 2.3145154 4279966481
-0.56687188 0.08455155 2.3566995 4278190080
-0.56983984 0.085966967 2.3961513 4279966481
-0.58363408 0.08906734 2.4825678 4278190080
-0.58384472 0.090143085 2.512552 4280097297
-0.57590234 0.089970626 2.507745 4280163090
-0.2608625 0.065651998 1.8299135 4278190080
-0.26714173 0.068540916 1.9104363 4278190080
-0.57771969 0.076302402 1.9768066 4280361498
-0.57650191 0.076857336 1.9911836 4280295448
-0.57667142 0.077609517 2.0106707 4280229655
-0.56683439 0.083409443 2.1609325 4280032274
-0.56745172 0.084375761 2.1859674 4278190080
-0.56530321 0.088706627 2.2981694 4278190080
-0.56573695 0.089767948 2.3256657 4280098067
-0.56821746 0.091181748 2.3622937 4278190080
-0.57062805 0.092616551 2.3994658 4280032274
-0.58150804 0.095475122 2.4735243 4278190080
-0.58554816 0.097264498 2.5198827 4278190080
-0.3328605 0.057304531 1.4846188 4279900947
-0.25370026 0.070030272 1.8143111 4278190080
-0.25011811 0.070411973 1.8242002 4278585349
-0.5690726 0.079717703 1.9292514 4278190080
-0.57160985 0.080818854 1.9559004 4280361498
-0.57135129 0.081541702 1.973394 4280295448
-0.56884819 0.089608118 2.1686099 4278190080
-0.56821543 0.090446912 2.1889095 4280163090
-0.56690753 0.096296601 2.330478 4280032274
-0.56794393 0.09756425 2.3611565 4278190080
-0.56888902 0.098845057 2.3921533 4279966481
-0.57231814 0.10059211 2.4344339 4278190080
-0.58423066 0.10388862 2.5142128 4280032274
-0.58181578 0.10468537 2.5334949 4280098067
-0.56934869 0.085801497 1.9481633 4280295705
-0.57045931 0.095780969 2.1747518 4278190080
-0.56504273 0.10345944 2.3490951 4278190080
-0.56568146 0.10476179 2.3786657 4279966994
-0.57111001 0.10699162 2.4292948 4278190080
-0.58075196 0.11007227 2.4992425 4280098069
-0.5787012 0.11098351 2.5199325 4280032276
-0.56972593 0.091164209 1.9494541 4280295705
-0.56419694 0.10968858 2.3455789 4279966740
-0.56444162 0.11099204 2.3734522 4278190080
-0.56832188 0.11304886 2.4174352 4279966740
-0.57900751 0.11652344 2.4917355 4278190080
-0.57897264 0.11789732 2.5211146 4278190080
-0.33183497 0.070063286 1.4982322 4279966742
-0.56421745 0.11740526 2.3725095 4278190080
-0.56585234 0.11910862 2.4069307 4280098069
-0.57381934 0.12220036 2.4694083 4278190080
-0.58072966 0.12513769 2.5287654 4278190080
-0.56445068 0.12391375 2.3734901 4278190080
-0.5664022 0.1257817 2.4092696 4280098067
-0.56850547 0.12772751 2.4465404 4278190080
-0.58007622 0.13187173 2.5259202 4278190080
-0.56235796 0.12989037 2.3646905 4278190080
-0.56395185 0.13176653 2.3988466 4280163860
-0.56711954 0.13405868 2.4405761 4278190080
-0.57364142 0.13720745 2.4979 4280032274
-0.57474041 0.1391191 2.5327022 4278190080
-0.56117809 0.13604034 2.3597291 4280163860
-0.56205738 0.13783094 2.3907883 4280032274
-0.56427032 0.13999435 2.4283144 4278190080
-0.57269597 0.14376867 2.493783 4280098067
-0.57130939 0.14514074 2.5175827 4280163860
-0.54128414 0.13918217 2.4142263 4280098067
-0.31875154 0.084001064 1.4570659 4279571984
-0.5605126 0.14229392 2.3569307 4280098067
-0.56135386 0.14415734 2.3877959 4280163860
-0.56434041 0.14662175 2.428616 4278190080
-0.56880856 0.14953409 2.4768555 4280098069
-0.57416672 0.15275306 2.530174 4278190080
-0.55247349 0.148766 2.464133 4280163860
-0.56109279 0.14886275 2.3593705 4278190080
-0.56245172 0.15095086 2.3924656 4280032276
-0.5645327 0.15328397 2.4294436 4278190080
-0.56778938 0.15599537 2.4724176 4280229655
-0.57662362 0.16032259 2.5410008 4278190080
-0.55907804 0.15733126 2.4935904 4280032276
-0.22492218 0.11490696 1.8211949 4278387970
-0.56394219 0.15430686 2.3445196 4280032276
-0.56414539 0.15612911 2.3722064 4278190080
-0.56618065 0.15850642 2.4083271 4280098067
-0.56640238 0.16042578 2.4374897 4278190080
-0.57454836 0.16466166 2.5018492 4280164119
-0.57359892 0.16636121 2.5276718 4278190080
-0.22524428 0.12003539 1.8238029 4278585349
-0.097597383 0.054408919 0.82668245 4280623643
-0.56804687 0.16185756 2.3615844 4278190080
-0.57276767 0.1650705 2.4084628 4280032274
-0.57442421 0.16746448 2.4433923 4278190080
-0.57289642 0.16897534 2.4654365 4280098067
-0.55912626 0.16686834 2.4346943 4280163860
-0.22538869 0.12507939 1.8249722 4278585349
-0.57054424 0.16902497 2.3719668 4278190080
-0.57677919 0.17282768 2.4253311 4280360469
-0.58109754 0.17613749 2.4717784 4278190080
-0.5769124 0.17691712 2.4827192 4280229653
-0.5697118 0.17677955 2.4807887 4280229653
-0.22567567 0.13021204 1.8272959 4278585349
-0.56816119 0.17474784 2.3620596 4278190080
-0.57473844 0.17879388 2.4167497 4280163860
-0.57957596 0.18238613 2.465306 4278190080
-0.57824999 0.18410023 2.4884753 4280229653
-0.57090861 0.18391711 2.4860001 4280229653
-0.45167133 0.14903772 2.0145369 4280624411
-0.45467675 0.15187305 2.0528619 4278190080
-0.22513659 0.1348625 1.8229309 4278453761
-0.56727409 0.17886987 2.3319848 4280229653
-0.56915599 0.18149394 2.3661954 4278190080
-0.57279241 0.18474393 2.4085667 4280098067
-0.57814354 0.18862864 2.459213 4278190080
-0.57551432 0.18997014 2.4767025 4280098580
-0.56482065 0.18864991 2.4594903 4280032787
-0.45520091 0.15572822 2.0302794 4280690204
-0.45500323 0.15757343 2.0543361 4280755997
-0.43533915 0.15263923 1.9900072 4280690463
-0.56707805 0.18515287 2.3311789 4280163860
-0.5689761 0.18787464 2.3654475 4278190080
-0.57191151 0.19100517 2.4048626 4280163860
-0.57650942 0.19476986 2.4522622 4278190080
-0.57009733 0.1948595 2.4533908 4280098326
-0.45612481 0.16158135 2.0344002 4280690204
-0.43549049 0.15616745 1.9662361 4280756256
-0.44080135 0.16003858 2.0149758 4278190080
-0.27895042 0.10520316 1.324567 4278980360
-0.26697075 0.11916607 1.5003679 4278915081
-0.11323284 0.076177686 0.95911992 4279769876
-0.56884539 0.19426808 2.3649042 4278190080
-0.57316983 0.19798517 2.4101539 4280164373
-0.57563704 0.20113939 2.4485514 4278190080
-0.56950432 0.20132729 2.4508388 4280032533
-0.44666195 0.16566238 2.0166752 4280756510
-0.43238395 0.16236201 1.9764985 4280690463
-0.27998292 0.11064089 1.3468764 4278782981
-0.24380898 0.11610878 1.4134393 4278914567
-0.24514882 0.11861849 1.4439909 4278190080
-0.24076712 0.11839643 1.4412878 4278914054
-0.23806851 0.11900838 1.4487373 4278848774
-0.2309794 0.11740921 1.4292699 4278848519
-0.21243307 0.11174589 1.360328 4278783495
-0.20300964 0.10868309 1.3230433 4278783495
-0.19816558 0.10800556 1.3147955 4278783495
-0.19891471 0.11247607 1.3692168 4278980360
-0.19366018 0.11159562 1.3584988 4278980360
-0.18786812 0.11036512 1.3435193 4278651909
-0.17055129 0.10425044 1.2690829 4278783495
-0.16697326 0.10417312 1.2681416 4278980360
-0.16347022 0.1041403 1.267742 4278914567
-0.14224078 0.094609804 1.1517235 4278914567
-1.3182986 0.16684578 1.9659445 4278190080
-0.56620705 0.19977379 2.3539355 4278190080
-0.57187003 0.20408109 2.4046884 4280229653
-0.57496446 0.20756085 2.4456904 4278190080
-0.57146978 0.20871563 2.4592972 4280229655
-0.44361675 0.16998433 2.0029261 4280821792
-0.13098973 0.090013027 1.0606239 4278848261
-0.56563252 0.20597133 2.351547 4278190080
-0.57030696 0.21005027 2.3981156 4280229653
-0.57780021 0.21527386 2.4577527 4278190080
-0.57770175 0.21775818 2.4861159 4280361239
-0.57005584 0.21742278 2.4822867 4280163860
-0.44768313 0.17704384 2.0212858 4280821790
-0.56735969 0.21302006 2.3587275 4278190080
-0.57443935 0.21814655 2.4154921 4280229653
-0.58114904 0.22324961 2.4719973 4278190080
-0.58113432 0.22585878 2.5008881 4280492055
-0.57294345 0.22531444 2.4948606 4280163860
-0.44930848 0.18320796 2.0286243 4280822303
-0.44073731 0.1819489 2.014683 4280690463
-0.28222564 0.12102806 1.3401189 4278586117
-1.2218436 0.17302749 1.8598477 4278585602
-0.56698358 0.21684077 2.3307905 4280361239
-0.57204503 0.22125201 2.3782063 4278190080
-0.57953495 0.22671424 2.436919 4280426262
-0.58299357 0.23070763 2.4798434 4278190080
-0.58214617 0.23307058 2.5052423 4280360469
-0.58451617 0.23679297 2.5452538 4278190080
-0.10930747 0.088169314 0.94771934 4280755481
-0.56896698 0.22396526 2.338944 4280230166
-0.57281613 0.22803178 2.381412 4278190080
-0.58003294 0.23354736 2.439013 4280426262
-0.58217841 0.23712502 2.4763758 4278190080
-0.57821321 0.23826846 2.488317 4280492055
-0.57138109 0.22139987 2.2482491 4278190080
-0.56842709 0.23011264 2.3367245 4280229653
-0.57354611 0.23481217 2.3844469 4278190080
-0.57863319 0.23960602 2.4331269 4280163860
-0.58408386 0.24466321 2.4844811 4278190080
-0.57574451 0.24399474 2.4776931 4280295446
-0.57211453 0.22781104 2.2511351 4278190080
-0.56788433 0.23624675 2.3344934 4280229653
-0.5743553 0.2416424 2.3878109 4278190080
-0.5819881 0.24765593 2.4472342 4278190080
-0.58033907 0.24981327 2.4685521 4280163860
-0.58147687 0.2532348 2.5023623 4280229653
-0.57073182 0.24381703 2.346199 4280229653
-0.57610554 0.24889749 2.3950872 4278190080
-0.58394909 0.25517353 2.4554801 4278190080
-0.58581865 0.25895414 2.4918602 4280229653
-0.58003622 0.25940123 2.4961624 4280229653
-0.57063472 0.24739218 2.319844 4280098067
-0.57238841 0.25092894 2.353009 4280229653
-0.57863152 0.25653616 2.4055889 4278190080
-0.58320129 0.26152131 2.4523356 4278190080
-0.58471555 0.2652359 2.4871681 4280229653
-0.57667673 0.2646533 2.481705 4280229653
-0.57215077 0.24887273 2.2756481 4278190080
-0.57242841 0.2517184 2.3016686 4278190080
-0.57269049 0.25462013 2.3282015 4280426262
-0.57566994 0.25880849 2.3664989 4280426262
-0.58210617 0.26466328 2.4200342 4278190080
-0.58968729 0.27117857 2.479609 4278190080
-0.58207053 0.27077484 2.4759171 4280295446
-0.29796013 0.1471253 1.3452877 4279046667
-1.2060117 0.20834972 1.8588519 4278651140
-0.57075042 0.2544421 2.2700784 4278190080
-0.57159936 0.25760925 2.2983351 4278190080
-0.57255238 0.26089391 2.3276401 4280295448
-0.57629776 0.26553869 2.3690798 4278190080
-0.58615446 0.27313635 2.4368644 4280295446
-0.5886451 0.27743617 2.4752266 4278190080
-0.58552051 0.27915841 2.490592 4280229653
-0.32270652 0.15939263 1.4220672 4279244046
-0.56527841 0.25812197 2.2483144 4280229655
-0.57019258 0.26321527 2.2926786 4280229655
-0.57193053 0.26693887 2.3251121 4278190080
-0.57632971 0.27200174 2.3692112 4278190080
-0.58821917 0.28075427 2.4454482 4280163860
-0.5855785 0.28269261 2.4623318 4280295446
-0.58097368 0.28371668 2.4712515 4280295446
-0.33443132 0.16718964 1.4562685 4279177739
-0.32950702 0.16670358 1.4520348 4279309325
-1.2097213 0.22006343 1.8724246 4278716933
-0.56534511 0.26427242 2.2485797 4280295194
-0.56982523 0.26928172 2.2912016 4280229655
-0.57075554 0.27270573 2.3203351 4278190080
-0.58116174 0.28078464 2.389075 4278190080
-0.58638781 0.28651527 2.4378345 4280295446
-0.58437151 0.28879789 2.4572563 4280426262
-0.32820997 0.16796929 1.429178 4279440398
-0.32997265 0.17089678 1.4540868 4279243532
-0.57105106 0.27611041 2.2961304 4278190080
-0.57503194 0.2811116 2.3377204 4280229655
-0.59155178 0.29573196 2.4593031 4280361239
-0.58524209 0.29592606 2.4609172 4280426262
-0.5657717 0.27672103 2.2502763 4280229655
-0.57466865 0.28414854 2.3106763 4278190080
-0.58563161 0.29277331 2.3808122 4280295448
-0.59432429 0.30044335 2.4431844 4278190080
-0.59416264 0.30376026 2.4701574 4278190080
-0.59089202 0.30554551 2.4846749 4280492055
-0.29881164 0.18399362 1.4962233 4278190080
-0.56607181 0.2829957 2.2514701 4280229655
-0.56567806 0.28589371 2.2745261 4280361241
-0.5888055 0.30087501 2.3937151 4278190080
-0.59541756 0.30765793 2.4476788 4280295448
-0.59448081 0.3106496 2.4714801 4280295446
-0.56610882 0.28914246 2.2516172 4280295448
-0.56744206 0.29299515 2.2816191 4280295448
-0.58850551 0.30723342 2.3924956 4278190080
-0.59623325 0.3147504 2.4510319 4280229653
-0.58972144 0.3148354 2.4516938 4280295446
-0.3081027 0.31345126 2.4409153 4278190080
-0.56740957 0.29594919 2.2567909 4280229655
-0.56987792 0.30048949 2.2914133 4280295448
-0.59401339 0.32022473 2.4419065 4280163862
-0.59129357 0.32236531 2.4582298 4280295448
-0.30288452 0.17503114 1.3347179 4278849288
-0.30426052 0.19710226 1.5030235 4278190080
-0.30708498 0.31903741 2.4328525 4278190080
-0.56941187 0.30315754 2.2647545 4280361241
-0.57650024 0.3102904 2.3180408 4278190080
-0.60627174 0.32992494 2.4647219 4278190080
-0.60303384 0.33183461 2.4789882 4280295448
-0.60359555 0.33590198 2.5093737 4280295448
-0.30767518 0.20345102 1.5198917 4278190080
-0.25165936 0.25066593 1.8726133 4278716676
-0.31058967 0.32242334 2.4086807 4278190080
-0.30658183 0.32512537 2.4288664 4278190080
-0.57409555 0.3118659 2.2833834 4280295448
-0.58134538 0.31926027 2.3375227 4278190080
-0.59385592 0.32973933 2.414247 4278190080
-0.60619915 0.34035891 2.4920003 4278190080
-0.30766371 0.20482609 1.4996718 4278190080
-0.31663936 0.32845417 2.4048374 4278190080
-0.31220019 0.33068496 2.4211707 4278716676
-0.30825129 0.33354247 2.4420924 4278782468
-0.57134163 0.31316471 2.2480938 4278190080
-0.57503319 0.31860012 2.2871127 4280164119
-0.59872139 0.33906561 2.434027 4280229912
-0.31120679 0.21131358 1.5169421 4278190080
-0.32168785 0.33344793 2.3936996 4278519043
-0.31728601 0.33568358 2.4097486 4278584836
-0.31269297 0.33780706 2.4249923 4278453504
-0.3091315 0.3411606 2.4490659 4279835156
-0.10762485 0.136426 0.97935188 4280755997
-0.57524091 0.32146242 2.2634366 4278190080
-0.6034736 0.34843418 2.4533465 4280295705
-0.31089258 0.2124068 1.4955693 4278190080
-0.31563964 0.21851103 1.5385495 4278190080
-0.29222241 0.27536288 1.9388468 4278190080
-0.32182965 0.34011275 2.3947546 4278519043
-0.31706253 0.34200117 2.4080513 4278584836
-0.31196362 0.34360388 2.4193361 4278650882
-0.30734479 0.34581587 2.4349108 4280756258
-0.10540342 0.13622059 0.95913756 4280822051
-0.57653534 0.32488084 2.244493 4278190080
-0.57910258 0.32982221 2.2786312 4280230166
-0.60779774 0.35765603 2.4709258 4280295705
-0.60114622 0.35769984 2.4712284 4280229912
-0.31502295 0.21935332 1.5154387 4278190080
-0.31934461 0.22531256 1.556609 4278190080
-0.29982862 0.26854676 1.8552997 4278717188
-0.29385063 0.267701 1.8494567 4278651140
-0.28987312 0.26867995 1.8562199 4278651144
-0.28637937 0.27015001 1.8663759 4278585349
-0.28968617 0.27820414 1.9220194 4278190080
-0.26794645 0.27206507 1.8796065 4278519556
-0.10076007 0.13271515 0.9168846 4278651395
-0.57949841 0.32920262 2.2323744 4280295448
-0.58054978 0.33329439 2.2601213 4278190080
-0.58547968 0.3397243 2.3037236 4280295446
-0.60661685 0.36367324 2.466125 4280361239
-0.60016328 0.36382994 2.4671876 4280163860
-0.31452069 0.22023804 1.4934686 4278190080
-0.319709 0.22680221 1.5379813 4278190080
-0.32301205 0.23218541 1.5744855 4278190080
-0.41334054 0.35337165 2.3962684 4280493086
-0.40875608 0.35505462 2.4076807 4281084964
-0.30567575 0.27893192 1.8914809 4278651395
-0.30101261 0.27938202 1.894533 4278651140
-0.29263532 0.27634045 1.8739078 4278716937
-0.28947464 0.2782045 1.8865483 4278585349
-0.23618898 0.27593899 1.8711854 4278651140
-0.58080703 0.33603564 2.2374156 4280163860
-0.58301574 0.34088764 2.2697215 4278190080
-0.59164155 0.34963581 2.3279691 4278190080
-0.60196388 0.35958681 2.3942256 4280295446
-0.60523212 0.36549568 2.4335685 4278190080
-0.603854 0.3728236 2.4823596 4280295446
-0.31937602 0.22776546 1.5165236 4278190080
-0.32406023 0.23413192 1.5589132 4278190080
-0.32633805 0.23890561 1.5906978 4278190080
-0.41116697 0.36374041 2.4218814 4280952606
-0.30685475 0.28517574 1.8987767 4278716675
-0.29872039 0.28237164 1.8801062 4278585347
-0.29327622 0.28205708 1.8780118 4278651144
-0.22859973 0.27799597 1.8509719 4278190080
-0.22849564 0.28413102 1.8918207 4278585349
-0.2273735 0.28925377 1.9259294 4278190080
-0.22597025 0.29425231 1.9592109 4278190080
-0.58248103 0.33955121 2.220582 4280295448
-0.58379263 0.34388393 2.2489169 4280163860
-0.5883038 0.35021311 2.2903082 4278190080
-0.59871846 0.36022985 2.3558152 4278190080
-0.60469162 0.36776218 2.4050748 4280295446
-0.60202503 0.37014732 2.4206731 4280361239
-0.5510776 0.34640488 2.2654033 4280361239
-0.31822315 0.22810791 1.49177 4278190080
-0.3250514 0.23601379 1.5434725 4278190080
-0.3289901 0.24200118 1.5826286 4278190080
-0.41187885 0.37097329 2.4260747 4280952606
-0.29975438 0.28362533 1.8548404 4278716675
-0.22735365 0.28149101 1.8408824 4278585349
-0.2267416 0.28705937 1.8772981 4278190080
-0.22576937 0.29241794 1.912342 4278190080
-0.22181229 0.29407221 1.9231604 4278585349
-0.58433044 0.34669229 2.2276325 4280295448
-0.58859211 0.3528823 2.2674057 4278190080
-0.59692574 0.36167064 2.3238742 4280163860
-0.60430777 0.37006447 2.3778079 4278190080
-0.60505313 0.37453189 2.4065127 4280230166
-0.59800535 0.37422028 2.4045105 4280295444
-0.31743947 0.22867864 1.469349 4278190080
-0.32454082 0.23677731 1.521386 4278190080
-0.33090028 0.24453703 1.5712453 4278190080
-0.33308768 0.24937643 1.6023403 4278190080
-0.33449665 0.25716543 1.6523876 4278190080
-0.41063809 0.37643895 2.4187663 4280821790
-0.22649674 0.28542152 1.8339441 4278651142
-0.22555418 0.29063877 1.8674669 4278190080
-0.22387528 0.2951259 1.8962984 4278190080
-0.21773346 0.29380265 1.887796 4278585349
-0.58464378 0.34931991 2.2059383 4278190080
-0.58851981 0.35528436 2.2436035 4280295446
-0.59538579 0.36319783 2.2935767 4278190080
-0.60279596 0.37161446 2.3467274 4278190080
-0.60846782 0.37912825 2.3941765 4280098580
-0.60536647 0.38127908 2.407759 4280295959
-0.59664679 0.37989965 2.3990479 4280361752
-0.3230418 0.23678422 1.4952809 4278190080
-0.33119673 0.245859 1.5525876 4278190080
-0.3354342 0.25222272 1.5927742 4278190080
-0.33691964 0.25665662 1.6207741 4278190080
-0.22497393 0.28846046 1.8216139 4278190080
-0.22490774 0.29487395 1.8621148 4278190080
-0.22315738 0.29932413 1.8902174 4278454533
-0.21909638 0.30081195 1.8996128 4278454533
-0.58469594 0.35535553 2.206135 4278190080
-0.59105361 0.36294672 2.253263 4280295959
-0.59984088 0.37220469 2.3107388 4278190080
-0.60752589 0.38096762 2.3651412 4278190080
-0.6098696 0.38653296 2.3996923 4280295446
-0.60615486 0.3883374 2.4108946 4280295446
-0.32146373 0.23669544 1.4694638 4278190080
-0.32816595 0.2446744 1.5189992 4278190080
-0.22206652 0.29615298 1.838591 4278190080
-0.22203927 0.30294326 1.8807467 4278190080
-0.21726604 0.30342597 1.8837434 4278651142
-0.5848037 0.36142662 2.2065418 4278190080
-0.59305787 0.37033102 2.2609038 4280164373
-0.60605079 0.38241228 2.334661 4278190080
-0.61420786 0.39166582 2.3911548 4278190080
-0.61340016 0.39533973 2.4135842 4280229653
-0.6058498 0.39470044 2.4096813 4280295959
-0.31712693 0.21842512 1.3335048 4278783495
-0.32368913 0.24236116 1.4796364 4278190080
-0.21874402 0.29665127 1.8110825 4278190080
-0.21905996 0.30392855 1.855511 4278190080
-0.21534929 0.3058309 1.8671248 4278651142
-0.58415431 0.36702421 2.2040915 4278190080
-0.60976893 0.39115167 2.3489842 4280229651
-0.61672616 0.39980638 2.4009585 4280361237
-0.61454284 0.40265751 2.4180803 4280229651
-0.2164169 0.29837215 1.7918152 4278190080
-0.21664405 0.30557117 1.8350475 4278190080
-0.21177752 0.30575591 1.8361568 4278585349
-0.58037454 0.36684221 2.1675704 4280295446
-0.58579582 0.37407133 2.2102852 4278190080
-0.61896956 0.40781924 2.4096923 4280361239
-0.61023951 0.40637317 2.4011478 4280295446
-0.21473099 0.3008866 1.7778567 4278585349
-0.21663006 0.31054556 1.8349289 4278190080
-0.21370795 0.31358603 1.8528941 4278651142
-0.58149821 0.37346339 2.171767 4280229653
-0.62330461 0.41290483 2.4011271 4280229653
-0.61609972 0.41245648 2.3985198 4280229653
-0.21304098 0.29663479 1.7249928 4278190080
-0.21388324 0.30451843 1.7708378 4278190080
-0.21764614 0.31701973 1.8435354 4278190080
-0.21348459 0.31829605 1.8509574 4278520326
-0.58074462 0.3750701 2.1471269 4278190080
-0.58543092 0.38194007 2.1864548 4280098326
-0.62761343 0.42233953 2.4177256 4280229653
-0.61565471 0.41868195 2.3967874 4280295446
-0.3238256 0.2299675 1.3164724 4278849288
-0.21211344 0.30677852 1.7561848 4278190080
-0.58038616 0.38067883 2.1458015 4278190080
-0.58597034 0.38824838 2.1884694 4280163862
-0.63270575 0.42791352 2.4120529 4280163862
-0.62651443 0.4281688 2.413492 4280295448
-0.6062783 0.41872945 2.3602843 4280295446
-0.35506251 0.25327694 1.4276655 4279178253
-0.20549011 0.30182981 1.7013472 4278190080
-0.58007324 0.38631073 2.1446447 4278190080
-0.58749628 0.39523131 2.1941683 4280295448
-0.63073522 0.43312526 2.4045405 4280230166
-0.6269505 0.43504027 2.4151719 4280361239
-0.33107612 0.29068941 1.6137929 4278651140
-0.20649013 0.30795181 1.7096269 4278190080
-0.5806129 0.39251265 2.1466398 4278190080
-0.6323173 0.44077259 2.4105721 4280229653
-0.60315496 0.42485246 2.3235054 4280230166
-0.54892349 0.44230178 2.4189351 4278190080
-0.52593815 0.44513649 2.434438 4278190080
-0.33022717 0.29047146 1.5885797 4278716933
-0.20452239 0.30962595 1.6933351 4278190080
-0.57868868 0.39307958 2.1182108 4280163862
-0.58392358 0.40062666 2.1588802 4278190080
-0.64817381 0.45384213 2.4456456 4280229653
-0.63685155 0.45054123 2.4278579 4280295446
-0.55027413 0.44998991 2.4248869 4278190080
-0.54345155 0.44980556 2.4238935 4278190080
-0.53752071 0.45036381 2.4269018 4278190080
-0.5327667 0.45193425 2.4353645 4278190080
-0.33011654 0.29088777 1.5675238 4278585602
-0.19992565 0.30717215 1.6552765 4278190080
-0.57946795 0.39938182 2.1210632 4280229655
-0.65140957 0.46279734 2.4578545 4280229653
-0.63382858 0.45497921 2.4163334 4280295444
-0.55344045 0.45921701 2.4388399 4278190080
-0.54523385 0.45789951 2.4318428 4278190080
-0.33423197 0.2913042 1.5470774 4278454530
-0.19692829 0.30023888 1.5945283 4278190080
-0.19578573 0.30522335 1.6210002 4278586117
-0.58115178 0.40633205 2.1272266 4280229653
-0.62642443 0.45616403 2.3881066 4280295446
-0.30592871 0.2544615 1.332155 4281085223
-0.55752242 0.46929079 2.4568276 4278190080
-0.19304773 0.29857689 1.5631075 4278190080
-0.57898885 0.41058791 2.1193094 4280295446
-0.63817859 0.46650475 2.4079323 4280295446
-0.61185646 0.45190418 2.3325694 4280163860
-0.31406391 0.26184696 1.3515613 4280953637
-0.57078111 0.48152176 2.4854448 4278190080
-0.56330669 0.48091584 2.4823172 4278190080
-0.1913476 0.30016422 1.5493414 4278190080
-0.5785929 0.41607136 2.1178601 4280295705
-0.64401627 0.47253305 2.4052579 4278190080
-0.63604128 0.47147417 2.399868 4280163862
-0.58376497 0.49354449 2.5122089 4278190080
-0.57215536 0.48946211 2.4914291 4278190080
-0.18669064 0.29697317 1.5116341 4278190080
-0.63228762 0.47518489 2.3857048 4280163862
-0.18339114 0.29576609 1.484918 4278190080
-0.58048075 0.42476329 2.1038113 4278190080
-0.64195925 0.48407483 2.3975756 4280229655
-0.63552535 0.48414463 2.3979213 4280295448
-0.58175206 0.43143207 2.1084187 4280229655
-0.6450125 0.49293369 2.4089787 4280098069
-0.59569019 0.51848537 2.5338502 4278190080
-0.5810532 0.43664542 2.105886 4280361498
-0.58794612 0.44622692 2.1520963 4278190080
-0.62686366 0.48543599 2.3411968 4280229655
-0.5458014 0.43595684 2.1025651 4280164119
-0.11052379 0.1986917 0.95826507 4278520072
-0.58158427 0.44278139 2.1078107 4280164373
-0.58781403 0.45198274 2.1516128 4278190080
-0.63560998 0.49867007 2.3738625 4280164373
-0.53684711 0.43443334 2.0680709 4280164119
-0.6041081 0.53362215 2.5402479 4278190080
-0.6296739 0.50041348 2.3516924 4280098580
-0.53333652 0.43718433 2.0545471 4280098326
-0.11299442 0.20846608 0.97968602 4278585349
-0.62477124 0.50286806 2.3333821 4280032533
-0.60948038 0.55231822 2.5628381 4278190080
-0.11021492 0.20593895 0.95558709 4278585349
-0.58535749 0.46758869 2.142621 4278190080
-0.62323737 0.50796872 2.3276534 4280098326
-0.61305034 0.50479704 2.3131201 4280163862
-0.55154389 0.46367478 2.1246865 4280098326
-0.58285534 0.47139663 2.1334622 4280032533
-0.62025839 0.517102 2.340317 4280163862
-0.55311942 0.47079864 2.1307559 4280098326
-0.57966733 0.47459319 2.121793 4280163862
-0.62933642 0.53113312 2.3745697 4280032533
-0.56262749 0.48479065 2.1673834 4280164119
-0.58079791 0.481305 2.1259313 4280229653
-0.62619293 0.5349108 2.3627088 4280098580
-0.62444097 0.53894889 2.3805451 4280032787
-0.58472222 0.49531689 2.1618328 4278190080
-0.62125748 0.54264742 2.3684089 4280098580
-0.58353382 0.50018221 2.1574392 4278190080
-0.58765906 0.50883842 2.1947763 4280098580
-0.61223918 0.54679632 2.3585002 4280032787
-0.60238177 0.54369307 2.3451149 4280032787
-0.58228236 0.50496882 2.1528122 4278190080
-0.58251715 0.51030749 2.1755724 4280098580
-0.5868755 0.51940531 2.2143588 4278190080
-0.59843373 0.53513026 2.2813983 4278190080
-0.60898554 0.5502755 2.3459663 4280098580
-0.60565138 0.55306149 2.3578436 4280164373
-0.59643573 0.55047882 2.3468332 4280098580
-0.11085781 0.22545226 0.96116114 4278519556
-0.58226562 0.51600587 2.174633 4280032787
-0.58403128 0.5228858 2.2036273 4278190080
-0.58975786 0.53349143 2.2483234 4279901201
-0.59698498 0.54569113 2.2997372 4278190080
-0.60261679 0.55667561 2.3460298 4278190080
-0.60073763 0.56088275 2.3637602 4279966994
-0.59542632 0.5619418 2.3682234 4280032787
-0.58417577 0.52901423 2.2041724 4278190080
-0.58577013 0.53596205 2.2331209 4280032787
-0.58699387 0.54271293 2.2612488 4278190080
-0.59145945 0.55263585 2.3025935 4279966994
-0.58568901 0.53639925 2.209882 4278190080
-0.58553648 0.54182374 2.2322302 4280032787
-0.58509666 0.54709339 2.2539403 4279966740
-0.58542162 0.55319738 2.2790878 4278190080
-0.58637273 0.56003016 2.3072376 4280032787
-0.17050935 0.32816437 1.3223318 4278782981
-0.58425164 0.49240249 1.9626019 4278190080
-0.4437696 0.60714573 2.4199417 4280230427
-0.39216563 0.61926293 2.4682381 4279638290
-0.36879161 0.60301274 2.4034686 4279440911
-0.36647102 0.61003906 2.431474 4279309325
-0.15993622 0.30475837 1.214696 4278717702
-0.13322608 0.26481009 1.0554714 4278782981
-0.58414716 0.49765512 1.9622509 4278190080
-0.44187653 0.61111397 2.4096184 4280229912
-0.42613813 0.59822661 2.3588037 4280229912
-0.40852106 0.5822674 2.2958765 4280164119
-0.40229672 0.58230269 2.2960157 4280164119
-0.39812422 0.58535588 2.3080544 4280098326
-0.39581111 0.59128463 2.3314314 4279966740
-0.39256585 0.59599137 2.3499901 4279769874
-0.38896874 0.60031104 2.3670225 4279901460
-0.3846584 0.60365689 2.3802152 4279835667
-0.37919444 0.60527593 2.3865991 4279704083
-0.37283856 0.6055029 2.3874941 4279704081
-0.31951284 0.60297215 2.3775153 4280098841
-0.31388444 0.60459495 2.383914 4280230427
-0.12492421 0.25653386 1.0115113 4279506704
-0.11856669 0.24896522 0.98166823 4279572497
-0.1139018 0.24468371 0.96478629 4279638290
-0.58379978 0.50269669 1.961084 4278190080
-0.41390148 0.58728409 2.2910702 4280163862
-0.40498346 0.5834198 2.2759953 4280229655
-0.40046981 0.58587903 2.285589 4280295448
-0.39774287 0.59107101 2.3058436 4279966483
-0.3956342 0.59736305 2.3303895 4279835154
-0.39210874 0.60168594 2.3472538 4279835154
-0.38821059 0.60557073 2.3624089 4279901460
-0.38342419 0.60817748 2.3725781 4279835667
-0.37813482 0.61006206 2.37993 4279769874
-0.3205719 0.61146313 2.3853958 4280164632
-0.31383729 0.61099148 2.3835559 4280296218
-0.30833793 0.61295563 2.3912182 4280296218
-0.11316886 0.25151661 0.98119843 4280427291
-0.58404475 0.50824738 1.9619069 4278190080
-0.39968833 0.58190525 2.2462368 4280229655
-0.39679873 0.58667207 2.2646372 4279966483
-0.39477143 0.59288424 2.2886171 4279966483
-0.39222902 0.59850967 2.3103321 4279835154
-0.38858613 0.60261172 2.3261666 4279900947
-0.38453367 0.60620403 2.3400335 4279835667
-0.38038951 0.6097703 2.3537998 4279835154
-0.37575561 0.61266035 2.3649557 4279703568
-0.32730463 0.61840963 2.3871489 4280295705
-0.3206023 0.6180141 2.385622 4280164119
-0.31347585 0.6167677 2.3808107 4280230425
-0.30770904 0.6182003 2.3863409 4280296218
-0.58445156 0.51394486 1.9632735 4278190080
-0.41155291 0.5789091 2.2114372 4280427291
-0.38266444 0.58073938 2.2184291 4279900947
-0.37856671 0.58373111 2.2298574 4280032533
-0.37424117 0.58646333 2.2402945 4280032533
-0.36792403 0.59598446 2.2766652 4280032533
-0.34738004 0.61444753 2.3471944 4280032533
-0.32425389 0.61908215 2.3648987 4280032787
-0.31744507 0.61835706 2.3621287 4279967251
-0.31070852 0.6177457 2.3597934 4279967251
-0.30579606 0.6208117 2.3715055 4279967251
-0.11226573 0.25480789 0.97336811 4280098326
-0.58599085 0.52065605 1.9684442 4278190080
-0.41733092 0.58459055 2.2101614 4280427291
-0.33161622 0.58196056 2.2002182 4280427032
-0.32611519 0.5828315 2.203511 4280690206
-0.31996915 0.58256078 2.2024875 4280558620
-0.30883405 0.58417606 2.2085946 4280427032
-0.2987594 0.58800954 2.2230875 4280493338
-0.29381055 0.59022278 2.2314553 4280427802
-0.58520383 0.52530706 1.9658004 4278190080
-0.28430742 0.58918852 2.2048571 4281019682
-0.58549839 0.53092456 1.96679 4278190080
-0.2837939 0.61304438 2.2483311 4278190080
-0.283472 0.61846143 2.2457809 4278190080
-0.42415354 0.62186658 2.2143755 4285032026
-0.56276149 0.70152366 2.4505236 4283913032
-0.41673109 0.65583175 2.2069848 4280557589
-0.42821479 0.68007654 2.2678018 4280031245
-0.40981364 0.66037112 2.2020915 4279833866
-0.40312999 0.65924245 2.1983278 4279833866
-0.28347018 0.6592533 2.198364 4281215780
-0.40239069 0.68431896 2.2614241 4279834127
-0.38543811 0.66567087 2.1997991 4279702541
-0.32677343 0.66814005 2.2079587 4278519296
-0.32008243 0.66672033 2.2032671 4278519297
-0.31444979 0.6674931 2.2058208 4278650882
-0.30901808 0.66873068 2.2099106 4278585089
-0.30279869 0.66827905 2.2084181 4278650369
-0.29575405 0.66595095 2.2007246 4278848002
-0.29301 0.67341036 2.2253752 4279176197
-0.29215127 0.68560904 2.2656875 4278190080
-0.41238979 0.70763159 2.3176186 4279767821
-0.39304468 0.68491316 2.2432117 4279045127
-0.33847505 0.68568069 2.2457254 4278584836
-0.33635336 0.69391334 2.2726889 4278190080
-0.33198717 0.69773722 2.2852128 4278782469
-0.31554314 0.70266986 2.301368 4278782468
-0.30976972 0.70378369 2.305016 4278913541
-0.30461293 0.70637345 2.313498 4278979334
-0.41086951 0.71130753 2.3090746 4279702541
-0.39193839 0.68907362 2.2368979 4278781955
-0.34081975 0.69658506 2.261282 4278190080
-0.34007707 0.70784962 2.2978494 4278584836
-0.33575696 0.71195048 2.3111618 4278584836
-0.33081701 0.71486861 2.3206346 4278716935
-0.32400128 0.71376795 2.3170617 4278782215
-0.3191109 0.71694928 2.327389 4278716676
-0.31284049 0.71709615 2.3278658 4278914055
-0.30632731 0.71668112 2.3265185 4278914054
-0.409143 0.71457678 2.2993717 4279505678
