# .PCD v0.7 - Point Cloud Data file format
VERSION 0.7
FIELDS x y z rgba
SIZE 4 4 4 4
TYPE F F F U
COUNT 1 1 1 1
WIDTH 789
HEIGHT 1
VIEWPOINT 0 0 0 1 0 0 0
POINTS 789
DATA ascii
0.154056 -0.023173343 0.9655295 4289508268
0.15328345 -0.020797174 0.97735947 4289705395
0.15534227 -0.020716988 0.97359103 4289508014
0.15796973 -0.020714052 0.9734531 4289179049
0.16086756 -0.020746082 0.97495836 4289442221
0.16392881 -0.020797808 0.97738916 4290692031
0.16702253 -0.020851932 0.97993279 4292731614
0.16940784 -0.020817306 0.97830552 4294179060
0.17186038 -0.020791885 0.97711086 4294705148
0.17449409 -0.02078882 0.97696686 4294639612
0.17714195 -0.020787511 0.97690529 4294639612
0.17946544 -0.020748738 0.97508317 4294639612
0.1819507 -0.020729525 0.97418022 4294574075
0.18454514 -0.020723125 0.97387946 4294705146
0.1871355 -0.020716453 0.97356594 4294574073
0.18944263 -0.020679051 0.97180825 4294508536
0.19175488 -0.020643231 0.97012484 4294376950
0.19456115 -0.020660844 0.97095263 4294376950
0.19691874 -0.020630978 0.96954906 4294245364
0.19915107 -0.020588951 0.967574 4294047985
0.20165324 -0.020575555 0.96694446 4294376950
0.20511149 -0.0206588 0.97085655 4294179570
0.14717402 -0.018040337 0.97214621 4289179051
0.14900185 -0.017941829 0.96683794 4291810258
0.15171804 -0.017951855 0.9673782 4294770687
0.15457772 -0.017978229 0.96879935 4294573564
0.15732792 -0.017991196 0.96949816 4294639357
0.16016299 -0.01801328 0.97068822 4294639357
0.16313246 -0.01804952 0.97264111 4294639357
0.16624279 -0.018099938 0.97535801 4294770687
0.16888511 -0.018098617 0.97528684 4294574077
0.17129625 -0.018072946 0.97390348 4294639614
0.17374256 -0.018051712 0.97275919 4294639612
0.17623208 -0.018035537 0.97188759 4294574075
0.17870893 -0.018018562 0.97097284 4294574075
0.18142085 -0.018025439 0.9713434 4294508282
0.18404138 -0.018023167 0.97122097 4294442743
0.18672171 -0.018026734 0.9714132 4294246134
0.18871433 -0.017964734 0.96807218 4294114547
0.19130853 -0.017960919 0.96786666 4293982961
0.19369121 -0.017937621 0.96661115 4293851375
0.19621173 -0.01792754 0.96606797 4293719789
0.19858691 -0.017904624 0.96483308 4293456617
0.20108663 -0.017893387 0.9642275 4293390824
0.2040472 -0.017922919 0.96581894 4293193445
0.20668776 -0.017923949 0.96587443 4292996066
0.20985776 -0.01797029 0.96837157 4292864480
0.13884194 -0.015350829 0.96939284 4287666582
0.14137712 -0.015339627 0.96868545 4290100923
0.14349252 -0.015284124 0.96518046 4293849841
0.1460339 -0.015275173 0.96461523 4294705150
0.14883155 -0.015292872 0.96573287 4294705150
0.15174448 -0.015321596 0.96754676 4294639357
0.15460454 -0.015344092 0.96896738 4294705150
0.15726432 -0.01534629 0.9691062 4294770687
0.16008656 -0.015364007 0.97022504 4294705150
0.16296169 -0.015386144 0.97162294 4294705150
0.1660431 -0.015426738 0.97418642 4294639614
0.16862218 -0.015420118 0.97376841 4294639615
0.17100596 -0.015396122 0.97225302 4294639614
0.17350173 -0.015382784 0.97141081 4294639612
0.17614676 -0.015382883 0.97141701 4294705147
0.17856845 -0.015363763 0.9702096 4294639610
0.18120922 -0.015363774 0.97021031 4294574073
0.18372847 -0.015353629 0.96956968 4294377464
0.18661931 -0.015374386 0.97088045 4294377463
0.18902232 -0.015354935 0.96965212 4294180340
0.19159697 -0.01534977 0.96932596 4294048754
0.19387102 -0.01532099 0.96750855 4293982961
0.19592401 -0.015275746 0.96465141 4293851375
0.19841178 -0.015265148 0.96398216 4293653996
0.20069803 -0.015239526 0.96236414 4293457130
0.20331191 -0.015239121 0.96233857 4293391337
0.20545092 -0.015203586 0.96009457 4293193445
0.20789215 -0.015191026 0.95930141 4292930273
0.20979522 -0.015139942 0.95607549 4292667102
0.13712031 -0.012554782 0.95737237 4278190080
0.14007917 -0.012586516 0.95979226 4294705151
0.14313151 -0.012625333 0.96275222 4294705151
0.14603259 -0.012649651 0.96460658 4294639357
0.14895844 -0.012675219 0.96655631 4294770687
0.15191531 -0.012702492 0.96863604 4294639357
0.15488568 -0.012729944 0.97072941 4294705150
0.15767729 -0.01274203 0.97165108 4294705150
0.16043165 -0.012750758 0.97231656 4294639614
0.1632904 -0.012767362 0.97358274 4294639614
0.16620985 -0.012788109 0.97516477 4294639614
0.16887058 -0.012788609 0.97520292 4294639614
0.17120756 -0.012764956 0.97339922 4294639614
0.17375503 -0.012757477 0.97282898 4294639612
0.1763521 -0.012753811 0.97254938 4294639610
0.17866787 -0.012730211 0.97074974 4294574073
0.18133105 -0.01273169 0.97086257 4294639610
0.18368296 -0.012711586 0.96932954 4294508535
0.18661155 -0.012731395 0.97084004 4294508535
0.18883872 -0.012703465 0.96871024 4294311926
0.1916467 -0.012714839 0.96957755 4294246133
0.19394669 -0.012692658 0.96788615 4294245363
0.19620058 -0.012668095 0.96601307 4293982191
0.19828741 -0.012633539 0.96337795 4293982191
0.20019419 -0.012588562 0.95994824 4293588203
0.20173928 -0.012522293 0.95489484 4293456617
0.20316787 -0.01245057 0.94942558 4293455847
0.135234 -0.010002295 0.96249241 4289509297
0.13625611 -0.0098863831 0.95133859 4290561987
0.13893202 -0.0098925522 0.95193219 4294443005
0.14189646 -0.0099186627 0.95444477 4294639614
0.14486703 -0.0099442564 0.95690757 4294574077
0.14781828 -0.0099676438 0.95915806 4294705151
0.1509278 -0.010000706 0.96233952 4294705151
0.15413183 -0.010038795 0.96600473 4294639614
0.15718175 -0.010065739 0.96859747 4294639614
0.15985788 -0.01006825 0.96883911 4294639614
0.16270185 -0.010081079 0.97007364 4294639614
0.16543035 -0.01008646 0.97059143 4294639614
0.16824935 -0.010097101 0.97161543 4294639614
0.17061777 -0.010080792 0.97004598 4294639614
0.17326456 -0.010081176 0.97008294 4294639612
0.17595199 -0.010083877 0.97034287 4294639612
0.17804457 -0.010052912 0.96736324 4294639612
0.18026736 -0.010030095 0.96516752 4294639612
0.18219186 -0.0099915732 0.96146077 4294574073
0.18474782 -0.0099882828 0.96114409 4294574073
0.18690191 -0.0099636605 0.95877475 4294508536
0.18897471 -0.0099354424 0.9560594 4294376950
0.19079761 -0.0098950304 0.95217073 4294179571
0.19724438 -0.0097022401 0.93361908 4294705149
0.19867074 -0.0096481079 0.92841005 4294639614
0.20051302 -0.0096152797 0.92525107 4293850356
0.20327474 -0.0096268086 0.92636049 4292534496
0.1328477 -0.0073956531 0.96418595 4280429350
0.1367348 -0.0073227445 0.95468074 4290430658
0.13865435 -0.0072870692 0.95002967 4289706678
0.14109029 -0.007279342 0.94902223 4289179819
0.14350662 -0.0072708987 0.94792145 4292205527
0.14593801 -0.0072635035 0.94695735 4294113524
0.14862762 -0.0072689941 0.9476732 4294639614
0.15167603 -0.0072915461 0.95061332 4294639614
0.15460634 -0.0073077595 0.95272708 4294443003
0.15706687 -0.0073015983 0.95192385 4294639612
0.15971184 -0.0073040724 0.95224643 4294574075
0.1651867 -0.0073169791 0.95392907 4294639612
0.18572375 -0.0071092714 0.92684978 4294574075
0.18782043 -0.0070931851 0.92475259 4293981940
0.18985541 -0.0070752255 0.92241114 4293126631
0.1918515 -0.0070563038 0.91994429 4292140508
0.19362357 -0.0070297364 0.91648066 4292271070
0.19593577 -0.0070232055 0.91562921 4292336863
0.19883291 -0.0070375423 0.91749835 4292731109
0.20307833 -0.0070986524 0.9254654 4292862948
0.13672681 -0.0048156097 0.97311711 4290627267
0.13751918 -0.004751476 0.96015733 4290627780
0.13771904 -0.0046696444 0.9436211 4289509297
0.13924675 -0.0046350081 0.93662196 4288719779
0.14120905 -0.0046158233 0.93274516 4288982951
0.14340325 -0.0046047615 0.93050992 4289377451
0.14581464 -0.0046009379 0.92973721 4288851108
0.14832366 -0.004600272 0.92960268 4289246123
0.15095092 -0.0046032346 0.93020129 4289443502
0.1533169 -0.0045982627 0.92919666 4290231991
0.15580314 -0.0045970012 0.92894173 4290758081
0.15806732 -0.0045893318 0.92739195 4291218632
0.16058686 -0.0045892019 0.92736566 4291350218
0.16285372 -0.0045819664 0.92590356 4291547597
0.16507439 -0.0045736716 0.92422736 4291416011
0.16723211 -0.0045639081 0.92225438 4291481804
0.16915478 -0.0045481129 0.91906261 4291284425
0.17106456 -0.0045324368 0.91589487 4291021253
0.17284653 -0.0045138737 0.91214365 4291021253
0.17512588 -0.0045086411 0.91108626 4290824646
0.17752326 -0.0045065507 0.9106639 4291285197
0.17977752 -0.0045009349 0.90952909 4291350990
0.18190333 -0.0044922992 0.90778404 4291482578
0.18410875 -0.0044858349 0.90647775 4291943129
0.18666008 -0.0044878586 0.90688664 4292140508
0.18911184 -0.0044874661 0.90680736 4292403426
0.19200163 -0.0044973441 0.90880346 4292666599
0.19505109 -0.0045106634 0.91149497 4292995564
0.19881204 -0.0045398949 0.91740197 4292995564
0.20341186 -0.0045873201 0.92698538 4278190080
0.13802753 -0.0021461044 0.96370667 4290561474
0.13864517 -0.0021155064 0.94996673 4290496192
0.13979273 -0.0020939668 0.94029438 4288851365
0.14127928 -0.0020781881 0.933209 4288983206
0.1430005 -0.002066358 0.92789662 4289114792
0.14480793 -0.0020561623 0.92331827 4289114792
0.14671539 -0.0020477104 0.919523 4289246378
0.14881186 -0.0020421362 0.91701984 4289574830
0.15100108 -0.0020379974 0.91516137 4289772210
0.1532308 -0.0020345307 0.91360468 4290035382
0.15535936 -0.0020298532 0.91150415 4290232761
0.15742938 -0.0020245698 0.90913171 4290495163
0.15979847 -0.0020232364 0.90853292 4290560956
0.16210811 -0.0020212024 0.9076196 4290626749
0.16442759 -0.0020193504 0.90678793 4290693058
0.16662909 -0.0020161257 0.9053399 4290956230
0.16885971 -0.0020133422 0.90408993 4291153609
0.17097384 -0.0020092695 0.90226114 4291285195
0.17359754 -0.002011216 0.90313518 4291351503
0.17637569 -0.0020148724 0.90477705 4291351503
0.17918435 -0.0020187718 0.90652812 4291877334
0.18160121 -0.0020182112 0.90627635 4292074972
0.18381989 -0.0020154924 0.90505552 4292667109
0.18641345 -0.0020169017 0.90568841 4292798695
0.18904197 -0.0020186475 0.90647233 4292864490
0.19234324 -0.0020274397 0.91042042 4293127663
0.19574508 -0.0020370546 0.91473806 4293127663
0.19935685 -0.0020485856 0.91991597 4293193456
0.20405632 -0.0020708689 0.92992228 4278190080
0.1379687 0.00047662875 0.96329588 4290430658
0.13858531 0.00046983073 0.94955665 4290430399
0.13972519 0.00046502307 0.93984008 4288719522
0.1411074 0.00046118029 0.93207359 4289114279
0.1426246 0.00045790672 0.92545748 4289114279
0.14455253 0.00045604247 0.92168975 4289377964
0.14641513 0.00045403928 0.91764116 4289443757
0.14852625 0.00045286102 0.91525984 4289706929
0.15055703 0.00045148068 0.9124701 4289969588
0.15276513 0.00045066827 0.91082817 4290166967
0.15480883 0.00044940459 0.90827417 4290298553
0.15687385 0.00044824154 0.9059236 4290693312
0.15930335 0.00044813979 0.90571797 4290824898
0.16168267 0.0004479021 0.90523756 4291088070
0.1640773 0.00044771339 0.90485615 4291417292
0.16648579 0.00044756749 0.90456128 4291680464
0.16888684 0.00044740614 0.90423518 4292009429
0.17112884 0.00044683411 0.90307909 4292207323
0.17339918 0.00044635125 0.90210319 4292536288
0.17601651 0.00044676257 0.90293449 4292733413
0.17867342 0.00044726167 0.90394318 4292930535
0.18127701 0.00044761554 0.90465838 4293127403
0.18318133 0.0004462564 0.9019115 4293259246
0.18586656 0.0004468105 0.90303135 4293193966
0.18855357 0.00044735431 0.90413046 4293128175
0.19239262 0.00045058219 0.91065419 4293127920
0.1956656 0.0004524191 0.91436666 4293193715
0.19934891 0.00045514671 0.91987938 4293127663
0.20401703 0.00046002725 0.92974323 4278190080
0.13828886 0.0031056367 0.96553117 4290496194
0.14023052 0.0030905129 0.9608292 4290627267
0.14049135 0.0030395775 0.94499362 4288916647
0.14158933 0.0030082597 0.93525702 4289114280
0.14304504 0.0029855145 0.92818558 4289180585
0.14486434 0.0029710154 0.92367786 4289575343
0.14681236 0.0029596062 0.92013079 4289641136
0.14876536 0.0029486781 0.91673326 4290167480
0.15081267 0.002939949 0.91401947 4290430652
0.1528839 0.002931962 0.91153634 4290693824
0.15497854 0.0029246721 0.90926987 4291219913
0.15706953 0.0029175433 0.90705359 4291285706
0.15955529 0.0029178543 0.90715033 4291812050
0.16196221 0.0029167363 0.90680271 4292009429
0.16444306 0.0029169631 0.90687323 4292141015
0.16707541 0.0029198311 0.90776485 4292207321
0.16944639 0.002918114 0.90723103 4292470495
0.17174311 0.0029151859 0.90632069 4292602081
0.17388853 0.0029098089 0.90464902 4292733667
0.17643929 0.0029112701 0.90510327 4292864999
0.17885584 0.0029105071 0.9048661 4292996585
0.18143016 0.0029122976 0.90542275 4293128173
0.18375738 0.0029101267 0.90474778 4293259759
0.18671024 0.0029177901 0.9071303 4293193968
0.18946144 0.0029221433 0.90848374 4293259761
0.19301042 0.0029385304 0.91357839 4293325299
0.19624126 0.0029497186 0.9170568 4293259506
0.19993018 0.0029674247 0.92256153 4293127920
0.20465116 0.00299982 0.9326331 4278190080
0.14139622 0.0057530468 0.96881634 4290693060
0.14076318 0.0056224396 0.94682199 4288390303
0.14174859 0.0055600111 0.93630898 4288127385
0.14326148 0.0055201119 0.92958999 4287732626
0.14501196 0.0054905945 0.9246192 4289575343
0.14706363 0.0054732929 0.9217056 4289772209
0.14915545 0.0054580411 0.91913718 4286614145
0.15118465 0.0054410379 0.91627389 4290759104
0.15307762 0.0054197642 0.91269135 4291022534
0.15503626 0.0054014577 0.90960854 4291417292
0.15716478 0.0053895521 0.90760362 4291614671
0.15972234 0.0053925002 0.90810007 4291746770
0.16197027 0.0053850641 0.90684783 4291944151
0.16447207 0.0053861653 0.90703326 4292075737
0.16706544 0.0053901877 0.90771067 4292207323
0.16960366 0.00539234 0.90807313 4292536288
0.17202662 0.0053908182 0.90781683 4292470495
0.17414612 0.0053799651 0.90598911 4292667874
0.17664221 0.0053808861 0.90614426 4292864999
0.17901121 0.0053779641 0.90565217 4292996587
0.18181442 0.0053879889 0.90734035 4293193966
0.18444882 0.0053928094 0.90815216 4293128173
0.18729375 0.0054035764 0.90996534 4293193968
0.18983716 0.0054054768 0.91028535 4293325554
0.19304255 0.0054259351 0.9137305 4293325299
0.19626842 0.005446441 0.91718376 4293325299
0.2001911 0.0054855254 0.92376554 4293193968
0.20496029 0.0055465479 0.9340418 4278190080
0.1410879 0.0082183359 0.9490062 4289179821
0.14227396 0.0081384312 0.93977928 4287403662
0.14371122 0.0080754654 0.93250835 4287074696
0.14537145 0.0080269957 0.92691135 4289706929
0.1474296 0.0080017773 0.92399925 4290233273
0.14971238 0.0079893917 0.9225691 4284969320
0.15188758 0.0079717692 0.92053407 4288588448
0.15384808 0.007943633 0.91728508 4290825155
0.15574753 0.0079132933 0.91378164 4290561983
0.15776205 0.0078896619 0.91105282 4290430910
0.15986675 0.0078712013 0.90892112 4291680977
0.16189614 0.0078496523 0.90643281 4292141530
0.16444735 0.0078536719 0.90689695 4292075737
0.16710967 0.0078627998 0.907951 4292404702
0.16973215 0.0078698155 0.90876108 4292404702
0.17200138 0.0078604845 0.90768361 4292405216
0.17439514 0.0078570293 0.90728462 4292667874
0.17683433 0.0078556892 0.90712982 4292733413
0.17923222 0.0078525748 0.90677029 4292930794
0.18184899 0.0078590056 0.90751284 4293128171
0.18478987 0.007879084 0.90983135 4293193966
0.18762949 0.0078943698 0.91159654 4293325554
0.19023956 0.0078997249 0.91221488 4293391347
0.19307326 0.0079141092 0.91387588 4293325554
0.19628042 0.00794324 0.91723979 4293325554
0.19994363 0.0079898639 0.92262363 4293259248
0.20474997 0.0080804452 0.93308342 4278190080
0.14140901 0.010825844 0.95116603 4290166714
0.14222643 0.010692671 0.93946534 4288587936
0.14358878 0.010604445 0.93171376 4289114537
0.14536449 0.01054928 0.92686695 4289509807
0.14751729 0.010522896 0.92454886 4289640623
0.14974539 0.010502678 0.92277247 4286351486
0.15182859 0.010473132 0.92017657 4288719522
0.15378171 0.010435719 0.91688937 4290101175
0.15616529 0.010428243 0.91623259 4287667091
0.15823808 0.010400577 0.91380179 4285693301
0.16016926 0.010364602 0.91064107 4292009429
0.16194287 0.010319683 0.90669441 4292075735
0.16449025 0.010324681 0.90713352 4292141530
0.16702773 0.010328918 0.90750575 4292273116
0.16963701 0.010337407 0.90825164 4292470495
0.17196223 0.010328591 0.90747702 4292471009
0.17450142 0.010332693 0.90783751 4292602597
0.17696671 0.010332368 0.9078089 4292734185
0.1795464 0.010338638 0.90835983 4292997357
0.18209742 0.010343109 0.90875262 4292996587
0.18485743 0.010359172 0.91016394 4293193966
0.18744464 0.010365255 0.91069841 4293325554
0.1902464 0.010382889 0.91224772 4293325554
0.19311886 0.010403876 0.91409165 4293391347
0.1963308 0.010442386 0.91747522 4293391092
0.19997481 0.010502622 0.92276752 4293259248
0.20467211 0.010615995 0.93272859 4278190080
0.13530181 0.013323112 0.94467568 4290430399
0.1409639 0.013372422 0.94817203 4290232507
0.14202999 0.013231329 0.93816775 4288785574
0.14356588 0.01313821 0.93156523 4289246636
0.14549123 0.013083346 0.92767507 4289443502
0.14761931 0.013048274 0.92518824 4289772980
0.14972574 0.013012496 0.92265141 4290233018
0.15173702 0.012969765 0.91962159 4290430910
0.1538308 0.012935359 0.91718203 4290956741
0.15633558 0.012936059 0.91723168 4291285706
0.15833752 0.012895785 0.91437602 4287732884
0.16010149 0.012837674 0.91025573 4291088327
0.16197394 0.012789902 0.9068684 4290694082
0.16466863 0.012807515 0.90811723 4288588706
0.16720966 0.012812831 0.90849423 4292404700
0.16951437 0.012800151 0.90759504 4292470495
0.17162904 0.012773688 0.90571874 4292667874
0.17412619 0.01277604 0.90588546 4292799206
0.17660283 0.01277684 0.90594226 4292799206
0.1792165 0.012787397 0.90669078 4293062380
0.18161038 0.012782197 0.90632206 4292997357
0.1843826 0.012803409 0.90782613 4293063150
0.1872541 0.012830863 0.90977269 4293194482
0.19029634 0.012869146 0.91248715 4293260275
0.19321631 0.01289828 0.91455293 4293325554
0.19622411 0.012932463 0.91697663 4293391092
0.19974245 0.012999011 0.92169529 4293259248
0.20451608 0.013144589 0.93201751 4278190080
0.14194691 0.016064329 0.95478421 4290429886
0.14261729 0.015850026 0.94204712 4288851367
0.14402354 0.015723631 0.93453479 4289115050
0.14584956 0.015646657 0.92995983 4289378992
0.14789 0.015594918 0.92688477 4289707187
0.14979514 0.015530888 0.92307913 4290101945
0.15176545 0.015475613 0.9197939 4290496190
0.15384501 0.015433094 0.91726679 4290956741
0.15632434 0.015431396 0.91716582 4291285706
0.15838283 0.01538886 0.91463774 4291548878
0.16049848 0.015353109 0.91251284 4291680464
0.16275796 0.015331997 0.91125804 4291943636
0.16545531 0.015352146 0.91245562 4290825668
0.16784102 0.015343212 0.9119246 4292207321
0.17009488 0.01532266 0.91070312 4292010458
0.17250301 0.015316396 0.91033083 4290563012
0.17488542 0.015308059 0.90983528 4292207839
0.17727278 0.015300382 0.90937901 4292799976
0.179731 0.015298947 0.90929371 4293063150
0.18215458 0.015294642 0.90903789 4293063150
0.18495747 0.015321877 0.91065657 4293194734
0.18774152 0.015346849 0.91214079 4293260275
0.19096518 0.015406637 0.9156943 4293260276
0.19376872 0.015431427 0.91716772 4293391347
0.19685234 0.015477608 0.91991246 4293391092
0.20026708 0.015548335 0.92411613 4293390834
0.20473911 0.015698377 0.93303388 4292272353
0.14309633 0.018475862 0.94521135 4288785574
0.14432174 0.018304992 0.93646979 4289115050
0.14606588 0.018204704 0.93133914 4289313199
0.14795554 0.018125664 0.92729551 4289707187
0.14984159 0.018048842 0.92336529 4290299324
0.15177651 0.017980341 0.9198609 4290562496
0.1540418 0.017952569 0.91844004 4290891461
0.15627863 0.017922416 0.91689754 4291154633
0.1582838 0.017867066 0.91406584 4291417805
0.16039526 0.017825238 0.91192597 4291812050
0.16286065 0.01782342 0.91183293 4291877843
0.16561805 0.017853133 0.91335309 4291680977
0.167951 0.017836893 0.9125222 4291746770
0.17041636 0.01783498 0.91242433 4290365117
0.17282277 0.017827043 0.9120183 4286747018
0.17513347 0.017809598 0.91112578 4291286737
0.17718725 0.017766878 0.90894026 4292865769
0.17952135 0.017753055 0.90823311 4292865771
0.18202427 0.017756075 0.9083876 4293128173
0.18480378 0.017785635 0.90989983 4293128941
0.18771043 0.017826486 0.91198981 4293194482
0.19093961 0.017896501 0.91557169 4293260276
0.19391195 0.01794095 0.91784567 4293326068
0.19697724 0.017992757 0.92049611 4293456885
0.20023361 0.018060498 0.9239617 4293259506
0.20498361 0.018259611 0.93414813 4278190080
0.14383233 0.021156719 0.95007294 4289115052
0.1448524 0.020930475 0.93991309 4289115050
0.14635617 0.020780763 0.93319005 4289247663
0.14817786 0.02068053 0.92868894 4289510578
0.15007994 0.020594686 0.92483407 4290101945
0.15209301 0.020526659 0.92177916 4290562496
0.15422463 0.020476578 0.91953021 4290759875
0.15628374 0.020418622 0.91692758 4291154633
0.15856509 0.020391066 0.91569018 4291352012
0.16090423 0.020371681 0.91481972 4291680977
0.16342182 0.020375136 0.91497487 4291944149
0.16580583 0.020362085 0.91438872 4292141528
0.16801609 0.020328395 0.91287583 4292338907
0.17065029 0.020346232 0.91367686 4290036152
0.17358623 0.020399017 0.91604722 4285430642
0.17641377 0.020437749 0.91778654 4291878872
0.17838006 0.020377012 0.91505909 4292734183
0.18050106 0.020335382 0.91318959 4292931564
0.18294543 0.020330817 0.91298461 4293128173
0.18565437 0.020355383 0.91408777 4293259757
0.18805453 0.020345893 0.9136616 4293194482
0.19103412 0.020398518 0.91602486 4293260275
0.19402196 0.020450659 0.91836631 4293260529
0.19764578 0.020567657 0.92362028 4293522420
0.20098552 0.020652525 0.92743134 4293456627
0.20567037 0.02087179 0.93727779 4292272353
0.14431044 0.023821471 0.9532311 4289180330
0.14511769 0.02353167 0.94163454 4289180330
0.14655291 0.02335199 0.93444449 4289444015
0.14823943 0.023217799 0.92907476 4289707187
0.15019211 0.023129096 0.92552531 4290167738
0.15210561 0.023037389 0.92185557 4290496703
0.15427254 0.022986414 0.91981578 4290825668
0.156232 0.022906652 0.91662401 4291154633
0.15849568 0.022873297 0.91528934 4291483598
0.16085176 0.022854107 0.9145214 4291812563
0.16318394 0.022832155 0.913643 4291878356
0.16550308 0.022809068 0.91271913 4292075737
0.1676082 0.022757601 0.91065967 4292273116
0.17015684 0.022766976 0.91103482 4292470495
0.17276494 0.022783928 0.91171312 4292471009
0.17571056 0.022844277 0.91412807 4292602595
0.17808525 0.022829752 0.91354686 4292668390
0.1804868 0.022819022 0.91311747 4292931564
0.1829707 0.022818854 0.91311073 4293259759
0.18557368 0.022833342 0.91369051 4293325552
0.18801665 0.02282802 0.91347754 4293391347
0.19069864 0.022851478 0.91441619 4293457140
0.19374441 0.022917362 0.91705257 4293457140
0.19718912 0.02302816 0.92148626 4293457140
0.20066394 0.023139646 0.92594743 4293390834
0.20529525 0.023380075 0.93556833 4278190080
0.14567089 0.026194006 0.94522411 4287272076
0.14694597 0.025964733 0.93695068 4289442991
0.14857145 0.025804142 0.93115562 4289838003
0.15068218 0.025731802 0.92854524 4290101432
0.15248567 0.025610249 0.92415893 4290496190
0.15457401 0.025539704 0.92161328 4290956484
0.15637057 0.025423972 0.91743702 4291417035
0.15855448 0.025373867 0.91562897 4291614414
0.16080403 0.025335655 0.91425002 4291812050
0.16331908 0.025339801 0.91439968 4292141017
0.16579597 0.02533799 0.9143343 4292141530
0.16800414 0.025295772 0.91281086 4292142046
0.17024863 0.025260173 0.91152626 4292601827
0.17268533 0.025253709 0.91129297 4292601827
0.17559822 0.025316078 0.91354364 4292733413
0.17815997 0.025326788 0.91393006 4292799978
0.18083073 0.025352487 0.91485745 4292997357
0.18343456 0.025368234 0.91542566 4293128943
0.18633318 0.025423776 0.91742998 4293194736
0.18881588 0.025421852 0.91736054 4293326068
0.19138049 0.025430866 0.91768575 4293326068
0.19424073 0.025478423 0.91940188 4293522933
0.19756632 0.025585031 0.92324889 4293522420
0.20103149 0.025706813 0.92764348 4293588213
0.20505068 0.02589554 0.93445379 4292272351
0.14610308 0.028851988 0.94802856 4284507746
0.1470442 0.028533909 0.93757701 4288651678
0.14856209 0.028336698 0.93109697 4288520092
0.15064411 0.028251901 0.92831069 4290692029
0.15238702 0.028107353 0.92356104 4290561725
0.15462771 0.028057817 0.92193341 4291087299
0.15650426 0.027944846 0.91822135 4291285449
0.15845022 0.027847625 0.91502684 4291483085
0.16050808 0.027772777 0.91256744 4292008148
0.16307668 0.027787235 0.91304249 4292139734
0.1657619 0.027820831 0.91414642 4292007891
0.16801476 0.027781943 0.91286862 4292665053
0.17013629 0.027722787 0.91092485 4292666850
0.17240216 0.027688511 0.90979862 4292667620
0.17497 0.027703019 0.91027534 4292734183
0.17744818 0.027703123 0.91027874 4292996585
0.18015678 0.027738702 0.91144782 4293193966
0.18300073 0.027793871 0.91326058 4293194734
0.1860069 0.027871871 0.91582352 4293260529
0.18905035 0.027953317 0.91849971 4293260275
0.19154525 0.027952587 0.91847575 4293588726
0.19428807 0.027987592 0.91962594 4293522933
0.1969763 0.028013943 0.92049176 4293588213
0.20072654 0.028188771 0.92623633 4293456114
0.20488331 0.028415645 0.93369102 4292403426
0.14643197 0.031503007 0.95016253 4287139720
0.14748779 0.031179506 0.94040543 4287995029
0.14900231 0.030962359 0.93385607 4286016876
0.15107347 0.030866224 0.93095654 4287793800
0.15280871 0.030705759 0.92611676 4287005566
0.15481079 0.03060325 0.92302501 4288255120
0.15669534 0.030481152 0.9193424 4288057742
0.15862159 0.030370882 0.91601652 4289570211
0.16091125 0.030332524 0.91485959 4288912027
0.16348286 0.030347677 0.91531664 4289900205
0.16623878 0.030396074 0.91677636 4290755516
0.16854253 0.030361585 0.91573614 4287922567
0.17071359 0.030304546 0.91401577 4293124578
0.17289871 0.030251605 0.91241902 4292471011
0.17543729 0.030261133 0.91270638 4292799976
0.17782883 0.030245386 0.91223145 4292866028
0.18051447 0.030279405 0.91325748 4293128173
0.18329085 0.030327514 0.9147085 4293260529
0.18648742 0.030442925 0.91818941 4293392115
0.18952407 0.030529523 0.92080128 4293391861
0.19211428 0.030542886 0.92120433 4293522933
0.1947936 0.030569889 0.92201877 4293588726
0.19766194 0.030625489 0.92369574 4293588213
0.20145465 0.030821119 0.92959613 4293719286
0.20570201 0.031080589 0.93742198 4292074461
0.14669088 0.034149356 0.95184261 4289443245
0.14773689 0.033796009 0.94199377 4289246636
0.14931434 0.033574212 0.93581164 4289114280
0.15118244 0.033424113 0.93162799 4288649109
0.15294734 0.033256527 0.92695689 4287266430
0.15481879 0.033117175 0.9230727 4289636003
0.15664853 0.032973491 0.91906786 4289176480
0.15864867 0.03286963 0.91617286 4287728007
0.16110876 0.032862801 0.9159826 4289965998
0.16356297 0.032855 0.91576517 4287729036
0.1661312 0.032869995 0.91618305 4288451219
0.16850685 0.032847002 0.91554224 4290229170
0.1710107 0.032849312 0.91560656 4292141017
0.1731791 0.032788038 0.91389871 4292864999
0.17559737 0.032775138 0.91353917 4292864999
0.17788811 0.032739129 0.91253549 4292931562
0.1804578 0.032754745 0.91297078 4293259759
0.18315275 0.032792363 0.91401923 4293260529
0.18608382 0.032870684 0.91620225 4293326068
0.18899664 0.032943748 0.91823882 4293522933
0.1914921 0.032943103 0.91822088 4293588726
0.19439822 0.033012222 0.92014736 4293588213
0.19749644 0.033111785 0.92292243 4293588213
0.20138922 0.033340383 0.92929423 4293653747
0.20576741 0.033642679 0.93772006 4292074715
0.14671195 0.036745276 0.95197928 4289706674
0.14816786 0.036465917 0.94474173 4289509295
0.14990321 0.036263682 0.93950236 4289444785
0.1518375 0.03611555 0.93566465 4289970359
0.15359478 0.035930898 0.93088078 4290494650
0.15553945 0.035795368 0.92736953 4291021507
0.15716873 0.035592739 0.92211992 4291350472
0.15933555 0.035516299 0.92013955 4291679437
0.16161506 0.035466954 0.91886109 4291942609
0.16411091 0.03546587 0.91883302 4292074965
0.16644467 0.035430312 0.91791177 4292338396
0.16895162 0.035432126 0.9179588 4292535775
0.17142913 0.035427801 0.9178468 4292602081
0.17361382 0.035363961 0.91619277 4292668388
0.17590709 0.035323728 0.91515046 4292865767
0.17824669 0.035293795 0.91437501 4292931562
0.18103938 0.035353161 0.91591305 4293128943
0.18391071 0.035426069 0.91780186 4293194736
0.18674801 0.03549055 0.91947246 4293392115
0.18920894 0.035482746 0.91927028 4293522933
0.19184788 0.035508092 0.91992688 4293588213
0.19493024 0.035613801 0.92266554 4293522933
0.19839779 0.035786297 0.92713445 4293785079
0.20200658 0.035979617 0.93214297 4293850102
0.20612366 0.036257554 0.93934357 4292074715
0.1472744 0.039487101 0.95562893 4289706674
0.14847906 0.039119225 0.94672596 4289312429
0.15007825 0.038866069 0.94059938 4289706674
0.15181109 0.038655441 0.93550193 4289970359
0.15349601 0.038439762 0.93028224 4290430140
0.1555818 0.038329836 0.92762196 4290824898
0.15730853 0.038136382 0.92294014 4291219656
0.15945125 0.038048264 0.9208076 4291745230
0.1615254 0.037946768 0.91835135 4291942609
0.16406025 0.037954949 0.9185493 4292205527
0.1661199 0.037854601 0.91612077 4292535262
0.1685138 0.037832256 0.91558003 4292666848
0.17089891 0.037808619 0.91500801 4292733667
0.17332529 0.037794661 0.91467011 4292668388
0.17568651 0.037767094 0.91400295 4292865769
0.17815499 0.037763026 0.91390455 4292997357
0.18106849 0.037852105 0.91606033 4293063150
0.18383762 0.03790899 0.91743708 4293391345
0.18628512 0.03789892 0.91719335 4293326322
0.188723 0.037887182 0.91690928 4293391347
0.1914873 0.037940428 0.91819787 4293588726
0.19494267 0.038127467 0.92272437 4293391861
0.19838418 0.038307067 0.92707092 4293851385
0.20225133 0.038563311 0.9332723 4293654004
0.20640735 0.0388676 0.9406364 4291745750
0.14884247 0.041797996 0.9490431 4289443502
0.1503541 0.04150226 0.94232827 4289707187
0.15213965 0.041290782 0.93752658 4289969846
0.15381971 0.041058127 0.932244 4290496190
0.15584263 0.040923055 0.92917717 4290693569
0.15774414 0.040760923 0.92549586 4291088327
0.16010466 0.04072063 0.92458105 4291417292
0.16212238 0.040595751 0.92174554 4291812052
0.16457731 0.040582482 0.9214443 4291944151
0.16646506 0.040431853 0.91802424 4292207323
0.16878863 0.04038997 0.91707319 4292536288
0.17104021 0.040332329 0.91576445 4292471009
0.17350537 0.040325988 0.91562045 4292602595
0.17612791 0.040355887 0.91629934 4292865767
0.17873742 0.040382002 0.91689229 4292799976
0.18170445 0.040487066 0.91927779 4293062380
0.18408711 0.040460832 0.91868216 4293325552
0.18664454 0.0404732 0.91896302 4293391345
0.18923274 0.040491823 0.91938585 4293588211
0.19235758 0.040623296 0.92237103 4293653747
0.19550839 0.040756792 0.9254021 4293785333
0.19870083 0.040895458 0.9285506 4294507773
0.20245749 0.04114531 0.93422359 4293978090
0.20657288 0.041460965 0.94139069 4290357935
0.149249 0.04450224 0.95163518 4287665550
0.15021983 0.044027656 0.94148672 4290035381
0.15181036 0.043747574 0.93549746 4289904053
0.15347475 0.043497659 0.93015331 4290561726
0.15531796 0.043305725 0.92604893 4290759105
0.15744616 0.043198105 0.9237476 4290957254
0.15980633 0.043156512 0.92285818 4291351499
0.16207449 0.043091744 0.92147321 4291812052
0.1644901 0.04306756 0.92095602 4292075224
0.16650435 0.042940591 0.9182409 4292272090
0.16884683 0.042900771 0.91738945 4292601055
0.17116468 0.042855944 0.91643089 4292667361
0.17352709 0.042823408 0.91573513 4292733413
0.1761528 0.042855844 0.91642874 4292931562
0.17860559 0.042845901 0.91621608 4293062378
0.18144216 0.042927023 0.91795081 4293128171
0.1834304 0.042807963 0.91540486 4293522672
0.1860086 0.042827934 0.91583186 4294179319
0.18893172 0.042925742 0.91792339 4294506744
0.19223821 0.043106962 0.92179859 4293783534
0.19532233 0.043234292 0.92452145 4290358962
0.19810915 0.043293413 0.92578566 4288438645
0.20209676 0.043610163 0.93255907 4289094006
0.20690797 0.044094577 0.94291776 4278190080
0.1494516 0.047156245 0.95292699 4284893517
0.15055609 0.046694402 0.94359416 4286334033
0.15214479 0.046395712 0.93755823 4288242028
0.15385593 0.046143595 0.93246353 4290876571
0.15568292 0.045933846 0.92822492 4292067262
0.15773079 0.045794919 0.92541748 4292399309
0.16008165 0.045746952 0.92444819 4292729557
0.1622535 0.045650098 0.92249095 4292665049
0.16470197 0.045632839 0.92214221 4293191393
0.16709857 0.045601945 0.92151791 4293257186
0.16948672 0.045569692 0.92086613 4293454565
0.17166522 0.045482833 0.91911089 4293782245
0.17377751 0.045381173 0.91705662 4293846755
0.17631771 0.045392562 0.91728675 4294173667
0.17878608 0.045385398 0.91714197 4294565086
0.18141589 0.045418847 0.91781789 4293572803
0.18371367 0.045369394 0.91681856 4292382626
0.18643005 0.045423254 0.91790694 4290402933
0.18945074 0.045548853 0.92044502 4289941612
0.19270954 0.045727674 0.92405862 4289679724
0.19584383 0.045872729 0.92698985 4290206068
0.19874944 0.045961205 0.92877781 4289683320
0.20278913 0.046306424 0.93575394 4286930794
0.15070185 0.049310297 0.94450778 4285481034
0.15206775 0.048922695 0.93708354 4286791502
0.15369976 0.048632085 0.93151706 4287446093
0.1556319 0.048444327 0.9279207 4287641932
0.15751332 0.048247036 0.92414165 4287311684
0.15959376 0.048115943 0.92163068 4287444040
0.16172524 0.048004054 0.91948754 4287181895
0.16421118 0.047999192 0.91939437 4287510092
0.16669074 0.047992636 0.91926879 4287707214
0.16900614 0.047939707 0.91825497 4288232788
0.17132242 0.04788857 0.91727549 4288626004
0.17350094 0.047800947 0.91559714 4288954456
0.17592473 0.047782421 0.91524225 4289743972
0.17840524 0.047779605 0.91518831 4290138732
0.1811789 0.047854293 0.91661894 4290007659
0.18384668 0.047899369 0.91748232 4290073968
0.1864804 0.047934476 0.91815484 4290336370
0.18943068 0.048048954 0.92034757 4290533492
0.19263509 0.048224062 0.92370164 4288626522
0.19624232 0.048494201 0.92887598 4286065986
0.19939922 0.048647601 0.93181425 4284758339
0.20469362 0.049312085 0.94454205 4278190080
0.15203443 0.052339736 0.95285958 4280426529
0.15296064 0.051775403 0.94258577 4281675051
0.1544079 0.051403154 0.93580884 4282068268
0.15627554 0.051180661 0.93175828 4283512630
0.15805788 0.050937779 0.92733657 4285547336
0.16005367 0.050770245 0.92428654 4286137418
0.162139 0.050635856 0.92183995 4287055953
0.16450857 0.050592978 0.92105937 4287514707
0.16706124 0.050606858 0.92131203 4287843672
0.16927388 0.050518844 0.91970974 4287712600
0.17169635 0.050495107 0.91927755 4287647320
0.17393075 0.050417531 0.91786528 4287319125
0.17648725 0.050434202 0.91816878 4286924367
0.17907655 0.050459646 0.91863203 4286399822
0.18189999 0.050549459 0.92026711 4284890176
0.184815 0.050661933 0.9223147 4282855985
0.18750639 0.050710913 0.92320639 4282201135
0.19056876 0.050857604 0.92587692 4282400056
0.19403417 0.051106621 0.93041039 4282269498
0.19833578 0.051566634 0.93878502 4282598209
0.20302549 0.052114565 0.94876027 4278190080
0.15430392 0.054818071 0.95086348 4280888620
0.15557088 0.054356504 0.94285721 4281151016
0.1569819 0.053959437 0.93596977 4281019428
0.1585982 0.053644489 0.93050671 4281215778
0.16044487 0.053416133 0.92654568 4281544486
0.16266811 0.05331827 0.9248482 4281477921
0.16481689 0.053199362 0.92278564 4281412128
0.16695718 0.053081326 0.92073822 4281806886
0.16917232 0.052990217 0.91915786 4281938472
0.17211147 0.053125251 0.92150015 4282070058
0.17465813 0.053136997 0.92170388 4282005294
0.17717086 0.053138226 0.92172521 4282202673
0.17965083 0.053129736 0.92157793 4282071859
0.18285032 0.053331342 0.92507493 4282006066
0.18590496 0.0534858 0.9277541 4282137911
0.18857676 0.053527441 0.92847645 4282007352
0.19188111 0.053745162 0.93225294 4282007865
0.19633228 0.054274224 0.94142997 4282205245
0.16364658 0.057054177 0.94503504 4280954664
0.16607946 0.057006389 0.94424349 4281217320
0.1677404 0.05669912 0.93915397 4280888355
0.16962998 0.056477204 0.93547815 4281217318
0.17183384 0.056364939 0.93361866 4281348904
0.17445114 0.056389589 0.93402696 4281414697
0.17720312 0.056456435 0.93513417 4281546283
0.17960644 0.056411881 0.93439621 4281678387
0.18238366 0.056484371 0.93559688 4281612594
0.18513475 0.056546882 0.93663234 4281613107
0.18742658 0.056469329 0.93534774 4281745463
0.18924436 0.056252938 0.93176347 4281942072
0.19177388 0.056251038 0.931732 4282007866
0.15964761 0.05909811 0.93666369 4281613107
0.16176105 0.058939282 0.9341464 4280757798
0.16385552 0.058778573 0.93159926 4280626212
0.16592586 0.058614232 0.9289946 4280954664
0.1675909 0.058313806 0.92423302 4280888871
0.16982959 0.058218915 0.92272907 4280757798
0.17220779 0.058173914 0.92201585 4281678641
0.17523023 0.058344714 0.92472291 4281349935
0.1777768 0.058354475 0.92487758 4281678900
0.18072022 0.058492407 0.92706376 4281810486
0.18347637 0.058566764 0.92824227 4281744693
0.18800943 0.058405299 0.92568314 4281613108
