# .PCD v0.7 - Point Cloud Data file format
VERSION 0.7
FIELDS x y z rgba
SIZE 4 4 4 4
TYPE F F F U
COUNT 1 1 1 1
WIDTH 1140
HEIGHT 1
VIEWPOINT 0 0 0 1 0 0 0
POINTS 1140
DATA ascii
-0.080111362 0.31554744 0.85723519 4279309325
-0.078459114 0.31624264 0.85923356 4279243789
-0.076818794 0.31728396 0.86223859 4278783495
-0.075149678 0.31797919 0.86423677 4278783495
-0.073441707 0.31798226 0.86422151 4278717702
-0.071747541 0.31833145 0.86521292 4278651909
-0.0700377 0.31833452 0.86519766 4278914567
-0.068327859 0.31833762 0.86518234 4279046153
-0.066618018 0.31834069 0.86516708 4279177226
-0.064914472 0.31868988 0.86615843 4279243017
-0.063202754 0.31869298 0.86614311 4279308810
-0.06149359 0.31904218 0.86713439 4279506189
-0.059779998 0.31904525 0.86711907 4279506189
-0.058066409 0.31904835 0.86710382 4279769102
-0.056349743 0.31939757 0.86809498 4280229653
-0.054629326 0.31974679 0.86908621 4280689947
-0.05288469 0.32113439 0.87309682 4282071600
nan nan nan 4281808428
nan nan nan 4280295448
-0.034268256 0.31666848 0.85984534 4279111944
-0.032597113 0.31632537 0.85882384 4279177737
-0.086893514 0.31723005 0.85732687 4279638290
-0.085112266 0.31618929 0.8542912 4278914567
-0.083396122 0.31584439 0.85326928 4278980360
-0.08173383 0.31619537 0.85426104 4279177739
-0.080067791 0.31654635 0.85525274 4279375118
-0.078440599 0.31759328 0.85825795 4279309839
-0.076802164 0.3186402 0.8612631 4278980875
-0.075152479 0.31968716 0.86426806 4278849289
-0.073460184 0.3200382 0.86525959 4279507218
-0.071750343 0.32004127 0.86524427 4278783495
-0.070040502 0.32004437 0.86522901 4278980360
-0.06832061 0.31969947 0.86420703 4279046153
-0.066620819 0.32005054 0.86519843 4279177226
-0.064917281 0.32040158 0.86618984 4279243017
-0.063205563 0.32040468 0.86617452 4279374603
-0.061493848 0.32040778 0.86615926 4279506189
-0.059782129 0.32041085 0.86614394 4279637775
-0.058070414 0.32041395 0.86612868 4279900688
-0.056358699 0.32041702 0.86611336 4280294676
-0.054632142 0.32146412 0.86911768 4280755227
-0.052894339 0.32251123 0.87212193 4281676329
nan nan nan 4281807915
nan nan nan 4280361241
nan nan nan 4279243530
nan nan nan 4279111688
-0.088656247 0.31962141 0.85938692 4279769876
-0.086865611 0.31857505 0.85635108 4279046153
-0.085028626 0.31682906 0.85130155 4278848774
-0.083318107 0.31648228 0.85027963 4279046153
-0.081636384 0.31648529 0.85026461 4279309325
-0.080001026 0.31718796 0.85226327 4279309582
-0.078400776 0.31859031 0.85627544 4279112460
-0.076804951 0.32034254 0.86129427 4279046668
-0.075172834 0.32174495 0.8653062 4279638806
-0.073478669 0.32209787 0.86629766 4280099355
-0.071780756 0.32245079 0.86728913 4279046153
-0.070055239 0.32210404 0.86626709 4278980360
-0.068333462 0.32175729 0.8652451 4279111690
-0.066623621 0.32176036 0.86522985 4279177226
-0.06492009 0.32211331 0.86622125 4279308811
-0.063208371 0.32211637 0.86620593 4279374603
-0.061496653 0.32211947 0.86619061 4279571725
-0.059784938 0.32212257 0.86617535 4279769104
-0.058072027 0.32247552 0.86716664 4279900688
-0.056358438 0.32247859 0.86715138 4280360469
-0.054634959 0.32318145 0.86914921 4280886813
-0.052897163 0.32423419 0.87215352 4281610279
nan nan nan 4281742123
nan nan nan 4280360985
-0.088561356 0.32026497 0.85639727 4279111689
-0.086776346 0.31921297 0.85336137 4278914567
-0.084973775 0.31780925 0.84931862 4278914567
-0.083266996 0.3174606 0.8482967 4278914567
-0.081589028 0.31746361 0.84828174 4278980360
-0.079957426 0.31817004 0.85028046 4278849288
-0.078382239 0.3199316 0.85529965 4278849289
-0.076807745 0.32204488 0.8613255 4278980875
-0.075193197 0.32380649 0.86634439 4279967256
-0.073497161 0.32416129 0.86733592 4279769876
-0.071769759 0.32381266 0.86631382 4278914567
-0.070046112 0.32346404 0.86529171 4279111433
-0.068316154 0.32276365 0.86326295 4279243019
-0.066610061 0.32276675 0.86324775 4279111432
-0.064910278 0.32312155 0.86423922 4279243017
-0.063202307 0.32312462 0.86422396 4279374603
-0.061496902 0.32347944 0.86521536 4279571725
-0.059787061 0.32348254 0.8652001 4279769104
-0.058076028 0.32383737 0.86619145 4279834895
-0.056364313 0.32384044 0.86617619 4280360469
-0.054647654 0.3241953 0.86716747 4280952349
-0.052913621 0.32525364 0.87017196 4281676072
-0.088466458 0.32089725 0.85340738 4279045640
-0.08671774 0.32019317 0.85137838 4279045640
-0.08494772 0.31913552 0.84834248 4279177226
-0.083242811 0.31878498 0.84732056 4279111690
-0.081566721 0.31878802 0.8473056 4279046153
-0.079936996 0.31949818 0.84930444 4278980360
-0.078385018 0.32162267 0.85533071 4278783495
-0.0767911 0.32339361 0.86034989 4278915082
-0.075195998 0.32551819 0.8663758 4279375118
-0.073484287 0.32552129 0.86636049 4279243276
-0.071744941 0.32481718 0.86433154 4278979847
-0.070036978 0.32482025 0.86431628 4279177226
-0.06830889 0.32411614 0.86228752 4279243017
-0.066596486 0.32376564 0.86126548 4279176967
-0.06489414 0.32376871 0.86125028 4279374346
-0.063196234 0.32412538 0.8622418 4279440139
-0.061494581 0.32448205 0.86323333 4279505932
-0.059789177 0.32483876 0.86422473 4279637518
-0.05808121 0.32484183 0.86420947 4279769102
-0.056373242 0.3248449 0.86419421 4280360469
-0.054660339 0.3252016 0.86518562 4281018142
-0.052936874 0.32591197 0.86718363 4281873451
-0.051188536 0.32732958 0.87119478 4282202418
nan nan nan 4280163351
-0.088404097 0.32187372 0.85142428 4279177224
-0.086720504 0.32187676 0.85140926 4279176967
-0.084979281 0.32116893 0.84938025 4279111433
-0.083272502 0.32081652 0.84835827 4279111433
-0.08156947 0.3204641 0.84733635 4279243019
-0.079962939 0.32153347 0.85034215 4279901462
-0.078409106 0.3236692 0.8563686 4278914567
-0.076832771 0.32580498 0.86239487 4279046410
-0.075198807 0.32722989 0.86640722 4279177226
-0.073487088 0.32723299 0.8663919 4278979847
-0.071761563 0.3268806 0.86536974 4279045640
-0.070039779 0.32652822 0.86434764 4279243019
-0.06832175 0.32617584 0.8633256 4279177225
-0.066599272 0.32546794 0.86129671 4279242760
-0.064896934 0.32547104 0.86128151 4279374346
-0.063194588 0.32547411 0.86126631 4279505930
-0.061494812 0.32583266 0.86225784 4279571725
-0.059791978 0.3265467 0.86425608 4279769104
-0.058082826 0.32690528 0.86524755 4279900690
-0.056372985 0.32690835 0.86523229 4280295448
-0.054658208 0.32726696 0.86622369 4280953121
-0.052939683 0.32762554 0.86721504 4281808432
-0.05119136 0.32905066 0.87122631 4282334776
nan nan nan 4279966743
-0.088341728 0.32284269 0.84944111 4279243017
-0.086692572 0.32320303 0.85043311 4279177224
-0.085010856 0.32320607 0.85041809 4279177226
-0.083329134 0.32320911 0.85040307 4279243019
-0.081622347 0.32285482 0.84938103 4283585357
-0.080012083 0.32392982 0.85238695 4281743666
-0.078454509 0.32607681 0.85841358 4279111946
-0.076816119 0.32715186 0.8614192 4279111946
-0.075166479 0.32822692 0.86442477 4279177996
-0.073458515 0.32823002 0.86440951 4278980874
-0.071736731 0.32787576 0.86338735 4279309069
-0.070030637 0.32787883 0.86337209 4279374605
-0.068314478 0.32752457 0.86235005 4279177226
-0.066602066 0.32717028 0.86132795 4279308299
-0.064893402 0.32681602 0.86030596 4279308811
-0.063192941 0.32681906 0.86029077 4279506190
-0.061492469 0.32682213 0.86027557 4279571983
-0.05979339 0.32753995 0.86227387 4279835155
-0.058086812 0.32825774 0.86427218 4279835155
-0.056378845 0.32826084 0.86425692 4280361243
-0.054665945 0.32862127 0.86524838 4281019174
-0.052949298 0.32898176 0.86623979 4281743153
-0.051211543 0.33005697 0.86924452 4282138168
-0.049462534 0.33113223 0.87224919 4279769621
-0.086695328 0.32488474 0.85046399 4279111431
-0.085042432 0.32524696 0.85145599 4279111433
-0.08333189 0.32489082 0.85043389 4279045640
-0.081650175 0.32489386 0.85041887 4280164121
-0.080084428 0.32669288 0.85543889 4280362013
-0.078521252 0.32885113 0.86146563 4279243532
-0.076838359 0.32921341 0.86245739 4279177739
-0.07516928 0.3299349 0.86445612 4279178253
-0.073445618 0.32957876 0.8634339 4278914567
-0.071711883 0.32886341 0.86140484 4278914567
-0.070009544 0.32886648 0.86138964 4279046153
-0.068297133 0.32851034 0.86036754 4279177226
-0.066596664 0.32851341 0.86035234 4279243019
-0.064896196 0.32851648 0.86033714 4279374605
-0.063195728 0.32851952 0.86032194 4279571985
-0.061495259 0.32852259 0.86030674 4279572242
-0.059795488 0.3288849 0.86129838 4279703571
-0.058090791 0.32960647 0.86329669 4279440399
-0.056381647 0.32996878 0.86428821 4279900950
-0.054663822 0.33069035 0.86628646 4280953638
-0.052945305 0.33105269 0.86727792 4281019430
-0.05121436 0.33177429 0.86927605 4282335291
-0.049475912 0.33249593 0.87127411 4282006585
-0.086698093 0.32656646 0.8504948 4279045638
-0.08501637 0.3265695 0.85047978 4279177226
-0.083307706 0.32621145 0.84945768 4279111433
-0.081652932 0.32657555 0.85044974 4279506191
-0.080110401 0.32874504 0.8564769 4279966742
-0.078566693 0.33127561 0.86351091 4279243532
-0.076880045 0.33163977 0.86450267 4279309325
-0.075172082 0.33164287 0.86448741 4279572497
-0.073432721 0.33092377 0.86245823 4278980360
-0.071714677 0.33056575 0.86143607 4279243532
-0.070000388 0.33020774 0.86041391 4279506704
-0.068299919 0.3302108 0.86039871 4278980360
-0.066599451 0.33021387 0.86038351 4279243277
-0.064898983 0.33021691 0.86036831 4279243277
-0.063198514 0.33021998 0.86035311 4280295965
-0.061500624 0.33058417 0.86134481 4279836185
-0.059798978 0.33094835 0.8623364 4281085483
-0.058093589 0.33131254 0.86332804 4285493613
-0.056384448 0.33167675 0.86431956 4284966757
-0.054661706 0.3327632 0.86732465 4287006083
-0.052927718 0.33384967 0.87032968 4283847764
-0.051173802 0.33529729 0.87434131 4288256665
nan nan nan 4282467138
nan nan nan 4280099103
nan nan nan 4282928457
nan nan nan 4279901977
nan nan nan 4279572242
nan nan nan 4282469454
-0.086670145 0.32788524 0.84951854 4279243019
-0.0849903 0.32788828 0.84950352 4279045640
-0.083283506 0.32752836 0.84848142 4279177226
-0.081655689 0.32825726 0.85048062 4279374605
-0.080113173 0.33043799 0.85650796 4279703570
-0.078569487 0.33298171 0.8635422 4279177226
-0.076882847 0.33334774 0.86453402 4279243532
-0.075157307 0.33298784 0.86351174 4279835669
-0.073435515 0.33262798 0.86248946 4279046151
-0.071703643 0.33190513 0.86046028 4279835669
-0.069991224 0.3315452 0.85943812 4279901462
-0.068292633 0.33154827 0.85942298 4279111691
-0.066602238 0.33191431 0.86041474 4279835416
-0.064901769 0.33191738 0.86039954 4279638037
-0.063205756 0.33228344 0.86139125 4281940792
-0.061503414 0.33228651 0.86137605 4280493603
-0.059801072 0.33228958 0.86136085 4282993480
-0.058097556 0.33265564 0.86235249 4287861651
-0.056390293 0.3330217 0.86334407 4285690225
-0.054669436 0.33411378 0.86634928 4288124310
-0.052930534 0.33556888 0.87036121 4284834660
nan nan nan 4288256410
nan nan nan 4281348657
nan nan nan 4279638553
nan nan nan 4280625702
nan nan nan 4280954152
nan nan nan 4280822309
nan nan nan 4282470737
nan nan nan 4282536530
nan nan nan 4282602323
nan nan nan 4282273358
nan nan nan 4281943880
nan nan nan 4282141259
nan nan nan 4282075466
nan nan nan 4282666833
nan nan nan 4281877572
-0.084906571 0.32847366 0.84651285 4279440911
-0.083259307 0.32884151 0.84750503 4279243532
-0.078593619 0.33505261 0.86458063 4278980360
-0.076924562 0.33578536 0.86657947 4279177739
-0.07523042 0.33615327 0.86757123 4279112460
-0.073485419 0.33542669 0.86554188 4279836184
-0.071734093 0.33433527 0.86250556 4279836184
-0.070017919 0.3339735 0.86148328 4279704598
-0.068315573 0.33397657 0.86146808 4281940792
-0.066621438 0.33434448 0.86245984 4280295967
-0.064917222 0.33434755 0.86244464 4279506451
-0.063217461 0.33471549 0.86343634 4283717203
-0.061511368 0.33471856 0.86342108 4280032282
-0.059805982 0.33508649 0.86441278 4282335039
-0.058096845 0.33545443 0.86540437 4287532173
-0.05638396 0.3358224 0.86639595 4284175705
-0.054657489 0.33692011 0.86940122 4289635754
nan nan nan 4280953386
nan nan nan 4283386957
nan nan nan 4279835418
nan nan nan 4280164383
0.55625761 0.38691387 0.99886739 4281878345
0.55763817 0.3865515 0.99784815 4281944139
0.56019473 0.38692096 0.99883223 4282009932
nan nan nan 4281878346
0.56353825 0.38656214 0.99779546 4281615174
0.56490946 0.38619974 0.99677634 4281812807
0.56508219 0.38510546 0.99375409 4282207052
0.56584287 0.38437709 0.99173349 4282404431
0.56779832 0.38438064 0.99171603 4282536017
0.57035679 0.3847501 0.99270004 4282470737
0.57291895 0.38511959 0.99368405 4282470737
0.57548487 0.38548908 0.99466807 4282339151
0.57805455 0.3858586 0.99565196 4282010186
0.57940704 0.38549617 0.99463302 4281747014
0.58014333 0.38476777 0.99261266 4281747014
0.58394337 0.3858692 0.99559939 4281944393
nan nan nan 4281878600
nan nan nan 4282338639
nan nan nan 4282338638
nan nan nan 4282141259
nan nan nan 4281812293
nan nan nan 4282273615
nan nan nan 4282273615
nan nan nan 4282339151
nan nan nan 4282404944
nan nan nan 4282470737
nan nan nan 4282273872
-0.078596421 0.33676058 0.86461192 4278914567
-0.076927364 0.33749706 0.86661088 4278914567
-0.075215653 0.33750015 0.86659557 4278783238
-0.073488228 0.33713651 0.86557323 4279111946
-0.071764551 0.33677289 0.86455089 4279111691
-0.070044629 0.33640924 0.86352861 4279309070
-0.068348616 0.33677906 0.86452037 4280888102
-0.066640653 0.33678213 0.86450511 4279703830
-0.064932682 0.33678523 0.86448985 4279374865
-0.063224718 0.3367883 0.86447459 4280690725
-0.061519332 0.33715811 0.8654663 4279769623
-0.059810203 0.33752793 0.86645794 4279900696
-0.058096152 0.3382645 0.86845648 4281150765
-0.056377646 0.33863434 0.86944807 4279176462
-0.054660305 0.33863744 0.86943275 4280425761
0.55370152 0.38851109 0.99791938 4281746501
0.55449599 0.38777903 0.99589843 4281812296
0.55645895 0.38778257 0.9958809 4281812296
0.55901176 0.38815391 0.99686503 4282009675
0.56097656 0.38815746 0.99684745 4281615174
0.56175417 0.38742539 0.99482667 4281812553
0.56192881 0.38632548 0.9918043 4281943880
0.56388426 0.38632903 0.99178684 4281746501
0.56464118 0.3855969 0.98976624 4282141259
0.56659287 0.38560042 0.98974878 4282272845
0.56914759 0.38597175 0.99073291 4282273358
0.571706 0.38634312 0.99171698 4282207565
0.57426816 0.38671449 0.99270099 4282273358
0.57683414 0.38708586 0.99368501 4282010186
0.57818282 0.38672155 0.99266601 4282010186
0.57891542 0.3859894 0.99064565 4282075979
0.58086902 0.38599291 0.99062818 4282010186
0.58343869 0.38636428 0.99161214 4281878600
nan nan nan 4281615174
nan nan nan 4281680710
nan nan nan 4281812296
nan nan nan 4282075725
nan nan nan 4281878346
nan nan nan 4281944139
nan nan nan 4281746760
nan nan nan 4281746760
0.59154296 0.38087782 0.97643578 4281812296
nan nan nan 4282207054
nan nan nan 4282272847
nan nan nan 4281812294
nan nan nan 4281943880
nan nan nan 4282074696
nan nan nan 4281811524
nan nan nan 4281679938
nan nan nan 4281614659
nan nan nan 4281680708
nan nan nan 4281944393
nan nan nan 4282207565
nan nan nan 4282076493
nan nan nan 4282010700
nan nan nan 4282142286
nan nan nan 4282339665
nan nan nan 4282142286
nan nan nan 4282076493
-0.078599222 0.33846852 0.86464328 4279177739
-0.076930173 0.33920875 0.8666423 4279111946
-0.075183287 0.33847469 0.86461276 4279177739
-0.07345961 0.3381092 0.86359036 4279177739
-0.071753517 0.33811226 0.86357516 4279309325
-0.070047423 0.33811533 0.8635599 4279177739
-0.068351418 0.338487 0.86455172 4279111691
-0.066651665 0.33885869 0.86554348 4279309070
-0.064935483 0.33849317 0.86452121 4279243277
-0.063223056 0.33812764 0.86349893 4279309070
-0.061519552 0.33849934 0.86449069 4279309840
-0.059813008 0.33923963 0.86648935 4279505938
-0.05810013 0.33961135 0.86748105 4279966489
-0.056380462 0.34035167 0.8694796 4280493348
-0.054672945 0.33961752 0.86745042 4280888106
0.55173165 0.3904742 0.99797302 4281746502
0.55194563 0.38936877 0.99495023 4281680711
0.55273449 0.38863295 0.99292928 4281680711
0.55527979 0.38900617 0.99391347 4281614663
0.55782884 0.38937938 0.99489766 4281351746
0.5597899 0.3893829 0.99488014 4281417538
0.55997014 0.38827738 0.99185765 4281615174
0.56073463 0.38754153 0.98983687 4281680967
0.56029689 0.38606629 0.98581296 4281746503
0.56164187 0.38570011 0.98479396 4281746501
0.56358415 0.38570362 0.98477662 4281943880
0.56612945 0.38607681 0.98576081 4281878600
0.56928337 0.38681975 0.9877466 4281944393
0.57123131 0.38682324 0.98772919 4282207565
0.57378787 0.38719648 0.98871332 4282075979
0.57634819 0.3875697 0.9896974 4281944393
0.5776875 0.38720351 0.98867846 4282207565
0.57963735 0.38720703 0.98866105 4282141772
0.58158714 0.38721055 0.98864365 4282010186
0.58415496 0.38758379 0.98962766 4281878346
0.58672649 0.38795704 0.99061167 4281483331
nan nan nan 4281549124
nan nan nan 4281746760
0.58633238 0.38427019 0.98054552 4281746503
0.58763987 0.38390395 0.97952688 4281483331
0.58705592 0.38242844 0.97550422 4281614917
0.58645695 0.38095289 0.97148174 4281878089
0.58774191 0.38058659 0.97046328 4281746503
0.58965796 0.38059005 0.97044617 4281878089
0.59093732 0.38022375 0.96942776 4282141261
nan nan nan 4281878089
nan nan nan 4281811781
nan nan nan 4281680195
0.59988254 0.38097712 0.97136176 4281417023
nan nan nan 4281482559
nan nan nan 4281680195
nan nan nan 4281417536
nan nan nan 4281549122
nan nan nan 4281549635
nan nan nan 4281813321
nan nan nan 4282142286
nan nan nan 4282273872
nan nan nan 4282273872
nan nan nan 4282142286
nan nan nan 4282076493
nan nan nan 4281813321
-0.075238854 0.34129402 0.86766553 4280164634
-0.073478118 0.34018573 0.86462885 4280164634
-0.07178399 0.34055927 0.86562067 4279572497
-0.070062183 0.3401919 0.86459833 4279638290
-0.068344131 0.3398245 0.86357594 4279440911
-0.066638038 0.33982757 0.86356074 4279769876
-0.064925604 0.33946016 0.8625384 4279967000
-0.063212462 0.33872229 0.8605091 4280559137
-0.061514582 0.33909583 0.86150092 4280690723
-0.059812956 0.3394694 0.86249274 4280953897
-0.058106419 0.34021345 0.86449152 4281282349
-0.056386314 0.3416985 0.86850411 4281414448
0.5503422 0.39280888 0.9990285 4281220159
0.55056369 0.39169782 0.99600554 4281614917
0.55077392 0.39058673 0.99298263 4281548870
0.55214518 0.3902187 0.99196339 4281614663
0.55410057 0.39022225 0.99194592 4281483078
0.55664587 0.39059731 0.99293017 4281548870
0.55860323 0.39060086 0.99291271 4281417539
0.55996692 0.39023283 0.99189353 4281483588
0.55954045 0.38875011 0.98786932 4281483331
0.55909896 0.38726735 0.98384529 4281680966
0.55984098 0.38652772 0.98182464 4281615172
0.56177765 0.3865312 0.98180735 4281747014
0.56492031 0.38727784 0.98379326 4281615428
0.5674656 0.38765293 0.98477751 4281615428
0.56940794 0.38765645 0.98476017 4281418049
0.57256746 0.38840312 0.98674595 4281483842
0.5757345 0.38914981 0.98873168 4281615428
0.57768434 0.38915333 0.98871422 4281483842
0.57963413 0.38915685 0.98869681 4281747014
0.58096784 0.38878876 0.98767793 4281680708
0.58167982 0.38804907 0.98565757 4281943880
0.58362401 0.38805255 0.98564017 4282207053
0.58432478 0.38731286 0.98361993 4282009675
0.58501804 0.38657314 0.98159975 4281943882
0.58570373 0.38583338 0.97957963 4281812296
0.58638203 0.38509363 0.97755957 4281614917
0.58579427 0.38361061 0.97353679 4281351745
0.58519161 0.38212758 0.96951419 4281614917
0.58647281 0.38175941 0.96849573 4281943882
0.58775026 0.38139123 0.96747732 4281877319
0.58902401 0.38102302 0.96645892 4281877319
0.59029394 0.38065484 0.96544057 4281680708
0.59540308 0.38251647 0.97042996 4281549122
0.59282267 0.37991843 0.963404 4281220157
0.59472561 0.37992185 0.96338701 4280956985
0.59662855 0.37992528 0.96337003 4280891192
0.60047543 0.38104367 0.96635664 4281088571
nan nan nan 4281220157
nan nan nan 4281154364
nan nan nan 4281351743
nan nan nan 4281549122
nan nan nan 4281484356
nan nan nan 4281615942
nan nan nan 4281879114
nan nan nan 4282142286
nan nan nan 4282076493
nan nan nan 4281944907
nan nan nan 4281747528
nan nan nan 4281615942
-0.075276844 0.34375226 0.8697114 4280361500
-0.073512353 0.34263834 0.86667448 4280295707
-0.071814477 0.34301379 0.86766636 4279703570
-0.070088923 0.34264454 0.86664391 4279637777
-0.068346925 0.34153059 0.86360729 4279440398
-0.066632621 0.34116131 0.86258489 4279966742
-0.064909369 0.34004733 0.85954839 4280361756
-0.063206308 0.33967805 0.85852617 4280427806
-0.061507002 0.33930874 0.85750395 4280624930
-0.059813593 0.34005651 0.85950291 4280756259
-0.05811153 0.34117669 0.86250877 4281282862
-0.056395188 0.34266922 0.8665216 4281415218
0.54997814 0.39328733 0.9950397 4281549124
0.55018651 0.39217064 0.99201673 4281614663
0.55155587 0.39180073 0.99099749 4281483077
0.55350941 0.39180425 0.99098003 4281351491
0.55546296 0.39180776 0.99096256 4281417284
0.55741656 0.39181131 0.9909451 4281548869
0.5593701 0.39181483 0.9909277 4281614917
0.55894178 0.39032459 0.98690337 4281746758
0.5590958 0.38920778 0.98388088 4281681221
0.56043702 0.38883784 0.98286188 4281681221
0.56177449 0.38846788 0.98184288 4281483842
0.56431419 0.38884485 0.98282725 4281286463
0.56746244 0.38959524 0.98481315 4281418049
0.56940478 0.38959876 0.98479581 4281286463
0.5725643 0.39034918 0.98678166 4281483842
0.57573128 0.3910996 0.98876745 4281285950
0.57768112 0.39110312 0.98874998 4281549122
0.57901669 0.39073318 0.98773104 4281812807
0.57973248 0.38998973 0.98571056 4281418049
0.5804407 0.38924628 0.9836902 4281615428
0.5817613 0.38887632 0.98267138 4281746501
0.58307815 0.38850632 0.98165256 4281812294
0.58439124 0.38813633 0.9806338 4281812553
0.58444965 0.38701934 0.97761214 4281680710
0.58512414 0.38627583 0.97559208 4281746503
0.58390349 0.38441181 0.97056782 4281680710
0.58392626 0.38329476 0.96754652 4281812040
0.58520371 0.38292471 0.96652806 4281614147
0.58647746 0.38255465 0.96550965 4281614147
0.58838415 0.38255808 0.96549261 4281679940
0.59029084 0.3825615 0.96547556 4281285950
0.59219754 0.38256496 0.96545851 4281351743
0.59281957 0.38182136 0.96343893 4281285950
0.59343404 0.38107774 0.96141934 4281022778
0.59533328 0.38108116 0.96140242 4280825399
0.59723246 0.38108459 0.96138543 4280759606
0.59978151 0.38146153 0.96236968 4280891192
0.60298604 0.38221204 0.96435511 4281022778
0.60358363 0.38146842 0.96233571 4281022778
0.60351831 0.38035119 0.95931518 4281220157
0.60409909 0.37960753 0.95729595 4281220413
0.60467231 0.37886381 0.95527673 4281352256
0.60656029 0.37886724 0.95525986 4281615685
0.61043715 0.37999132 0.95824635 4281879114
nan nan nan 4282076493
nan nan nan 4282076493
nan nan nan 4281747528
nan nan nan 4281615942
-0.073562324 0.34547269 0.86972755 4280032534
-0.071872674 0.34622422 0.87172657 4279703570
-0.070139609 0.34585309 0.870704 4279703569
-0.066651851 0.34361395 0.86463046 4279966742
-0.064918503 0.34212014 0.8605867 4280098328
-0.063209094 0.34137475 0.85855728 4280164121
-0.061507184 0.34062934 0.85652792 4280229914
-0.059815656 0.34138086 0.85852695 4280229915
0.55033571 0.39674601 0.99910074 4281680967
0.54939258 0.39487311 0.99407381 4281483588
0.54959905 0.39375076 0.99105078 4281614662
0.55038047 0.3930037 0.98902965 4281351744
0.55233026 0.39300722 0.98901224 4281417538
0.55486995 0.39338604 0.98999661 4281418050
0.55741334 0.39376485 0.99098098 4281483842
0.55877334 0.39339307 0.98996174 4281615685
0.55893862 0.39227065 0.98693907 4281747014
0.55909264 0.39114821 0.98391646 4281747014
0.56043386 0.3907764 0.9828974 4282009930
0.56177133 0.39040458 0.9818784 4281549122
0.56431097 0.3907834 0.98286277 4281483329
0.56685442 0.39116222 0.98384714 4281220157
0.56818813 0.3907904 0.98282814 4281417792
0.57195246 0.39191991 0.9858157 4281220413
0.57511765 0.39267409 0.98780161 4281285950
0.57645321 0.39230224 0.98678261 4281417536
0.57717085 0.39155507 0.98476201 4281549378
0.57664877 0.39005718 0.9807384 4281483842
0.57611173 0.38855925 0.97671497 4281286463
0.57741922 0.38818738 0.97569621 4281549379
0.57872289 0.38781548 0.9746775 4281812294
0.58064651 0.38781896 0.97466028 4281614915
0.58194458 0.38744706 0.97364163 4281549123
0.58198428 0.38632441 0.9706201 4282009418
0.58201265 0.38520175 0.96759862 4282272077
0.58266091 0.38445446 0.96557868 4282403663
0.58520061 0.38483328 0.96656305 4282074698
0.58710915 0.3848367 0.966546 4281614917
0.58901775 0.38484016 0.96652895 4281351745
0.59156489 0.38521898 0.96751326 4281154365
0.59347534 0.38522243 0.96749622 4281154365
0.59474349 0.38485047 0.96647781 4281220157
0.59536362 0.38410312 0.96445811 4280957242
0.59662235 0.38373116 0.96343982 4280759862
0.59528542 0.38185754 0.9584164 4280825399
0.59522951 0.38073474 0.9553957 4281022778
0.60037601 0.38261521 0.96038508 4281088571
0.60161972 0.38224322 0.95936692 4281022778
0.60220426 0.3814958 0.95734757 4281088571
0.60343862 0.38112378 0.95632946 4281220157
0.60466921 0.38075176 0.95531136 4281023034
0.60589612 0.38037974 0.95429337 4281220670
0.60844511 0.38075858 0.95527768 4281550151
nan nan nan 4281681737
nan nan nan 4281944907
nan nan nan 4281813321
nan nan nan 4281813321
-0.07356514 0.34719002 0.86975902 4279637775
-0.07187549 0.3479453 0.87175816 4279835154
-0.070154406 0.3479484 0.87174278 4279835154
-0.068433315 0.3479515 0.87172741 4279703568
-0.066695772 0.34720242 0.86969769 4279703570
-0.064953037 0.3457011 0.86565369 4279966742
-0.063234247 0.34495199 0.86362416 4280361500
-0.061517756 0.34345064 0.8595804 4280361500
-0.059819166 0.34345368 0.8595652 4280493086
0.55055404 0.39758661 0.99611354 4281549123
0.55076432 0.39645866 0.99309039 4281351743
0.55096334 0.39533067 0.9900673 4281154364
0.5523271 0.39495704 0.989048 4281220157
0.55368704 0.39458337 0.98802876 4281154620
0.55563498 0.39458689 0.98801136 4281220413
0.55698931 0.3942132 0.98699212 4281681222
0.55833995 0.39383954 0.985973 4281549635
0.55908942 0.39308867 0.98395211 4281418049
0.56102991 0.39309216 0.98393476 4281746758
0.56236923 0.39271846 0.9829157 4281680964
0.56370485 0.39234474 0.98189664 4281417793
0.56624639 0.39272547 0.98288101 4281483329
0.56757826 0.39235175 0.98186201 4281417536
0.57073212 0.39310965 0.98384804 4281154364
0.57389349 0.39386758 0.985834 4281154364
0.57522535 0.39349389 0.984815 4281285950
0.57471079 0.39198849 0.98079121 4281285950
0.57356513 0.39010587 0.97576594 4281352000
0.57240075 0.3882232 0.9707408 4281351999
0.57369697 0.38784942 0.96972215 4281614915
0.57436776 0.3870984 0.96770191 4281548865
0.57627821 0.38710186 0.96768486 4281679938
0.57756317 0.38672805 0.96666628 4281285438
0.57884443 0.38635427 0.96564776 4281811526
0.58012187 0.38598046 0.96462923 4282008905
0.58202672 0.38598388 0.96461219 4282008905
0.58519745 0.38674182 0.96659809 4282074955
0.5877409 0.38712254 0.96758246 4281680710
0.58965135 0.38712597 0.96756542 4281417538
0.59156179 0.38712943 0.96754831 4281351745
0.59347224 0.38713288 0.96753126 4281220159
0.59538269 0.38713631 0.96751422 4280957244
0.59600466 0.3863852 0.96549445 4280825658
0.59661919 0.38563409 0.96347475 4280759865
0.59528232 0.38375112 0.95845115 4280957498
0.59392673 0.38186809 0.95342779 4281022778
0.59646261 0.38224879 0.95441222 4281154364
0.59769511 0.38187492 0.95339411 4281154364
0.59957927 0.38187832 0.95337725 4281351743
0.6014635 0.38188171 0.95336044 4281351487
0.60202926 0.38113049 0.95134115 4281154364
0.60258752 0.38037929 0.94932199 4281220670
0.60446423 0.38038266 0.94930524 4281220416
0.60634094 0.38038605 0.94928843 4280891965
nan nan nan 4281484358
nan nan nan 4281747531
nan nan nan 4281879116
-0.071850613 0.34891045 0.86977518 4279505932
-0.070145249 0.34929153 0.87076712 4279571725
-0.068446234 0.35005057 0.8727662 4279703311
-0.066715047 0.34967569 0.87174362 4279505932
-0.064974897 0.34854487 0.86870664 4279703569
-0.063254952 0.34816998 0.86768413 4280229914
-0.061523147 0.3455272 0.86061871 4280427293
-0.059821222 0.34477428 0.85858923 4280427293
nan nan nan 4281549122
0.55113316 0.3999286 0.99715149 4281549122
0.5507611 0.39841598 0.99312627 4281088571
0.55037403 0.39690331 0.98910117 4281154364
0.55114794 0.39614874 0.98707998 4281154364
0.55191433 0.39539415 0.9850589 4281022778
0.55326492 0.39501861 0.98403966 4281088571
0.5546118 0.39464304 0.98302048 4281351743
0.55595487 0.39426747 0.98200136 4281220670
0.55789155 0.39427096 0.98198408 4281023291
0.55982828 0.39427444 0.98196679 4281220670
0.56236607 0.39465702 0.98295122 4281417536
0.56430465 0.39466053 0.98293394 4281483329
0.56624317 0.39466402 0.98291659 4281614915
0.56757504 0.39428842 0.98189753 4281483329
0.57012033 0.39467102 0.98288196 4281417536
0.57144845 0.39429542 0.98186296 4281220157
0.5727728 0.39391983 0.98084396 4281285950
0.57163656 0.39202783 0.97581846 4281285950
0.56986547 0.38975671 0.96979147 4281351743
0.57116169 0.38938105 0.96877271 4281549122
0.57183433 0.38862631 0.96675247 4281351230
0.57312119 0.38825062 0.96573383 4281811524
0.5744043 0.38787496 0.96471524 4281679938
0.57630908 0.38787839 0.9646982 4281285181
0.57758659 0.3875027 0.96367967 4281285182
0.57948953 0.38750613 0.96366262 4281614147
0.58265465 0.38826782 0.96564865 4281745990
0.58519435 0.38865039 0.96663308 4281812296
0.58900744 0.38979125 0.96962047 4281483331
0.59155834 0.39017382 0.97060478 4281286209
0.59411299 0.39055642 0.97158909 4281483588
0.59603095 0.39055988 0.97157198 4281483588
0.59730655 0.39018419 0.97055346 4281220416
0.5992226 0.39018765 0.97053629 4280825658
0.59790826 0.38829535 0.96551239 4280891451
0.59527922 0.38564467 0.9584859 4280956985
0.59327376 0.38337314 0.952461 4281022778
0.59450442 0.38299736 0.95144284 4281088314
0.59703845 0.38337994 0.95242739 4281088314
0.59892076 0.38338333 0.95241052 4281416766
0.6014604 0.38376591 0.95339501 4281482559
0.60004854 0.3818734 0.94837195 4281154107
0.59927905 0.38036007 0.94435024 4281220157
0.59982044 0.37960505 0.94233114 4281088830
0.6010192 0.37922925 0.94131327 4281023037
0.60221416 0.37885341 0.94029546 4280891452
nan nan nan 4281286209
nan nan nan 4281352002
-0.071894996 0.3517673 0.8728286 4279571725
-0.070184007 0.35215026 0.87382048 4279637518
-0.068469271 0.35253319 0.8748123 4279637518
-0.066734329 0.35215646 0.87378967 4279571725
-0.064990424 0.35102004 0.87075257 4279900690
-0.063262247 0.35026342 0.8687228 4280492827
-0.061531145 0.34798735 0.86266428 4280493086
-0.059824735 0.34685087 0.85962754 4280493086
nan nan nan 4281022008
0.54996526 0.40113157 0.99518359 4281219387
0.5501737 0.39999235 0.99216026 4281350973
0.54919869 0.39809129 0.98713309 4281088571
0.54996884 0.39733297 0.98511189 4281088571
0.55014163 0.39619368 0.9820888 4281022778
0.55089486 0.3954353 0.98006773 4281088571
0.55223423 0.39505786 0.97904861 4280956985
0.55356985 0.39468041 0.97802949 4280956985
0.55490172 0.39430293 0.97701043 4280956985
0.55682904 0.39430642 0.9769932 4281088571
0.5617618 0.39621463 0.98198497 4281220157
0.56430143 0.39659908 0.98296946 4281220157
0.56624001 0.39660257 0.98295218 4281483329
0.56757188 0.39622512 0.98193312 4281351743
0.56889999 0.39584765 0.98091406 4281549122
0.57022434 0.39547017 0.97989506 4281614145
0.57154495 0.3950927 0.97887605 4281350973
0.57040495 0.39319134 0.97385043 4281154364
0.56863016 0.39090896 0.96782327 4281285950
0.56868672 0.38976946 0.96480119 4281351743
0.56935185 0.38901094 0.96278095 4281416766
0.57000947 0.38825241 0.96076071 4281548352
0.57190681 0.38825583 0.96074378 4281614145
0.57317871 0.38787824 0.95972526 4281679938
0.57632881 0.38864365 0.96171141 4281548352
0.58011562 0.38979009 0.96469909 4281548352
0.58391374 0.39093652 0.96768671 4281417536
0.58582419 0.39093995 0.96766961 4281483330
0.58900428 0.39170542 0.96965557 4281352002
0.59219187 0.3924709 0.97164142 4281352002
0.59474844 0.39285538 0.97262573 4281417795
0.59666824 0.39285883 0.97260863 4281483588
0.59730339 0.39210024 0.97058856 4281352002
0.59857529 0.39172268 0.96957004 4281417795
0.59725904 0.38982099 0.96454597 4281285952
0.59462816 0.38715723 0.95751923 4281022778
0.59262085 0.38487443 0.95149416 4281022008
0.59515303 0.38525885 0.95247871 4280890422
0.59768891 0.38564327 0.95346326 4280824629
0.60022861 0.38602772 0.95444769 4281087801
0.60211468 0.38603112 0.95443088 4281087801
0.6000455 0.38374823 0.94840634 4281219387
0.59663165 0.38070315 0.94037944 4280825399
0.59716558 0.37994441 0.93836033 4280956985
0.59902161 0.37994775 0.93834376 4281220159
0.60021102 0.37957004 0.93732595 4281351745
0.60072803 0.37881124 0.93530697 4281352002
nan nan nan 4281352003
-0.071939394 0.35463539 0.87588221 4279505932
-0.07022278 0.35502023 0.87687403 4279440139
-0.068482213 0.35464162 0.87585127 4279505932
-0.066737153 0.3538813 0.87382132 4279637518
-0.06499324 0.35273924 0.8707841 4279966483
-0.063269541 0.35236061 0.86976153 4280427034
-0.061536547 0.35007331 0.86370277 4280624413
nan nan nan 4280493085
0.54974234 0.40423745 0.99824315 4281087801
0.54996204 0.40309262 0.99521959 4281285180
0.54958624 0.40156502 0.99119413 4281285437
0.55036765 0.40080294 0.98917276 4280891192
0.54996562 0.39927527 0.98514748 4281022778
0.55013841 0.39813036 0.98212433 4280956985
0.5508917 0.39736825 0.98010319 4281088571
0.55223107 0.39698893 0.97908401 4280956985
0.55297124 0.39622679 0.977063 4280891192
0.5543012 0.39584744 0.97604394 4280628020
0.55622667 0.39585093 0.97602671 4280693813
0.56055641 0.39738569 0.98001683 4281022778
0.56429827 0.39853764 0.98300505 4281022778
0.56623685 0.39854115 0.9829877 4281022778
0.56817544 0.39854464 0.98297042 4281285950
0.56767964 0.39701679 0.97894603 4281285950
0.56777936 0.39587176 0.97592348 4281548609
0.56909245 0.39549237 0.97490454 4281417536
0.56855917 0.39396447 0.97088051 4281417536
0.56801093 0.39243653 0.9668566 4281483329
0.56744766 0.39090857 0.96283281 4281285950
0.56872886 0.39052916 0.96181417 4281416766
0.56938469 0.38976684 0.95979387 4281350973
0.57128012 0.38977027 0.95977694 4281482559
0.57317555 0.3897737 0.95976001 4281416766
0.57632571 0.39054283 0.96174628 4281482559
0.5807417 0.39207777 0.96573561 4281351743
0.58327949 0.39246407 0.96672016 4281285950
0.58645397 0.39323327 0.96870625 4281154364
0.58836633 0.39323673 0.96868914 4281089084
0.59027863 0.39324018 0.96867204 4281220672
0.59219098 0.39324364 0.96865499 4281352002
0.59346282 0.3928642 0.96763641 4281352002
0.59408861 0.39210185 0.96561641 4281417795
0.59663951 0.39248818 0.96660084 4281615174
0.59596378 0.39096001 0.96257806 4281483588
0.59397709 0.388666 0.95655257 4281483329
0.59261775 0.38675487 0.95152867 4281220157
0.59449822 0.38675827 0.95151186 4281153851
0.59768581 0.38752747 0.95349777 4280759606
0.60022551 0.38791379 0.95448232 4280824885
0.60145426 0.38753426 0.95346415 4280758836
0.59938318 0.38524011 0.94743937 4281087801
0.59596753 0.38218006 0.9394123 4280693557
0.59583658 0.38103461 0.93639183 4280759606
0.59569442 0.37988913 0.93337148 4280825401
0.59687442 0.37950954 0.93235373 4280891194
0.59738213 0.37874696 0.93033481 4281088832
nan nan nan 4281220418
-0.068495154 0.3567538 0.87689036 4279440139
-0.066739984 0.35560614 0.87385297 4279374346
-0.065002419 0.35484204 0.87182295 4279374346
-0.063276842 0.35446155 0.87080026 4279440139
nan nan nan 4279637518
0.54777247 0.40620059 0.9982968 4280956215
0.5485782 0.40543482 0.99627513 4281087801
0.54762948 0.40351504 0.99124742 4281087801
0.54724622 0.40197989 0.9872219 4280956215
0.54860622 0.40159875 0.98620248 4280956985
0.54878652 0.40044823 0.98317915 4280956985
0.54954541 0.39968237 0.9811579 4280891192
0.55029684 0.39891651 0.97913671 4281022778
0.55163431 0.39853531 0.97811753 4280956985
0.55296808 0.39815411 0.97709835 4280956985
0.55429804 0.39777288 0.97607923 4280956985
0.55622351 0.39777637 0.97606206 4280825142
0.5599522 0.39893392 0.97905046 4281022265
0.56369215 0.4000915 0.98203874 4281022521
0.56562883 0.40009499 0.98202145 4281088058
0.56695884 0.39971378 0.98100233 4280890679
0.5664593 0.39817843 0.97697783 4280891192
0.56594479 0.39664304 0.97295344 4281022778
0.56725228 0.39626181 0.97193456 4281417536
0.56732762 0.39511111 0.96891212 4281483329
0.56739169 0.39396039 0.96588987 4281351743
0.56929839 0.39396381 0.96587282 4281483329
0.56934559 0.39281306 0.96285069 4281548352
0.57000327 0.39204702 0.96083033 4281482559
0.57252419 0.39243519 0.96181506 4281482302
0.5750488 0.39282334 0.96279973 4281285180
0.57757723 0.39321151 0.9637844 4281285180
0.5807386 0.39398447 0.9657706 4281220157
0.58390743 0.39475739 0.96775681 4281351743
0.58645087 0.3951456 0.9687413 4281417536
0.58836317 0.39514905 0.96872425 4281220157
0.58963877 0.39476773 0.96770561 4281483329
0.59091067 0.39438641 0.96668696 4281417538
0.59217876 0.39400509 0.96566844 4281417537
0.5921585 0.39285421 0.9626469 4281549123
0.59277117 0.39208809 0.9606269 4281417794
0.59273022 0.39093718 0.95760554 4281352001
0.59138221 0.38901669 0.95258141 4281352256
0.59001535 0.38709617 0.94755745 4281285950
0.59254003 0.38748434 0.94854212 4281220157
0.59572202 0.38825729 0.95052814 4281154364
0.59825605 0.38864547 0.95151275 4281154364
0.60079384 0.38903368 0.9524973 4280956728
0.60003936 0.38749787 0.94847512 4281022265
0.59728664 0.38480762 0.94144905 4281154364
0.59715945 0.38365653 0.93842846 4281088573
0.59635621 0.38212064 0.93440664 4280891194
0.5962047 0.38096952 0.93138629 4280956987
0.59737909 0.38058802 0.93036854 4280957246
nan nan nan 4281088832
nan nan nan 4279176713
nan nan nan 4279176967
-0.068508111 0.35886973 0.87792945 4279176967
-0.066759288 0.3581019 0.87589926 4279045381
-0.065024339 0.35771954 0.8748765 4279111174
-0.063293129 0.35733718 0.87385374 4279242760
-0.06156829 0.35734031 0.87383837 4279505678
0.54661202 0.4073942 0.99632871 4280890165
0.54683363 0.40623814 0.99330491 4280890165
0.54646164 0.40469551 0.98927909 4280890165
0.54665881 0.40353942 0.98625553 4280956215
0.54801697 0.40315637 0.98523611 4281153594
0.5493713 0.40277335 0.98421675 4280891192
0.55072194 0.40239027 0.98319739 4281022778
0.55147707 0.40162069 0.98117614 4280825399
0.5534119 0.40162417 0.98115885 4280759606
0.55475128 0.40124109 0.98013955 4281022265
0.5560869 0.40085801 0.97912037 4280890422
0.55801797 0.4008615 0.97910315 4281153594
0.56055009 0.40125155 0.98008776 4281087801
0.56248307 0.40125504 0.98007053 4281087801
0.56381118 0.40087193 0.97905135 4281022008
0.56452882 0.40010226 0.9770304 4280693556
0.56402183 0.39855939 0.97300583 4281022778
0.56472075 0.39778969 0.97098505 4281154364
0.5666368 0.39779314 0.97096795 4281285950
0.56671029 0.39663681 0.96794546 4281351743
0.56738859 0.39586708 0.96592486 4281220157
0.56867731 0.39548391 0.96490604 4281351743
0.56934249 0.39471412 0.96288556 4281614145
0.57062185 0.39433095 0.96186686 4281679938
0.57252109 0.39433438 0.96184987 4281745474
0.57567114 0.39511102 0.96383631 4281350973
0.57757413 0.39511445 0.96381927 4281087801
0.58010626 0.39550453 0.96480393 4280759606
0.58264214 0.39589459 0.96578854 4281088571
0.58518183 0.39628464 0.96677315 4281220157
0.58709037 0.3962881 0.96675611 4281154364
0.58708888 0.39513162 0.96373427 4281285950
0.58771467 0.39436179 0.96171415 4281614658
0.58705205 0.39281863 0.95769095 4281483072
0.58765912 0.39204875 0.95567101 4281483072
0.58890283 0.39166552 0.95465261 4281351743
0.58949679 0.39089561 0.95263278 4281351999
0.58943528 0.38973904 0.94961149 4281154877
0.59001231 0.38896909 0.94759178 4280891192
0.58993018 0.3878125 0.94457072 4280759606
0.59179747 0.38781586 0.94455403 4280891448
0.59497571 0.38859257 0.94654018 4280825399
0.59750408 0.38898262 0.94752485 4280956985
0.59937704 0.38898599 0.9475081 4281088571
0.59860569 0.38744265 0.94348592 4281154364
0.59848231 0.38628596 0.94046521 4281483330
0.597018 0.3843559 0.93544191 4281285952
0.5968684 0.38319916 0.93242139 4281088573
0.59804463 0.38281581 0.93140364 4280957244
0.60055804 0.38320583 0.93238842 4281022782
nan nan nan 4279176713
-0.06851095 0.36060205 0.87796122 4279242762
-0.066762127 0.3598305 0.87593096 4279045381
-0.06502717 0.35944626 0.87490821 4279111174
-0.063300453 0.35944939 0.87489277 4279308553
-0.061576355 0.35983986 0.87588465 4279374346
nan nan nan 4280758322
0.54603028 0.40896875 0.99536258 4280890165
0.54624999 0.40780705 0.99233866 4280955958
0.54645842 0.40664533 0.98931485 4280890422
0.54723984 0.40587202 0.9872933 4280956215
0.54859984 0.40548712 0.98627383 4280956215
0.55054402 0.40549061 0.98625648 4280759606
0.55248821 0.40549412 0.98623908 4281088571
0.5538407 0.4051092 0.98521972 4281088571
0.55518943 0.40472427 0.98420036 4280891192
0.55653447 0.40433934 0.983181 4281088057
0.55787569 0.40395439 0.9821617 4280758836
0.55981237 0.40395787 0.98214442 4280890422
0.56054693 0.40318447 0.98012322 4281087801
0.56127399 0.40241107 0.97810215 4281087801
0.56199354 0.40163764 0.97608107 4280956215
0.56331229 0.40125266 0.97506201 4280956985
0.56280154 0.39970231 0.97103733 4281220157
0.56288624 0.39854038 0.96801466 4281022778
0.56418437 0.39815533 0.96699572 4281220157
0.56547874 0.39777032 0.96597683 4281220157
0.56676936 0.39738527 0.96495801 4281022778
0.56867421 0.39738873 0.96494102 4281154364
0.56995922 0.39700368 0.9639222 4281220157
0.57061875 0.39623013 0.96190172 4281219901
0.57189435 0.39584509 0.96088302 4281416766
0.57441717 0.39623699 0.96186775 4281350973
0.5769437 0.39662892 0.96285248 4281350973
0.57884473 0.39663234 0.96283549 4281153594
0.58200794 0.39741278 0.96482188 4280891192
0.58454573 0.39780471 0.96580648 4280891192
0.58518279 0.39703113 0.96378618 4281154364
0.58390224 0.39509201 0.9587611 4281351743
0.58388013 0.3939299 0.95573938 4281548352
0.58256584 0.39199072 0.95071459 4281614145
0.58251745 0.39082855 0.94769305 4281350973
0.5843904 0.39083192 0.94767636 4281416766
0.5862633 0.39083529 0.94765961 4281417536
0.58748835 0.39045015 0.94664133 4281220157
0.58870959 0.39006498 0.94562316 4280825399
0.58797199 0.38851419 0.9416005 4280693813
0.58852655 0.38774049 0.93958092 4280759349
0.59235084 0.38890946 0.94256866 4280825142
0.59421444 0.38891283 0.94255203 4280890422
0.59673721 0.38930473 0.94353682 4281022008
0.5972805 0.388531 0.94151735 4281219387
0.59781635 0.38775724 0.93949795 4281351743
0.59701502 0.38620633 0.93547583 4281351743
0.59619868 0.38465542 0.93145388 4281220415
0.59670448 0.3838816 0.92943478 4281088829
0.5985437 0.38388494 0.92941833 4281088830
-0.068523906 0.36272362 0.87900043 4279176713
-0.066773206 0.36194828 0.87697011 4279045127
-0.065049112 0.36234063 0.87796205 4279111174
-0.06331677 0.36234376 0.87794656 4279176967
-0.061584432 0.36234689 0.87793112 4279374346
nan nan nan 4281545261
0.54521936 0.41170681 0.99742043 4280692529
0.54544848 0.41053951 0.99439639 4280692786
0.54566634 0.40937218 0.99137241 4280890165
0.54587293 0.40820485 0.98834848 4281022008
0.54723662 0.40781808 0.98732901 4280956215
0.54859662 0.4074313 0.98630947 4280758836
0.55054086 0.40743479 0.98629212 4280759606
0.55248505 0.40743831 0.98627478 4280891192
0.55442923 0.40744182 0.98625737 4281022265
0.55637342 0.40744531 0.98624003 4281153850
0.55772215 0.40705851 0.98522061 4281285180
0.55846983 0.40628138 0.98319924 4281022008
0.55980921 0.40589458 0.98217994 4280758836
0.55994266 0.4047271 0.97915673 4280627250
0.55946195 0.40316927 0.97513163 4280956215
0.5601759 0.40239209 0.97311056 4280824629
0.56027561 0.40122458 0.97008765 4281022778
0.5597555 0.3996667 0.96606296 4281154364
0.5598309 0.3984991 0.96304023 4280825399
0.56111962 0.39811221 0.96202135 4281022778
0.56240463 0.39772528 0.96100253 4281088571
0.56430197 0.39772871 0.9609856 4281088571
0.56681722 0.39812249 0.96197045 4280956985
0.56871641 0.39812592 0.96195352 4281022778
0.56875056 0.39695826 0.95893115 4280956985
0.56939697 0.39618096 0.95691073 4280956985
0.57191223 0.39657474 0.95789558 4281153595
0.57505858 0.39735886 0.95988214 4281219389
0.57758325 0.39775267 0.96086693 4281416768
0.58074272 0.39853683 0.96285343 4281088573
0.58264375 0.39854026 0.96283644 4281022779
0.58200556 0.39698216 0.95881277 4281154364
0.58389914 0.39698559 0.95879585 4281088571
0.58196127 0.39464667 0.9527691 4281088571
0.58064139 0.39269811 0.94774419 4280891192
0.58058739 0.39153031 0.94472259 4280825142
0.58309889 0.39192405 0.9457075 4280825399
0.58496809 0.39192742 0.94569081 4281022778
0.58618939 0.39154041 0.94467258 4281285950
0.58740687 0.39115337 0.94365436 4281088571
0.58666557 0.38959506 0.93963158 4281022265
0.58656281 0.38842717 0.93661046 4280890422
0.58841515 0.38843051 0.93659395 4280824629
0.58961016 0.38804343 0.9355759 4280824629
0.59211981 0.38843721 0.93656087 4280824629
0.59397215 0.38844055 0.9365443 4280824629
0.59449857 0.38766301 0.93452489 4280956728
0.59368789 0.38610461 0.93050277 4281154364
0.59352887 0.3849366 0.92748219 4281154621
nan nan nan 4281154620
nan nan nan 4281286463
-0.068536878 0.36484891 0.88003975 4279110920
-0.06679254 0.36446095 0.87901676 4278979334
-0.065071069 0.36524627 0.88101614 4279045381
-0.063337609 0.36564052 0.88200802 4279505419
0.54440099 0.41445237 0.99947852 4280428845
0.54406273 0.41288731 0.99545205 4280494894
0.54544526 0.41249868 0.99443233 4280560944
0.5445022 0.41054145 0.98940384 4280561200
0.54528737 0.40976062 0.98738205 4280627250
0.54723346 0.40976414 0.98736471 4280758836
0.54917955 0.40976766 0.9873473 4280758836
0.55171353 0.41016334 0.98833203 4281022008
0.55425131 0.41055903 0.98931676 4281087801
0.5562011 0.41056255 0.9892993 4281153594
0.5575574 0.41017386 0.98827982 4281087801
0.55771899 0.40900084 0.98525625 4281022008
0.55727202 0.40743557 0.98123074 4280890422
0.55800843 0.40665469 0.97920942 4280758836
0.55813628 0.40548158 0.9761861 4280890422
0.55764997 0.40391624 0.97216094 4280956215
0.55835831 0.4031353 0.97013986 4280824629
0.557239 0.40117773 0.96511298 4280628020
0.55731815 0.40000454 0.96209013 4280759606
0.55738598 0.39883134 0.9590674 4280825399
0.55805492 0.39805031 0.95704669 4281022778
0.55933058 0.39766151 0.95602793 4281022778
0.5612185 0.3976649 0.95601106 4280957242
0.56310648 0.3976683 0.95599419 4280956985
0.56747371 0.39924064 0.95998466 4280891192
0.56750405 0.39806736 0.95696229 4280759606
0.56752318 0.39689407 0.95393997 4280890679
0.57003284 0.39728969 0.95492494 4281153595
0.57380086 0.39846984 0.9579134 4281219902
0.57695091 0.39925772 0.95990002 4281351232
0.57947743 0.3996534 0.96088481 4281154366
0.58137476 0.39965683 0.96086782 4281417537
0.58009803 0.39769897 0.95584238 4281549122
0.57943922 0.39613333 0.95181876 4281549122
0.57812679 0.39417541 0.94679356 4281549122
0.57615525 0.39182517 0.94076693 4281549122
0.57608813 0.3906517 0.93774539 4281220157
0.57923073 0.39143962 0.93973207 4280825399
0.58173472 0.39183524 0.9407171 4281022521
0.58359456 0.39183858 0.94070047 4281022265
0.58480453 0.39144966 0.9396823 4281022008
0.58470744 0.39027616 0.93666101 4281153594
0.58459908 0.38910264 0.93363982 4281087801
0.58644581 0.38910595 0.93362337 4281087801
0.58697784 0.38832468 0.93160385 4280956215
0.58750242 0.38754341 0.92958438 4280825142
0.5863719 0.38363025 0.91952074 4280956985
0.58819234 0.38363355 0.91950446 4280956985
0.58934426 0.38324451 0.91848677 4281023291
nan nan nan 4281088571
nan nan nan 4279045640
nan nan nan 4278979334
-0.0685701 0.36776391 0.88309407 4278979334
-0.066820137 0.36737406 0.88207102 4278979334
-0.065086678 0.36777017 0.88306296 4279373575
-0.063353963 0.36855927 0.88506228 4279504905
0.54046059 0.41641381 0.99954981 4280823089
0.54185623 0.41602334 0.99852991 4280560173
0.54209846 0.41484484 0.99550551 4280494637
0.54175276 0.41327226 0.99147898 4280363308
0.54312778 0.41288176 0.99045926 4280297771
0.54275769 0.41130915 0.98643291 4280495407
0.54470187 0.41131264 0.98641557 4280758579
0.54781443 0.41210425 0.98840261 4280561457
0.54976243 0.41210777 0.9883852 4280561457
0.55288625 0.41289935 0.99037206 4280824629
0.55542773 0.41329694 0.99135679 4280890422
0.55738133 0.41330045 0.99133933 4281022008
0.55814773 0.41251588 0.98931766 4281153594
0.55712038 0.41054907 0.98428977 4280890422
0.5554769 0.40818819 0.97825998 4280758836
0.55560851 0.40700948 0.97523659 4280627250
0.55572891 0.40583074 0.97221327 4280758836
0.55644095 0.40504605 0.97019207 4280693043
0.55654067 0.40386727 0.96716899 4280890422
0.55602252 0.4022944 0.96314394 4280759606
0.55609787 0.40111557 0.96012104 4280825399
0.55677247 0.40033081 0.9581002 4280891192
0.55805182 0.39994013 0.95708138 4280891192
0.55932748 0.39954945 0.95606256 4281023291
0.56059933 0.39915875 0.95504379 4281023291
0.5624854 0.39916214 0.95502692 4280825912
0.56437153 0.39916554 0.95501006 4280825912
0.56501418 0.39838073 0.95298952 4280562740
0.56502581 0.39720181 0.94996715 4280628533
