# .PCD v0.7 - Point Cloud Data file format
VERSION 0.7
FIELDS x y z rgba
SIZE 4 4 4 4
TYPE F F F U
COUNT 1 1 1 1
WIDTH 1102
HEIGHT 1
VIEWPOINT 0 0 0 1 0 0 0
POINTS 1102
DATA ascii
-0.1004233 0.31786391 0.78744525 4280495910
-0.098954894 0.31862253 0.78944641 4280495654
-0.097433262 0.31900328 0.79043996 4280495655
-0.095907882 0.31938401 0.79143345 4280429863
-0.094336778 0.31938684 0.79141945 4280495399
-0.092725568 0.31901175 0.79039788 4280561193
-0.09111812 0.31863669 0.78937638 4280626729
-0.089514412 0.31826156 0.78835493 4280494888
-0.087948933 0.31826439 0.78834093 4280626474
-0.086448655 0.31902307 0.79034179 4280691754
-0.084971599 0.3201597 0.79335004 4280493864
-0.083512142 0.32167429 0.79736555 4291875285
-0.081956767 0.3220551 0.7983588 4291151562
-0.080397636 0.32243589 0.79935199 4291086027
-0.078834757 0.3228167 0.80034518 4291283406
-0.077246778 0.32281956 0.80033094 4291414992
-0.07563933 0.32244447 0.79930949 4291349199
-0.07405322 0.32244733 0.79929531 4291349199
-0.072482847 0.32282814 0.80028838 4291414735
-0.070922568 0.32358694 0.80228871 4291480528
-0.069330841 0.3235898 0.80227453 4291480272
-0.06775932 0.32434863 0.80427474 4291480271
-0.066163845 0.32435149 0.80426049 4291414735
-0.064562015 0.3239764 0.80323905 4291414992
-0.062968411 0.32397929 0.8032248 4291480528
-0.06137481 0.32398215 0.80321056 4291612114
-0.059781205 0.32398504 0.80319631 4291546835
-0.058187604 0.3239879 0.80318213 4291546835
-0.056590978 0.32436877 0.80417496 4291612884
-0.0549955 0.32437164 0.80416071 4291678677
-0.053393252 0.32475254 0.80515355 4291810007
-0.051778607 0.32551143 0.8071534 4291744214
-0.050177503 0.32551432 0.8071391 4292467679
-0.048551612 0.3262732 0.80913883 4288256926
-0.046918217 0.32703212 0.81113851 4279901213
-0.045277324 0.32779106 0.81313813 4280822059
-0.043701015 0.32703793 0.81110978 4281151021
nan nan nan 4281939254
nan nan nan 4282005561
nan nan nan 4282795077
-0.013298522 0.32595882 0.80781674 4282597699
-0.011751063 0.32558361 0.80679578 4283124557
-0.010264745 0.32483032 0.8047682 4292730336
-0.0087266602 0.32445511 0.80374736 4292401372
-0.0071311826 0.32445797 0.80373311 4292401629
-0.005598722 0.32408276 0.80271226 4292270044
-0.0040700105 0.32370752 0.80169147 4292270558
-0.0025450492 0.32333231 0.80067074 4292270558
-0.00095519645 0.32333517 0.8006565 4292270558
0.00070517219 0.32371613 0.8016488 4292402144
0.0022968999 0.32371902 0.80163461 4292204765
0.0038886275 0.32372189 0.80162036 4292204765
0.0054803551 0.32372475 0.80160618 4292204765
0.0070720827 0.32372764 0.80159193 4292204765
0.0085839201 0.32335237 0.80057126 4292270814
0.010092009 0.3229771 0.79955065 4292271071
0.011596347 0.32260182 0.7985301 4292205278
0.01318245 0.32260469 0.79851592 4292336351
0.014855943 0.32298571 0.79950809 4292336351
0.016533185 0.3233667 0.80050027 4292204765
0.018214175 0.32374772 0.80149239 4292138972
0.019805904 0.32375059 0.80147815 4292139227
0.021397632 0.32375348 0.80146396 4292270813
0.022892596 0.32337818 0.80044347 4292270811
0.024482448 0.32338104 0.80042922 4292731362
0.025971789 0.32300574 0.79940879 4283125582
0.02786693 0.32414314 0.80241328 4281151792
0.029564794 0.32452416 0.80340523 4281678134
0.030947996 0.3237707 0.80137861 4281481011
0.032755751 0.32452995 0.80337673 4281415216
0.034790777 0.32604554 0.80738711 4281546802
0.036617275 0.32680482 0.80938506 4281481009
0.038110364 0.32642955 0.80836457 4281481009
0.039484195 0.32567602 0.80633807 4281481011
0.040967908 0.32530072 0.80531764 4281546804
0.042805657 0.32606003 0.80731553 4281678390
0.044772044 0.32719752 0.81031936 4281546804
0.046380643 0.32720041 0.810305 4281612597
0.047989246 0.32720333 0.81029063 4281678388
0.05010489 0.32871911 0.81430024 4282467906
0.051463719 0.32796556 0.81227386 4282862664
0.05281505 0.32721204 0.81024748 4282071867
0.053629339 0.32494557 0.80419737 4282071867
0.054823913 0.32381377 0.80116534 4292138455
0.05641564 0.32381663 0.8011511 4291875026
0.058007367 0.32381952 0.80113685 4291809233
0.059599094 0.32382238 0.80112267 4292135362
0.061190821 0.32382524 0.80110842 4290488977
0.062782548 0.32382813 0.80109423 4290160257
0.064228766 0.32345274 0.80007416 4290093951
0.065818623 0.3234556 0.80005997 4290224773
0.067408472 0.32345846 0.80004573 4290356622
0.069149457 0.3238396 0.80103731 4289699981
nan nan nan 4287924089
-0.15804157 0.31856385 0.78597432 4279963400
-0.15648171 0.31856668 0.78596038 4288580982
-0.15492186 0.31856948 0.78594643 4288778354
-0.15347522 0.31895196 0.78694069 4288845688
-0.15202484 0.31933445 0.7879349 4288845187
-0.15057071 0.31971693 0.7889291 4291082938
-0.14932801 0.32085875 0.7919395 4288977826
-0.14796835 0.32162094 0.79394168 4288386459
-0.14639349 0.32162377 0.79392761 4288519072
-0.14471667 0.32124692 0.79290551 4288782501
-0.14304359 0.32087007 0.79188335 4290295740
-0.14147249 0.32087293 0.79186934 4291151305
-0.13990138 0.32087576 0.79185528 4291019976
-0.13842475 0.32125828 0.79284924 4291743186
-0.13675918 0.32088143 0.7918272 4291743185
-0.13527879 0.32126397 0.79282117 4291874772
-0.13379467 0.32164648 0.79381508 4291742674
-0.13221981 0.32164934 0.79380101 4291611344
-0.13064495 0.32165217 0.79378694 4291742417
-0.1290701 0.32165501 0.79377288 4292005332
-0.12749524 0.32165787 0.79375881 4292465883
-0.12599987 0.32204041 0.7947526 4292334554
-0.12426794 0.32128382 0.79272282 4292400860
-0.12254351 0.3205272 0.79069304 4292072151
-0.12090043 0.32015032 0.78967118 4290953670
-0.11933307 0.32015312 0.78965718 4282006591
-0.11783582 0.32053569 0.79065096 4279244053
-0.11626659 0.32053852 0.79063696 4280033825
-0.11456466 0.31978187 0.78860742 4280034081
-0.11293471 0.31940496 0.78758568 4280034594
-0.1113711 0.31940776 0.78757173 4280034594
-0.10986822 0.31979033 0.78856546 4280166691
-0.10830274 0.31979316 0.78855145 4280100898
-0.10673726 0.319796 0.7885375 4280100898
-0.10511668 0.31941906 0.78751582 4279903519
-0.10344663 0.31866235 0.78548658 4279903774
-0.10188676 0.31866515 0.78547263 4279772444
-0.10037639 0.31904775 0.7864663 4279706653
-0.098862261 0.31943032 0.78745997 4279969825
-0.097390108 0.32019272 0.78946114 4279772446
-0.095866606 0.32057533 0.79045469 4279969313
-0.094297372 0.32057816 0.79044068 4279837727
-0.092688039 0.32020119 0.78941911 4279969313
-0.091082461 0.31982422 0.78839761 4280035107
-0.089480631 0.31944725 0.78737617 4279969314
-0.087917022 0.31945008 0.78736216 4279771678
-0.086418621 0.32021251 0.78936315 4279903010
-0.084943451 0.32135475 0.79237145 4282336070
-0.083485886 0.32287684 0.79638714 4292138457
-0.081932381 0.3232595 0.79738045 4291611600
-0.080375135 0.32364216 0.7983737 4291414221
-0.078814134 0.32402486 0.79936689 4291348685
-0.077228032 0.32402772 0.79935277 4291348685
-0.075661406 0.32441041 0.8003459 4291414478
-0.074073426 0.32441327 0.80033171 4291217100
-0.072501183 0.32479596 0.80132484 4291545551
-0.070939034 0.32555851 0.80332524 4291545551
-0.069345437 0.32556137 0.80331099 4291545295
-0.067761935 0.3259441 0.804304 4291545295
-0.066174686 0.32632682 0.80529702 4291545551
-0.064570978 0.32594985 0.80427551 4291611344
-0.062975504 0.32595274 0.80426127 4291677137
-0.061380025 0.3259556 0.80424702 4291676881
-0.05978455 0.32595849 0.80423278 4291808467
-0.058189072 0.32596135 0.80421847 4291874260
-0.056590576 0.3263441 0.80521137 4291874516
-0.054993223 0.32634699 0.80519712 4291940310
-0.053389102 0.32672974 0.80618995 4292071639
-0.051781233 0.3271125 0.80718279 4292006359
-0.05018013 0.32711539 0.80716848 4292664544
-0.048566636 0.32749817 0.8081612 4285756279
-0.04694939 0.32788095 0.80915391 4280295971
-0.045360684 0.32750395 0.80813259 4280954671
-0.043775722 0.32712695 0.80711126 4281020719
nan nan nan 4281940538
nan nan nan 4282334528
nan nan nan 4282927176
-0.013462069 0.32642192 0.80482608 4282729798
-0.01192023 0.32604483 0.80380511 4283453522
-0.010324754 0.32604769 0.80379087 4292730592
-0.00878854 0.3256706 0.80276996 4292335836
-0.0072560762 0.32529351 0.80174911 4292335836
-0.0056643486 0.32529637 0.80173492 4292270300
-0.004137509 0.32491928 0.80071408 4292205021
-0.0026144194 0.32454216 0.79969329 4292336351
-0.0010264416 0.32454503 0.7996791 4292204765
0.00063204917 0.32492787 0.80067146 4292270558
0.0022219019 0.32493076 0.80065727 4292139228
0.0038117548 0.32493362 0.80064309 4292204765
0.0054016076 0.32493648 0.80062884 4292138972
0.0069914605 0.32493934 0.80061466 4292204765
0.0085014263 0.32456222 0.79959399 4292336351
0.010007642 0.32418507 0.79857337 4292204765
0.011593746 0.32418793 0.79855919 4292204765
0.013094338 0.32381076 0.79753864 4292204765
0.014765952 0.32419366 0.79853088 4292270558
0.016441315 0.32457653 0.79952306 4292138972
0.018029295 0.32457939 0.79950887 4292073179
0.019710284 0.32496229 0.80050105 4292205020
0.02120525 0.32458511 0.7994805 4292139227
0.022793228 0.324588 0.79946631 4292139226
0.024282571 0.32421082 0.79844582 4292599776
0.025868675 0.32421368 0.79843169 4283190864
0.027761932 0.32535666 0.80143625 4281283122
0.029457919 0.32573959 0.80242831 4281480757
0.031051522 0.32574248 0.80241406 4281546804
0.032753132 0.32612541 0.803406 4281415216
0.034678262 0.32726845 0.80641031 4281481009
0.036502883 0.32803148 0.80840838 4281546802
0.038107734 0.32803437 0.80839401 4281481010
0.039481569 0.32727712 0.8063674 4281546804
0.041082669 0.32728001 0.80635309 4281546804
0.04280303 0.32766297 0.80734491 4281612597
0.044406008 0.32766587 0.80733061 4281612597
0.045885976 0.32728869 0.80631018 4281678388
0.047362193 0.32691148 0.80528986 4281875767
0.049848724 0.329575 0.81231785 4282402113
0.05120381 0.32881773 0.81029135 4282533699
0.052551396 0.32806042 0.80826497 4281941308
0.053759102 0.32692301 0.8052327 4281941308
0.054821301 0.32540548 0.80119449 4292335834
0.056140766 0.32464814 0.79916841 4291941076
0.057728745 0.324651 0.79915422 4291940308
0.059456602 0.32503399 0.80014592 4292071892
0.061046455 0.32503685 0.80013174 4290358674
0.062492676 0.32465959 0.79911166 4290094467
0.064080656 0.32466245 0.79909748 4290094208
0.065668635 0.32466534 0.79908323 4290093438
0.067256615 0.3246682 0.79906905 4290422414
0.068844587 0.32467106 0.79905486 4290028686
nan nan nan 4287792499
-0.15756874 0.31859761 0.7819699 4278715138
-0.15601638 0.31860042 0.78195602 4284371267
-0.15434892 0.31822169 0.78093392 4289041274
-0.1530249 0.31898755 0.78293651 4288647550
-0.15169336 0.31975341 0.78493899 4289964450
-0.15013537 0.31975624 0.7849251 4290097073
-0.14900778 0.32128522 0.78894383 4281280814
-0.14765376 0.32205114 0.79094613 4280754984
-0.14608453 0.32205397 0.79093212 4280755497
-0.14441332 0.32167524 0.78991002 4280492580
-0.14274587 0.32129651 0.78888786 4280229664
-0.14108217 0.32091779 0.78786582 4280427043
-0.13971126 0.32168373 0.789868 4280229664
-0.13823839 0.32206813 0.79086202 4280098079
-0.13666914 0.32207096 0.79084802 4280229665
-0.1350092 0.3216922 0.78982598 4280097822
-0.13344184 0.32169503 0.78981197 4279834396
-0.13178751 0.32131627 0.78878999 4279702810
-0.13030712 0.32170069 0.78978395 4279834396
-0.12890622 0.3224667 0.79178584 4280294177
-0.12741648 0.32285112 0.79277974 4280688935
-0.12576401 0.32247236 0.79175776 4281281072
-0.12396011 0.3213304 0.78872007 4281281328
-0.12209172 0.31980681 0.78467453 4280558376
-0.12045989 0.31942803 0.78365278 4286545796
-0.11897576 0.31981245 0.78464669 4291020232
-0.11748789 0.32019687 0.7856406 4291547088
-0.11592802 0.32019967 0.78562665 4291481550
-0.11430182 0.31982088 0.78460497 4291416527
-0.11274384 0.31982368 0.78459102 4291285199
-0.11112326 0.31944486 0.78356934 4290627269
-0.10962787 0.31982931 0.78456318 4290693574
-0.10812875 0.32021374 0.78555697 4290298815
-0.1065689 0.32021657 0.78554308 4290167229
-0.10495393 0.31983772 0.7845214 4290035643
-0.10334273 0.3194589 0.78349984 4289575092
-0.10173526 0.31908005 0.78247827 4289114539
-0.10018104 0.31908286 0.78246439 4288390816
-0.098674409 0.31946731 0.78345811 4287864474
-0.097209759 0.32023343 0.78545946 4286877579
-0.09569376 0.32061791 0.78645313 4287140751
-0.094174005 0.32100239 0.78744674 4286548614
-0.092570297 0.32062355 0.78642523 4286548614
-0.091008566 0.32062635 0.78641123 4286022270
-0.089410484 0.3202475 0.78538978 4285693562
-0.087850623 0.32025033 0.78537583 4285561719
-0.086290769 0.32025313 0.78536189 4284969328
-0.084823109 0.321401 0.78837043 4284903278
-0.083373055 0.32293054 0.79238629 4290625218
-0.081854038 0.32369676 0.7943871 4290756291
-0.080352627 0.32484469 0.79739529 4291084999
-0.078816734 0.32561094 0.79939598 4291545550
-0.077251986 0.3259955 0.80038923 4291479757
-0.075683489 0.32638007 0.80138242 4291742674
-0.07409364 0.32638294 0.80136824 4291742674
-0.072519518 0.3267675 0.80236137 4292202968
-0.070955507 0.32753381 0.80436182 4292531676
-0.069372013 0.32791841 0.80535483 4292465883
-0.067784771 0.32830301 0.80634791 4292531676
-0.066193774 0.32868761 0.80734086 4292400090
-0.064592674 0.3286905 0.80732656 4292531676
-0.062991567 0.32869339 0.80731225 4292465883
-0.061393078 0.32907802 0.8083052 4292202198
-0.059789367 0.32869917 0.80728364 4292333784
-0.058188267 0.32870206 0.80726933 4292399320
-0.056584146 0.32908669 0.80826223 4292465370
-0.054981172 0.32908958 0.80824792 4292662749
-0.053371429 0.32947421 0.80924076 4292663262
-0.051757935 0.32985887 0.81023353 4292597983
-0.050161727 0.32947999 0.80921203 4292993509
-0.048594046 0.32833761 0.80617642 4282466886
-0.047009084 0.32795873 0.80515504 4279441176
-0.045508567 0.32567102 0.79909843 4279441176
-0.043922465 0.32567388 0.79908425 4280823599
-0.042336363 0.32567674 0.79907006 4280954672
-0.040750258 0.3256796 0.79905593 4281283636
-0.039164156 0.32568246 0.79904175 4281283636
nan nan nan 4281414452
-0.036046728 0.32492462 0.79699945 4281742904
nan nan nan 4281940540
nan nan nan 4282072126
nan nan nan 4282532677
nan nan nan 4282598470
nan nan nan 4282861383
nan nan nan 4282861896
nan nan nan 4282993482
-0.018736862 0.32419237 0.79483044 4282862153
-0.017158259 0.32419521 0.79481632 4282993996
-0.015527893 0.32457989 0.79580897 4283059789
-0.013893778 0.32496458 0.79680157 4282664520
-0.012255914 0.32534927 0.79779416 4283519573
-0.010614299 0.32573396 0.7987867 4292993509
-0.0089689353 0.32611868 0.79977918 4292335323
-0.0073809577 0.32612154 0.79976499 4292335323
-0.0058559901 0.32574254 0.79874414 4292401116
-0.004334772 0.32536355 0.79772335 4292335580
-0.0027505436 0.32536641 0.79770923 4292335836
-0.0011663154 0.32536927 0.79769504 4292401629
0.00041791296 0.32537213 0.79768091 4292401629
0.0020745257 0.32575685 0.79867333 4292335837
0.003660629 0.32575971 0.79865915 4292335837
0.0051705982 0.32538071 0.79763848 4292335837
0.0067548263 0.32538354 0.79762429 4292401630
0.0082591707 0.32500452 0.79660368 4292467423
0.009759766 0.32462549 0.79558307 4292401630
0.011340245 0.32462835 0.79556894 4292335837
0.012920723 0.32463121 0.79555482 4292204251
0.014588585 0.32501596 0.79654711 4292335837
0.016170938 0.32501879 0.79653299 4292204251
0.017662158 0.32463977 0.79551244 4292270044
0.019242637 0.3246426 0.79549831 4292204250
0.020728234 0.32426354 0.79447782 4292138970
0.02221008 0.32388449 0.79345739 4292073434
0.023885442 0.32426924 0.79444963 4292599778
0.025464045 0.3242721 0.79443556 4284112479
0.027145032 0.32465687 0.79542774 4281283380
0.028829766 0.32504165 0.79641986 4281743930
0.030412119 0.32504448 0.79640573 4281481012
0.031994473 0.32504734 0.79639161 4281481268
0.033466946 0.32466826 0.79537123 4281481268
0.035270937 0.32543498 0.79736954 4281283889
nan nan nan 4281481268
nan nan nan 4281546804
nan nan nan 4281744183
nan nan nan 4281875769
nan nan nan 4281875769
0.052697446 0.32546642 0.79721385 4281875001
0.054281674 0.32546929 0.79719967 4289835700
0.055593647 0.32470816 0.79517359 4291941076
0.057174128 0.32471102 0.79515946 4292136917
0.058754604 0.32471389 0.79514533 4292071122
0.060476836 0.32509872 0.79613715 4292399309
0.061915562 0.32471958 0.79511708 4290424217
0.063496038 0.32472244 0.79510295 4290159232
0.064929143 0.32434329 0.79408294 4290290815
0.066358492 0.32396412 0.79306298 4290356870
0.067935221 0.32396695 0.79304886 4290094476
0.069664955 0.32435182 0.79404062 4288251770
-0.15876146 0.31899697 0.77898729 4278848003
-0.15709588 0.31861636 0.77796513 4279964428
-0.15555102 0.31861916 0.77795136 4288318328
-0.15400617 0.31862193 0.77793753 4289039987
-0.15257454 0.31900814 0.77893198 4288974456
-0.15136185 0.32016116 0.7819429 4290886842
-0.14980949 0.32016397 0.78192902 4285756276
-0.14879516 0.32208386 0.78695613 4281281326
-0.14744487 0.32285351 0.78895855 4281479218
-0.1456717 0.32208949 0.78692824 4281348144
-0.14400798 0.32170889 0.78590614 4281150251
-0.14234802 0.32132825 0.7848841 4280887593
-0.1409865 0.32209793 0.78688639 4280888106
-0.13961747 0.32286763 0.78888863 4281019435
-0.138052 0.32287046 0.78887463 4281084458
-0.13639392 0.32248983 0.78785259 4280887593
-0.13464884 0.32172576 0.78582251 4280953129
-0.13291129 0.32096165 0.7837925 4281150508
-0.13135518 0.32096449 0.78377861 4281018665
-0.12996928 0.32173419 0.78578073 4281018154
-0.12865911 0.32288739 0.7887907 4281017898
-0.12725635 0.32365716 0.7907927 4280952362
-0.12560764 0.32327652 0.78977072 4281083692
-0.12365226 0.32136199 0.78471702 4280755241
-0.12171563 0.3194474 0.77966356 4279505431
-0.12016702 0.3194502 0.77964967 4288650914
-0.11861841 0.319453 0.77963585 4291546575
-0.11721002 0.32022277 0.78163779 4290757829
-0.11572589 0.32060906 0.78263175 4290692292
-0.11417166 0.32061186 0.78261787 4290626757
-0.11255295 0.32023117 0.78159618 4290692807
-0.11093799 0.31985047 0.7805745 4290430147
-0.10944824 0.32023677 0.78156841 4290495940
-0.10795473 0.32062307 0.78256232 4290496195
-0.1064005 0.32062587 0.78254843 4290627780
-0.10479116 0.32024518 0.7815268 4290627780
-0.10318558 0.31986445 0.78050524 4290693573
-0.10158374 0.31948373 0.77948368 4290627780
-0.10003513 0.31948653 0.77946985 4290627780
-0.098486528 0.3194893 0.77945602 4290693573
-0.097029388 0.32025915 0.78145748 4290693573
-0.095520891 0.32064551 0.78245121 4290627780
-0.094008639 0.32103184 0.78344494 4290627526
-0.092452534 0.32103464 0.78343105 4290693319
-0.090858191 0.32065392 0.78240955 4290824905
-0.089303963 0.32065672 0.78239572 4290824648
-0.087749735 0.32065952 0.78238183 4290956234
-0.08622811 0.32104588 0.78337544 4291087050
-0.084702738 0.32143223 0.78436905 4292270811
-0.083173618 0.32181862 0.78536266 4284572260
nan nan nan 4279900700
-0.078772865 0.3264299 0.79741019 4281084461
-0.077190511 0.32643273 0.79739606 4281216049
-0.075627647 0.32681918 0.79838938 4281479221
-0.074061029 0.32720563 0.79938257 4281413428
-0.072490662 0.32759207 0.80037582 4282071358
-0.070930399 0.32836211 0.80237633 4282267967
-0.069362648 0.32913217 0.80437684 4282333760
-0.067787394 0.32990223 0.80637723 4282596932
-0.066204637 0.33067229 0.80837756 4282859591
-0.064614385 0.33144239 0.81037784 4283517521
-0.063012145 0.33182889 0.81137073 4283714900
nan nan nan 4284833382
-0.059796415 0.33260193 0.81335652 4285228140
-0.058184061 0.33260483 0.81334209 4286017399
-0.056568701 0.33299136 0.81433493 4287136393
-0.054954473 0.33299428 0.8143205 4288253335
-0.053333487 0.33338082 0.81531322 4289237407
-0.051751934 0.33184922 0.81127018 4289961899
-0.050164357 0.33108485 0.80924147 4289702320
-0.048621442 0.32916957 0.80419153 4286811791
nan nan nan 4286811791
-0.045607988 0.32495525 0.79308492 4285564290
-0.044033136 0.32495812 0.79307085 4285104764
-0.042478167 0.3245773 0.79204977 4285102711
-0.040926948 0.32419649 0.79102868 4285034607
-0.039332207 0.32458296 0.79202163 4284902252
-0.03775923 0.32458583 0.79200757 4284573800
-0.036186252 0.32458866 0.79199356 4283784797
-0.03461327 0.32459149 0.79197949 4283651671
-0.032978021 0.32536167 0.79397935 4283454549
-0.031401291 0.3253645 0.79396528 4283586135
-0.029824562 0.32536736 0.79395115 4283520342
-0.028247833 0.32537019 0.79393709 4283125584
-0.026671104 0.32537305 0.79392302 4282730826
-0.025094375 0.32537588 0.79390889 4282665033
-0.02356003 0.32499504 0.79288799 4282993998
-0.022029435 0.3246142 0.79186708 4283125584
-0.02050259 0.32423332 0.79084617 4282731337
-0.018931486 0.32423615 0.79083216 4282533958
-0.017360382 0.32423899 0.7908181 4282599751
-0.015841035 0.32385811 0.78979731 4282665545
-0.014218172 0.32424468 0.79079002 4282599753
-0.012591559 0.32463121 0.79178274 4281810238
-0.010846431 0.32578519 0.7947889 4293388524
-0.0090900548 0.3269392 0.79779488 4292532445
-0.0074446942 0.32732579 0.79878742 4292532445
-0.0059215985 0.32694492 0.79776657 4292532445
-0.0044022519 0.32656404 0.79674578 4292598238
-0.0028198985 0.3265669 0.79673165 4292597983
-0.0012375452 0.32656977 0.79671752 4292597983
0.00041531498 0.32695633 0.79771 4292729055
0.0019995433 0.32695919 0.79769582 4292597726
0.0035837716 0.32696205 0.79768169 4292334811
0.0050918688 0.32658118 0.79666096 4292400604
0.0065962165 0.32620028 0.79564029 4292465883
0.0080968142 0.32581937 0.79461962 4292531933
0.009675418 0.3258222 0.79460555 4292532190
0.011254022 0.32582507 0.79459143 4292335580
0.012832626 0.3258279 0.7945773 4292270301
0.01449861 0.32621452 0.79556966 4292270301
0.016079089 0.32621738 0.79555553 4292269788
0.017386178 0.32506889 0.79252213 4292335324
0.018961033 0.32507175 0.79250807 4292335324
0.020441007 0.32469079 0.79148763 4292138458
0.022013986 0.32469362 0.79147357 4292204251
0.023586966 0.32469648 0.7914595 4293124325
0.025059441 0.32431552 0.79043913 4284835175
0.026630547 0.32431835 0.79042506 4281349173
0.028201651 0.32432118 0.79041106 4281810235
0.029772755 0.32432401 0.79039699 4281547832
0.031343859 0.32432684 0.79038298 4281416502
0.033024844 0.3247135 0.79137522 4281744183
0.034597822 0.32471633 0.79136115 4281547061
0.036057174 0.32433534 0.79034084 4281481268
0.037628278 0.3243382 0.79032683 4281547063
0.039082006 0.3239572 0.78930658 4281744442
0.040412731 0.32319236 0.78728026 4281678649
0.042099338 0.32357901 0.78827238 4281612856
0.043666694 0.32358184 0.78825843 4281744442
0.045234047 0.32358468 0.78824443 4281876026
0.046928152 0.32397136 0.78923649 4281745210
0.048626009 0.32435802 0.79022861 4282402372
0.050327614 0.3247447 0.79122061 4282731335
0.05203297 0.32513139 0.79221261 4282007355
0.053473573 0.32475039 0.79119253 4287863191
0.055046555 0.32475322 0.79117846 4292270298
0.056619532 0.32475606 0.7911644 4291940308
0.05819251 0.32475889 0.79115033 4291940565
0.059765492 0.32476172 0.79113632 4292202957
0.061338469 0.32476458 0.79112226 4291213735
0.062911451 0.32476741 0.79110819 4290225540
0.064337052 0.32438636 0.79008824 4290092664
0.065908156 0.32438919 0.79007417 4290158462
0.067479268 0.32439202 0.79006016 4290225032
0.069050372 0.32439485 0.7900461 4290291854
nan nan nan 4287858550
-0.15852255 0.31977317 0.77699894 4278846721
-0.15662299 0.31862012 0.77396011 4283121199
-0.15508564 0.31862289 0.7739464 4289237882
-0.15354829 0.31862566 0.7739327 4289040243
-0.1523506 0.31978428 0.7769438 4288646776
-0.15114169 0.32094294 0.77995479 4289439134
-0.14981204 0.32171631 0.78195751 4281808694
-0.14879772 0.32364556 0.7869848 4281347887
-0.14098907 0.32365966 0.78691506 4280756774
-0.13942733 0.32366249 0.78690106 4280888360
-0.13777111 0.32327998 0.78587902 4280822054
-0.13255842 0.32097647 0.77978879 4280690468
nan nan nan 4280953383
nan nan nan 4281019176
-0.12709621 0.32445571 0.78880548 4281084202
-0.12537175 0.32368782 0.78677553 4280887082
-0.12311156 0.32022253 0.77768987 4280887082
-0.12149097 0.31983995 0.77666807 4280821546
-0.11994798 0.31984276 0.7766543 4282269248
-0.11840501 0.31984553 0.77664053 4290625986
-0.11693213 0.32023367 0.77763462 4290757829
-0.11545551 0.32062182 0.77862871 4290692292
-0.11397513 0.32100996 0.77962279 4290692549
-0.11242653 0.32101277 0.77960896 4290561476
-0.11081531 0.32063019 0.77858728 4290561476
-0.10926858 0.32063299 0.77857345 4290693062
-0.10778071 0.32102114 0.77956742 4290627269
-0.10617512 0.32063857 0.7785458 4290627269
-0.10457327 0.32025596 0.77752423 4290626755
-0.10297518 0.31987336 0.77650267 4290692292
-0.10138084 0.31949076 0.77548116 4290626499
-0.099790245 0.31910813 0.77445966 4290692292
-0.098251015 0.3191109 0.77444589 4290561219
-0.096757516 0.31949908 0.77543986 4290561476
-0.095304132 0.32027268 0.77744144 4290495683
-0.093759276 0.32027546 0.77742761 4290429890
-0.092254527 0.32066366 0.77842146 4290627269
-0.090707801 0.32066646 0.77840763 4290757831
-0.089161068 0.32066926 0.77839381 4290758085
-0.087648824 0.32105747 0.77938759 4290823878
-0.086100213 0.32106027 0.77937376 4290823878
-0.08455161 0.32106304 0.77935988 4291547088
-0.083002999 0.32106584 0.77934605 4280559144
nan nan nan 4280493094
nan nan nan 4280293665
nan nan nan 4280622116
nan nan nan 4280688422
nan nan nan 4280820265
nan nan nan 4281082667
-0.051754571 0.3334578 0.81129968 4280423967
-0.050166991 0.3326897 0.80927092 4282136894
-0.04863644 0.33037952 0.8032136 4292401116
nan nan nan 4292401116
-0.045626707 0.32614461 0.79210669 4292139227
-0.044071734 0.32576191 0.79108554 4291811288
-0.04250063 0.32576475 0.79107153 4291811544
-0.040951286 0.32538205 0.79005039 4291811289
-0.039382055 0.32538489 0.79003638 4292073947
-0.037838332 0.32500219 0.78901529 4292270300
-0.036270976 0.32500502 0.78900129 4292270300
-0.034703624 0.32500783 0.78898728 4292139227
-0.033105135 0.32539621 0.78998029 4291876568
-0.031535905 0.32539904 0.78996629 4292599777
-0.029966677 0.32540187 0.78995228 4292468191
-0.028397446 0.3254047 0.78993821 4291941847
-0.026828216 0.32540753 0.7899242 4291810260
-0.025299493 0.32502481 0.7889033 4291284172
-0.02377452 0.32464206 0.78788239 4291612881
-0.022253295 0.32425931 0.78686154 4291678674
-0.02068969 0.32426214 0.78684753 4291350222
-0.019126084 0.32426497 0.78683358 4291087050
-0.017562479 0.32426777 0.78681964 4290626499
-0.016050629 0.32388502 0.78579885 4289771190
-0.014435269 0.32427344 0.78679168 4289310383
-0.012871664 0.32427624 0.78677768 4288915370
nan nan nan 4289112749
-0.0076306835 0.32775509 0.79579633 4291216585
-0.0060502049 0.32775792 0.79578221 4291216585
-0.004534605 0.32737517 0.79476142 4291545549
-0.0029560013 0.32737803 0.79474729 4291874514
-0.0013087688 0.32776648 0.79573989 4292137687
0.00034221349 0.32815495 0.79673237 4292268760
0.0018521886 0.3277722 0.79571164 4291939795
0.0033584142 0.32738942 0.79469091 4292071124
0.0048608901 0.32700664 0.79367018 4292597212
0.0063596163 0.32662386 0.79264951 4292728542
0.007854593 0.32624108 0.7916289 4292794591
0.0095093241 0.32662955 0.79262137 4293058020
0.011167806 0.32701802 0.79361385 4293189606
0.012830038 0.3274065 0.79460627 4293189863
0.014496018 0.327795 0.79559869 4293517288
0.015987245 0.32741219 0.79457808 4293255143
0.017383596 0.32664374 0.79255104 4293255399
0.018865447 0.32626092 0.79153055 4293189349
0.020343551 0.32587811 0.79051006 4293123813
0.021914655 0.32588094 0.79049599 4292598239
0.023485761 0.32588378 0.79048198 4293388011
0.024855863 0.32511526 0.78845519 4289312181
0.026320843 0.32473242 0.78743482 4290036674
0.027782073 0.32434958 0.7864145 4289772218
0.029345678 0.32435238 0.78640056 4289508018
0.030909283 0.32435521 0.78638655 4288916394
0.03247289 0.32435805 0.7863726 4288390307
0.034036495 0.32436085 0.78635859 4287798427
0.0356001 0.32436368 0.78634465 4287666071
0.037048206 0.32398081 0.78532445 4287665814
0.038375188 0.32321224 0.78329802 4287468435
0.039813917 0.32282934 0.78227788 4287205263
0.041491147 0.32321784 0.78327018 4286810505
0.043049131 0.32322064 0.78325629 4286415748
0.044856858 0.32399487 0.78525466 4286218880
0.046418589 0.32399771 0.78524071 4285495414
0.047980316 0.32400054 0.78522676 4284705897
0.049672544 0.32438907 0.78621894 4283915613
0.051236153 0.32439187 0.78620493 4282665545
0.052934002 0.32478043 0.78719705 4283784797
0.054635607 0.325169 0.78818911 4291810260
0.056064963 0.32478607 0.7871691 4291809233
0.057770316 0.32517463 0.78816116 4291875285
0.059337672 0.32517746 0.78814715 4292006351
0.060905024 0.32518029 0.78813314 4291542708
0.062472381 0.32518312 0.78811914 4290160260
0.064039737 0.32518595 0.78810513 4290290301
0.065607093 0.32518879 0.78809112 4290289788
0.067174442 0.32519162 0.78807712 4290356612
0.068741798 0.32519445 0.78806311 4290225801
0.070154287 0.32481149 0.78704321 4289831307
nan nan nan 4279569412
-0.15626894 0.31899604 0.77096325 4287463271
-0.15473722 0.31899878 0.77094954 4289237106
-0.15332058 0.31938872 0.77194422 4289106036
-0.15212667 0.32055295 0.77495545 4288582529
-0.15092152 0.3217172 0.77796662 4290624181
-0.14970511 0.32288149 0.78097767 4280953128
-0.14869267 0.32482013 0.7860052 4281348142
-0.14069693 0.32405981 0.78391916 4280559907
-0.1389481 0.32328826 0.7818889 4280691749
-0.13739574 0.32329106 0.78187501 4280690980
nan nan nan 4280756772
nan nan nan 4280625187
nan nan nan 4280756772
-0.12685469 0.32485953 0.78581005 4280888104
-0.12513587 0.32408789 0.7837801 4280822568
-0.12311409 0.32176736 0.77771819 4280822568
-0.12141776 0.32099572 0.77568841 4280098590
-0.1198028 0.32061127 0.77466667 4285888631
-0.11826356 0.32061404 0.7746529 4291481295
-0.11679444 0.32100406 0.7756471 4290889160
-0.11532157 0.32139406 0.77664125 4290823367
-0.11377858 0.32139686 0.77662748 4290757574
-0.11223561 0.32139963 0.77661371 4290692038
-0.11069262 0.32140243 0.77659988 4290692038
-0.10914964 0.3214052 0.77658612 4290626245
-0.1075478 0.32102072 0.77556449 4290625988
-0.10600669 0.32102349 0.77555072 4290823110
-0.10441047 0.32063901 0.77452916 4290691781
-0.102818 0.32025453 0.77350765 4290757574
-0.10117792 0.31948277 0.77147835 4290822853
-0.099644303 0.31948555 0.77146465 4290822597
-0.098110698 0.31948832 0.77145094 4290888390
-0.096622832 0.31987834 0.77244496 4290888390
-0.095131211 0.32026839 0.77343893 4290756804
-0.093635842 0.32065845 0.7744329 4290822597
-0.092096612 0.32066125 0.77441913 4290954183
-0.090595618 0.3210513 0.77541304 4291019464
-0.08905451 0.32105407 0.77539927 4290953670
-0.087513402 0.32105687 0.7753855 4291019976
-0.086004905 0.32144696 0.77637935 4291151817
-0.084431186 0.32106242 0.77535796 4291151814
nan nan nan 4279769625
nan nan nan 4280427555
nan nan nan 4280820776
nan nan nan 4281083692
nan nan nan 4281280814
nan nan nan 4281412400
nan nan nan 4281674804
-0.051748578 0.33545378 0.81233639 4280820521
-0.050180126 0.33390716 0.80829316 4284308320
nan nan nan 4284308320
nan nan nan 4292336093
-0.045629285 0.32771757 0.79213554 4291481297
-0.044074312 0.327333 0.79111439 4291284430
-0.042503208 0.32733583 0.79110032 4291349968
-0.040953856 0.32695127 0.79007918 4291284175
-0.039384626 0.3269541 0.79006517 4291349968
-0.037840903 0.32656953 0.78904408 4291350481
-0.036300927 0.32618496 0.78802299 4291350225
-0.034735445 0.32618776 0.78800899 4291547347
-0.033169966 0.32619059 0.78799504 4291678676
-0.031571481 0.32658085 0.78898805 4291678933
-0.030039007 0.32619625 0.78796703 4291810519
-0.02851028 0.32581162 0.78694606 4291810519
-0.026985303 0.32542703 0.78592515 4291547347
-0.025423573 0.32542986 0.7859112 4291416016
-0.023904221 0.32504523 0.78489029 4291547601
-0.022344366 0.32504803 0.78487641 4291679187
-0.020784508 0.32505086 0.78486246 4291810773
-0.019224653 0.32505366 0.78484851 4291876566
-0.017714676 0.32466903 0.78382772 4291876311
-0.016156694 0.32467183 0.78381377 4291678933
-0.014652341 0.32428718 0.78279305 4291810519
-0.013040734 0.32467747 0.78378594 4292007897
nan nan nan 4291349709
-0.0079389066 0.32739818 0.79079151 4282334787
-0.0063678022 0.32740104 0.7907775 4282006076
-0.0047966978 0.32740387 0.79076344 4281940027
-0.0032255931 0.3274067 0.79074943 4281808184
-0.0016544886 0.32740954 0.79073536 4281545012
-1.2883646e-05 0.32779986 0.79172802 4281216048
0.0014877204 0.3274152 0.79070729 4280886826
0.002984575 0.32703054 0.78968662 4281083691
0.0044776797 0.32664588 0.78866601 4281741621
0.0060450346 0.32664868 0.788652 4282004538
0.0076123895 0.32665151 0.788638 4281741623
0.0092614936 0.32704186 0.78963053 4282531140
0.010914348 0.32743222 0.79062307 4283320656
0.012570951 0.32782257 0.79161561 4283649621
0.014231305 0.32821292 0.79260808 4284306524
0.015806159 0.32821575 0.79259402 4285553255
0.017198766 0.32744354 0.79056692 4286209645
0.01876987 0.32744637 0.79055291 4286407024
0.020340975 0.3274492 0.79053885 4286936191
0.021912079 0.32745203 0.79052484 4281478964
0.023285938 0.3266798 0.78849792 4280229667
0.024652299 0.32590753 0.78647113 4289572787
0.026011158 0.32513526 0.78444439 4293191915
0.027571013 0.32513806 0.78443044 4292270813
0.029024746 0.32475334 0.78341013 4292139484
0.030582728 0.32475615 0.78339624 4292008668
0.032250579 0.32514653 0.7843886 4291942875
0.033698689 0.32476178 0.78336835 4292337889
0.035143048 0.324377 0.78234816 4292535268
0.036699153 0.3243798 0.78233427 4292402913
0.038020518 0.32360747 0.78030783 4292468449
0.039453629 0.3232227 0.77928776 4292402656
0.04112523 0.32361308 0.78028011 4292534242
0.042800583 0.32400346 0.78127247 4292731621
0.044604555 0.32478145 0.78327096 4292600803
0.046162535 0.32478425 0.78325701 4292666852
0.047720518 0.32478705 0.78324312 4292535266
0.049278498 0.32478988 0.78322917 4292402910
0.050968848 0.32518029 0.78422141 4292073691
0.052662946 0.3255707 0.78521359 4291219152
0.054360796 0.32596111 0.78620571 4291547088
0.055924401 0.32596394 0.78619176 4291941076
0.057627875 0.32635438 0.78718382 4291678421
0.059051614 0.32596958 0.78616381 4291940818
0.060615219 0.32597241 0.78614986 4292003259
0.062178824 0.32597521 0.78613585 4290092677
0.063742429 0.32597804 0.7861219 4290289279
0.065156788 0.32559323 0.78510195 4290355579
0.066718519 0.32559606 0.785088 4290355843
0.06812726 0.32521123 0.78406811 4290356618
0.069996849 0.32598934 0.786066 4290094734
nan nan nan 4283186216
nan nan nan 4288975214
-0.15438877 0.31936345 0.7679525 4289040750
-0.15297776 0.31975523 0.76894724 4288515699
-0.15178949 0.32092509 0.77195865 4289175704
-0.15081269 0.32287303 0.7769866 4290099891
-0.14959817 0.32404292 0.77999783 4281545264
-0.14848 0.32560191 0.78401721 4281479985
-0.14607801 0.32249233 0.77593696 4281479985
-0.14412145 0.32093892 0.7718901 4281085739
-0.14258784 0.32094169 0.77187645 4280954153
-0.14135458 0.32211161 0.77488744 4280690980
-0.14030653 0.3240597 0.7799148 4280625700
-0.13875791 0.3240625 0.77990097 4280691750
-0.13702033 0.32328713 0.77787077 4280559907
-0.13510503 0.32173365 0.77382427 4280494371
nan nan nan 4280691749
nan nan nan 4280625699
nan nan nan 4280691748
-0.12816739 0.32524928 0.78282839 4280691493
-0.12288378 0.32214493 0.7747224 4280691495
-0.12119307 0.3213695 0.77269262 4280757288
-0.11958373 0.32098317 0.77167088 4290757571
-0.11805011 0.32098594 0.77165723 4291481295
-0.11658663 0.32137781 0.77265149 4291218125
-0.11505114 0.32138059 0.77263778 4291349711
-0.11358202 0.32177249 0.77363199 4290757575
-0.11210915 0.32216436 0.77462614 4290757319
-0.11050731 0.32177803 0.77360451 4290757062
-0.10884847 0.32100254 0.77157497 4290098875
-0.107256 0.32061619 0.77055341 4287664534
-0.10572426 0.32061893 0.77053976 4287336083
-0.10413741 0.32023257 0.7695182 4287270290
-0.10255431 0.31984618 0.76849675 4287138961
-0.10097496 0.3194598 0.76747531 4287007118
-0.099399365 0.31907341 0.76645386 4286875533
-0.097875126 0.31907615 0.76644027 4286809739
-0.09639664 0.31946805 0.76743436 4286547080
-0.094914399 0.31985995 0.7684285 4286480774
-0.093386412 0.31986272 0.76841486 4286283395
-0.091898546 0.32025465 0.76940888 4286019709
-0.090368688 0.3202574 0.76939523 4285690231
-0.088875197 0.32064933 0.7703892 4285361266
-0.087343462 0.3206521 0.77037555 4285492852
-0.085844345 0.32104403 0.77136946 4285361265
-0.084279999 0.32065761 0.77034813 4285822070
-0.082661659 0.31949282 0.76731169 4284572514
-0.081081562 0.31871721 0.76528287 4283717203
-0.079483844 0.31755239 0.76224655 4284309340
-0.077967115 0.3175551 0.76223302 4284375131
-0.076493114 0.31833625 0.76423454 4284243545
-0.075011618 0.3191174 0.76623601 4284901475
nan nan nan 4284967268
nan nan nan 4284769889
nan nan nan 4284243545
nan nan nan 4284046166
nan nan nan 4283782994
nan nan nan 4292137940
nan nan nan 4291019459
-0.0441669 0.32695776 0.7861073 4291019716
-0.042585291 0.32734984 0.78710049 4291414475
-0.040978182 0.32813123 0.78910083 4291348684
-0.0393872 0.32852334 0.79009396 4291282892
-0.037843473 0.32813689 0.78907281 4291283148
-0.036303494 0.32775041 0.78805172 4291480527
-0.034767266 0.32736397 0.78703064 4291677650
-0.033203661 0.32736677 0.78701669 4291809748
-0.031640057 0.3273696 0.78700268 4291744212
-0.0301462 0.32659382 0.78497469 4291809749
-0.028659847 0.32581803 0.78294671 4291480015
-0.02718099 0.32504222 0.78091884 4291545808
-0.025669135 0.32465571 0.77989793 4291480015
-0.024161028 0.32426921 0.77887714 4291414222
-0.022612421 0.32427198 0.77886331 4291545807
-0.021017691 0.32466409 0.77985638 4291216842
-0.019467209 0.32466689 0.77984256 4291545807
-0.017966602 0.32428035 0.77882183 4291808979
-0.016469745 0.32389382 0.7778011 4291809235
-0.014923013 0.32389662 0.77778727 4291809491
nan nan nan 4291941076
nan nan nan 4290165435
nan nan nan 4281941565
nan nan nan 4281875258
nan nan nan 4281940537
nan nan nan 4282006074
nan nan nan 4282072124
nan nan nan 4281940281
nan nan nan 4282006332
0.015268102 0.32745421 0.7865836 4282136892
0.017013948 0.32823583 0.78858274 4281940540
0.018674299 0.32862806 0.78957522 4281875003
0.020433269 0.32940972 0.79157418 4281809210
0.022006247 0.32941255 0.79156011 4281743931
0.023184748 0.32785773 0.78752023 4280953901
0.024549238 0.32708171 0.78549337 4280953901
0.025803862 0.32591626 0.78246015 4288980392
0.027255723 0.32552963 0.78143984 4292599778
0.028703835 0.32514301 0.78041953 4292205020
0.030148197 0.32475638 0.77939928 4292205277
0.031808548 0.32514861 0.78039181 4292007898
0.033249158 0.32476199 0.77937156 4291942106
0.034799643 0.32476479 0.77935773 4291942106
0.036350124 0.32476759 0.7793439 4291942105
0.03766587 0.32399148 0.7773174 4292007898
0.039212599 0.32399428 0.77730364 4291876313
0.040880449 0.32438651 0.77829605 4291942106
0.042429056 0.32438931 0.77828223 4292073691
0.044227399 0.32517102 0.78028083 4291942105
0.045906495 0.32556328 0.78127319 4292007898
0.047332112 0.32517663 0.78025311 4292007898
0.048884466 0.32517943 0.78023922 4291745493
0.050569188 0.32557169 0.78123152 4291876053
0.052257661 0.32596397 0.78222376 4291876312
0.053949885 0.32635626 0.783216 4291612883
0.055645857 0.32674858 0.78420818 4291875285
0.057205711 0.32675138 0.78419429 4291875285
0.058765568 0.32675418 0.78418034 4291940307
0.060181808 0.32636753 0.78316033 4292463557
0.061739787 0.32637033 0.78314644 4290226062
0.063150406 0.32598364 0.78212649 4290289533
0.064557269 0.32559693 0.78110653 4290420093
0.066111498 0.32559973 0.78109264 4290290306
0.067665733 0.32560253 0.78107882 4290422916
0.06952969 0.32638437 0.78307682 4290160267
nan nan nan 4280358922
nan nan nan 4287923815
-0.15392332 0.31932595 0.76394677 4289172077
-0.15240471 0.3193287 0.76393324 4288844664
-0.15122582 0.32050416 0.76694483 4290098351
-0.14783686 0.32481247 0.77799571 4281348656
-0.14608054 0.32403344 0.77596527 4281611828
-0.14412397 0.32247251 0.77191824 4281611827
-0.14269234 0.3228662 0.77291286 4281151274
-0.14135709 0.32365084 0.7749157 4280690723
-0.14001435 0.32443547 0.77691841 4280625700
-0.13798954 0.32248357 0.77186346 4280625700
-0.13636144 0.32209539 0.77084154 4280625700
nan nan nan 4280625700
nan nan nan 4280625700
nan nan nan 4280757286
-0.12257584 0.32212028 0.7707184 4280625702
-0.12096836 0.32173204 0.76969665 4287467920
-0.11936464 0.32134384 0.76867491 4290889157
-0.11783665 0.32134658 0.76866126 4290362815
-0.11637879 0.32174033 0.76965564 4290494402
-0.11484893 0.3217431 0.76964194 4290559939
-0.11338544 0.32213685 0.77063626 4290494147
-0.1118537 0.32213962 0.77062255 4290428354
-0.11025935 0.32175139 0.76960099 4290494147
-0.10860801 0.32097214 0.76757145 4290296768
-0.10702303 0.32058388 0.76654989 4289507508
-0.1054418 0.32019562 0.76552838 4287402389
-0.10386433 0.31980735 0.76450694 4287336597
-0.1022906 0.31941909 0.76348549 4287205012
-0.10077199 0.31942183 0.76347196 4287073426
-0.099253379 0.31942457 0.76345837 4286941586
-0.097734772 0.31942731 0.76344478 4286612621
-0.096261904 0.31982106 0.76443905 4286546828
-0.094785288 0.32021484 0.76543319 4286481035
-0.093262933 0.32021758 0.7654196 4286349449
-0.091740571 0.32022032 0.76540601 4286217863
-0.090218216 0.32022309 0.76539242 4285691262
-0.088695854 0.32022583 0.76537877 4285558904
-0.087173499 0.32022858 0.76536518 4285164400
-0.085683756 0.32062235 0.76635927 4284638056
-0.084159523 0.32062513 0.76634568 4283059023
-0.082577549 0.31984574 0.76431674 4278585351
-0.08100307 0.31906638 0.76228791 4278980107
-0.079436094 0.31828696 0.76025921 4278782728
-0.077899858 0.31789863 0.75923806 4278980105
-0.076410122 0.31829244 0.76023215 4279045898
-0.074897133 0.31829515 0.76021862 4279309070
-0.07343702 0.31947112 0.7632277 4279506449
-0.071934156 0.31986496 0.76422167 4279638035
-0.070413671 0.3198677 0.76420808 4279835414
-0.068893187 0.31987044 0.76419449 4279967000
-0.067382827 0.32026428 0.7651884 4280295708
nan nan nan 4280493344
nan nan nan 4281019688
nan nan nan 4281546032
nan nan nan 4290098616
-0.034916069 0.32697174 0.78202373 4289900982
-0.033361837 0.32697454 0.78200984 4289637810
-0.031840604 0.32658616 0.78098887 4290624706
-0.030323122 0.3261978 0.77996796 4291085257
-0.028846135 0.32541823 0.77794003 4290164668
-0.02741527 0.32424748 0.77490509 4290230204
-0.02591466 0.32385907 0.7738843 4290230204
-0.024417799 0.32347065 0.77286357 4290361790
-0.022880442 0.32347342 0.7728498 4290229948
-0.021296963 0.32386741 0.77384305 4290295741
-0.019757731 0.32387018 0.77382928 4290559169
-0.018268369 0.32348177 0.77280861 4290493377
-0.016782757 0.32309332 0.77178794 4290493377
-0.015247274 0.3230961 0.77177423 4290888391
-0.013767287 0.32270765 0.77075362 4290954440
-0.012233679 0.32271042 0.77073997 4291547090
-0.010700071 0.3227132 0.77072626 4289310127
-0.0092275832 0.32232472 0.76970571 4283783514
-0.0077588451 0.32193628 0.76868522 4283980891
-0.0063587264 0.32115656 0.76665795 4283783512
-0.0048326175 0.32115933 0.7666443 4282995279
-0.003306509 0.32116207 0.76663071 4282469192
-0.0017099059 0.32155606 0.76762378 4282072894
-0.00010955324 0.32195008 0.76861686 4281875516
0.0014203051 0.32195282 0.76860321 4281612601
0.0030262822 0.32234684 0.76959622 4281481013
0.0046360092 0.32274085 0.77058923 4281808952
0.0061696172 0.32274362 0.77057552 4281940024
0.0077032251 0.32274637 0.77056181 4281678135
0.0092368331 0.32274914 0.77054811 4281613624
0.010855934 0.32314318 0.77154106 4281745212
0.012304049 0.32275468 0.77052075 4281415990
0.016920261 0.32941189 0.78760493 4281940025
0.018671725 0.33019727 0.78960401 4281874488
0.02043069 0.33098269 0.79160303 4281678136
0.022003669 0.33098552 0.79158902 4281875258
0.023083564 0.32903191 0.78654248 4281875258
0.024345694 0.32786086 0.78350908 4281282864
0.02549421 0.32629848 0.77946931 4288125596
0.02694045 0.32590997 0.778449 4292533985
0.028276825 0.32513016 0.77642226 4292139227
0.029821683 0.32513294 0.77640849 4292336606
0.031366538 0.32513574 0.77639467 4292073692
0.032911398 0.32513851 0.7763809 4292139485
0.034456253 0.32514131 0.77636707 4292073692
0.036001109 0.32514408 0.7763533 4292007899
0.037545968 0.32514688 0.77633947 4292073692
0.038971584 0.32475835 0.77531934 4292007642
0.040635683 0.32515246 0.77631187 4292073179
0.042180538 0.32515523 0.77629805 4292073434
0.043850258 0.32554936 0.77729052 4291941848
0.045523729 0.3259435 0.77828294 4292073434
0.047072336 0.32594627 0.77826911 4292205020
0.048620943 0.32594907 0.77825528 4291941848
0.05016955 0.32595187 0.77824146 4291810262
0.051718157 0.32595468 0.77822763 4291744726
0.053538989 0.32674018 0.78022611 4291678933
0.055091348 0.32674298 0.78021222 4291744469
0.056643702 0.32674578 0.7801984 4291677906
0.058054321 0.32635722 0.77917838 4291874770
0.059604801 0.32636002 0.77916455 4292464331
0.061155282 0.32636279 0.77915066 4290357398
0.062558405 0.32597423 0.77813077 4290224253
0.063957773 0.32558563 0.77711087 4290355324
0.065504506 0.32558843 0.77709705 4290290046
0.067051239 0.32559121 0.77708328 4290422152
0.069062553 0.32676819 0.78008741 4290488464
0.070614912 0.32677096 0.78007352 4288251769
nan nan nan 4287594858
nan nan nan 4289039983
-0.15345784 0.31927344 0.7599408 4289172084
-0.15194674 0.31927618 0.75992733 4288319358
-0.15054886 0.31967169 0.76092225 4290359729
-0.14914724 0.3200672 0.76191711 4288125079
nan nan nan 4280756005
-0.14555435 0.32361054 0.77095175 4281151276
-0.14402261 0.32361332 0.77093804 4281348653
-0.14249088 0.32361609 0.77092439 4281217067
-0.14085904 0.32322603 0.76990241 4280756516
-0.13923094 0.32283598 0.76888043 4280757029
-0.13712473 0.32048187 0.76281714 4280625700
-0.13570249 0.3208774 0.76381183 4280559907
-0.13399865 0.32009453 0.76178181 4280560420
-0.13203007 0.31813315 0.75672716 4280494371
-0.13123554 0.32127845 0.76477933 4280494627
nan nan nan 4280626213
nan nan nan 4280625700
-0.12226787 0.32208061 0.76671404 4280757034
-0.12066789 0.3216905 0.76569235 4290691778
-0.11914553 0.32169324 0.76567876 4290297021
-0.11762317 0.32169601 0.76566517 4290362816
-0.11610082 0.32169876 0.76565152 4290297024
-0.1146467 0.32209435 0.76664597 4290230975
-0.11312247 0.32209709 0.76663232 4290165438
-0.11159823 0.32209986 0.76661873 4290034109
-0.11001138 0.32170972 0.76559716 4290034109
-0.10842827 0.32131961 0.7645756 4289902523
-0.10679004 0.32053658 0.76254612 4289441972
-0.10527331 0.32053933 0.76253259 4288718249
-0.10364633 0.31975627 0.76050323 4288718250
-0.10213335 0.31975901 0.7604897 4288323493
-0.10062036 0.31976175 0.76047617 4288126373
-0.099156871 0.32015738 0.7614705 4287863458
-0.097689636 0.320553 0.76246482 4287797665
-0.096172899 0.32055575 0.76245129 4287534493
-0.094700038 0.32095137 0.7634455 4287337114
-0.093181431 0.32095411 0.76343197 4287205015
-0.091662824 0.32095686 0.76341838 4286875793
-0.09014421 0.3209596 0.76340485 4286415242
-0.088589229 0.32056943 0.76238352 4286151811
-0.087072492 0.32057214 0.76236999 4285164916
-0.085555762 0.32057488 0.7623564 4285033328
-0.084039025 0.32057762 0.76234287 4282665035
-0.082522288 0.32058036 0.76232934 4278321925
-0.080978557 0.32019016 0.76130813 4279177488
-0.079438575 0.31979996 0.76028693 4278914312
-0.077902339 0.31940973 0.75926578 4278848519
-0.076391228 0.31941247 0.75925231 4278980105
-0.074860618 0.31902224 0.75823122 4278980105
-0.073369004 0.31941789 0.75922531 4278848519
-0.07187365 0.31981358 0.76021934 4278848519
-0.070360661 0.31981632 0.76020586 4278848519
-0.068847679 0.31981906 0.76019233 4278848519
-0.067334697 0.31982177 0.7601788 4278782726
-0.065829962 0.32021749 0.76117277 4278782726
-0.064327851 0.32100615 0.76317418 4278387968
nan nan nan 4281546032
nan nan nan 4290032822
nan nan nan 4287532435
nan nan nan 4288453794
nan nan nan 4288256671
-0.029142626 0.32382053 0.76991171 4287730842
-0.027688133 0.32303718 0.7678839 4287730586
-0.026200643 0.32264689 0.76686317 4287862174
-0.024674533 0.32264963 0.76684958 4288059553
-0.023104182 0.32304546 0.76784295 4288059551
-0.021576198 0.3230482 0.7678293 4288651689
-0.020000221 0.32344404 0.76882261 4289243825
-0.01852023 0.32305372 0.767802 4289441204
-0.017043989 0.3226634 0.76678139 4289441460
-0.015571499 0.32227308 0.76576084 4289507253
-0.014102758 0.32188272 0.76474029 4289507252
-0.012580398 0.32188547 0.7647267 4290297024
-0.010998798 0.32228133 0.76571995 4289704886
-0.0094745634 0.32228407 0.76570636 4287599510
-0.0080133211 0.32189372 0.76468587 4287665301
-0.0066206958 0.32111025 0.7626586 4287336335
-0.0053023114 0.31993368 0.7596246 4287730835
-0.0037207101 0.32032952 0.76061791 4288388251
-0.0022058503 0.32033226 0.76060438 4288059543
-0.00054625835 0.32112122 0.76260436 4287927702
0.0011950737 0.32230332 0.76561105 4288256925
0.0027954231 0.32269919 0.76660413 4287863192
0.0043215319 0.32270193 0.76659054 4287467663
0.0058476408 0.3227047 0.76657689 4287071878
0.0073737493 0.32270744 0.76656324 4286743683
0.0088998582 0.32271019 0.76654959 4286481537
