# .PCD v0.7 - Point Cloud Data file format
VERSION 0.7
FIELDS x y z rgba
SIZE 4 4 4 4
TYPE F F F U
COUNT 1 1 1 1
WIDTH 1084
HEIGHT 1
VIEWPOINT 0 0 0 1 0 0 0
POINTS 1084
DATA ascii
-0.20085458 0.2297076 0.80873448 4286802507
-0.19908608 0.22944529 0.80771357 4286671947
-0.19732133 0.22918297 0.80669272 4286212683
-0.19540042 0.22865544 0.80466545 4285884496
-0.19364505 0.22839311 0.80364466 4284174404
-0.18783134 0.22389013 0.78650647 4279768851
-0.18596293 0.22336251 0.78447962 4280492322
-0.18410201 0.22283486 0.78245282 4281016871
-0.18209995 0.22204198 0.77941972 4285098594
-0.18040268 0.22177954 0.77839947 4284638303
-0.17885408 0.22178233 0.77838564 4284309600
-0.17759153 0.22231561 0.78038454 4283123788
-0.17646264 0.22311413 0.78338969 4287527301
-0.17518322 0.22364745 0.78538841 4294637307
-0.17362149 0.22365026 0.7853744 4294638847
-0.17219529 0.22391833 0.78636676 4294835967
-0.17063169 0.22392115 0.78635281 4294704895
-0.16906808 0.22392397 0.78633881 4293981686
-0.16750447 0.2239268 0.78632486 4292994790
-0.1660689 0.22419488 0.7873171 4291020742
-0.16450343 0.2241977 0.78730315 4289178795
-0.16306223 0.2244658 0.78829533 4287665812
-0.16161728 0.2247339 0.78928751 4287534224
-0.16040964 0.22553258 0.79229194 4286086778
nan nan nan 4283981402
nan nan nan 4281546804
nan nan nan 4281612597
nan nan nan 4281677880
-0.15207087 0.23218508 0.81734431 4281479989
-0.15055467 0.23245332 0.81833583 4281742907
-0.14903474 0.23272155 0.81932729 4281874494
-0.14751105 0.2329898 0.82031876 4280887597
-0.14588369 0.23299274 0.82030421 4281282357
-0.14425635 0.23299567 0.82028973 4285822330
-0.142629 0.23299861 0.82027519 4291612114
-0.14100164 0.23300155 0.82026064 4292467937
-0.1394667 0.23326981 0.82125199 4292336351
-0.13801855 0.23380342 0.82324922 4292796902
-0.13647424 0.2340717 0.82424051 4291283663
-0.13492617 0.23434 0.82523173 4290493633
-0.13337436 0.23460829 0.82622296 4288256670
-0.13173576 0.23461124 0.82620829 4285756536
-0.13017833 0.23487955 0.82719946 4284242784
nan nan nan 4282203201
nan nan nan 4281150513
nan nan nan 4281084720
nan nan nan 4281150513
nan nan nan 4281018927
nan nan nan 4281742393
nan nan nan 4281742649
nan nan nan 4281479732
nan nan nan 4281546036
-0.11352395 0.2338476 0.82303035 4281611829
-0.11201204 0.23438133 0.82502699 4281677622
-0.11043399 0.23464967 0.82601798 4281874488
-0.10885218 0.23491803 0.8270089 4281677111
-0.10743135 0.23598258 0.83101654 4281216049
-0.10583642 0.23625095 0.83200735 4281281842
-0.10418657 0.23625393 0.83199263 4287597201
-0.10253672 0.23625691 0.8319779 4292269018
-0.10088688 0.23625989 0.83196312 4292861155
-0.099191494 0.23599745 0.83094293 4292269531
-0.097543523 0.23600042 0.83092821 4292204251
-0.095853761 0.23573796 0.82990801 4292138972
-0.094167747 0.23547551 0.82888788 4292007899
-0.092523523 0.23547848 0.82887322 4291942106
-0.090879299 0.23548144 0.82885849 4292073692
-0.089235082 0.23548441 0.82884383 4292073692
-0.087655686 0.23601826 0.83083987 4291942106
-0.086068794 0.23655212 0.83283585 4292007899
-0.084445737 0.23682053 0.83382642 4291942106
-0.082818933 0.23708898 0.83481693 4291876313
-0.081188373 0.23735741 0.83580744 4291875800
-0.079554074 0.23762585 0.83679795 4291941593
-0.077916019 0.23789431 0.83778834 4292138458
-0.076254919 0.23789731 0.8377735 4292138458
-0.07459382 0.2379003 0.83775866 4292072665
-0.072932728 0.2379033 0.83774382 4292007129
-0.071271628 0.23790629 0.83772898 4292072409
-0.069610536 0.23790929 0.83771414 4292993254
-0.067959353 0.23817778 0.83870447 4292927717
-0.066304423 0.23844625 0.8396948 4293190889
-0.064645745 0.23871474 0.84068501 4292401117
-0.062983319 0.23898324 0.84167528 4284966764
-0.061309889 0.23845527 0.83965015 4288848295
-0.059643958 0.23792727 0.83762515 4292796131
-0.057984192 0.23766477 0.83660519 4292993767
-0.05632497 0.23766775 0.83659041 4292862438
-0.054665748 0.23767075 0.83657557 4292599523
-0.05300653 0.23767374 0.83656073 4292270815
-0.051356137 0.23741123 0.83554095 4292271071
-0.049698792 0.23741421 0.83552611 4292205278
-0.048054025 0.23715168 0.83450633 4292336864
-0.0463841 0.23742019 0.83549649 4292468450
-0.044726752 0.23742318 0.8354817 4292337121
-0.043069404 0.23742618 0.83546692 4292468707
-0.041432139 0.23716363 0.83444721 4292600292
-0.039776668 0.23716661 0.83443242 4292600036
-0.038073536 0.23770069 0.83642733 4292600036
-0.036414314 0.23770368 0.83641249 4292665829
-0.034727514 0.23797221 0.83740252 4292665829
-0.033066418 0.23797521 0.83738768 4292665829
-0.031405322 0.23797821 0.83737284 4292863208
-0.029744225 0.2379812 0.837358 4292929001
-0.028083129 0.2379842 0.83734316 4292797415
-0.026385078 0.23825276 0.83833307 4292797672
-0.024760935 0.2379902 0.83731347 4292929258
-0.02309984 0.2379932 0.83729863 4293192686
-0.021481322 0.23773061 0.83627909 4292535013
-0.019866554 0.23746802 0.83525962 4289771450
-0.018209206 0.23747101 0.83524477 4284310373
-0.01655186 0.23747401 0.83522999 4281678652
-0.014944591 0.23721141 0.83421057 4281678650
-0.013289119 0.23721439 0.83419573 4281941821
-0.011687474 0.23695178 0.83317637 4282204993
-0.010033878 0.23695476 0.83316159 4282270786
-0.0083227037 0.23722336 0.83415139 4282007615
-0.0066672321 0.23722634 0.83413661 4282007615
-0.0050117602 0.23722932 0.83412182 4281809981
-0.0032930877 0.23749793 0.83511156 4281744189
-0.0016357411 0.23750091 0.83509672 4281415480
2.1605505e-05 0.2375039 0.83508193 4281415481
0.0017477776 0.23777251 0.83607155 4281547322
0.0034069989 0.2377755 0.83605677 4283718492
0.0052113705 0.23830976 0.83805078 4285692026
0.0069487914 0.23857839 0.83904034 4288718248
0.0086136376 0.23858139 0.83902544 4290692038
0.010278483 0.2385844 0.8390106 4292468450
0.012023403 0.23885304 0.84000009 4293455345
0.013690124 0.23885605 0.83998519 4293126123
0.015440669 0.2391247 0.84097463 4292994281
0.017109264 0.23912771 0.84095973 4292862695
0.01877786 0.23913072 0.84094483 4292730852
0.020357007 0.23886807 0.83992559 4290559683
0.022023728 0.23887108 0.83991075 4285822587
0.023690449 0.23887409 0.83989584 4282138436
0.025452241 0.23914276 0.84088516 4282270021
0.027120838 0.23914577 0.84087026 4282270020
0.02869061 0.23888311 0.83985114 4282730571
0.030155936 0.23835476 0.83782792 4282599497
0.031716336 0.23809206 0.83680892 4282533703
0.033272985 0.23782937 0.83578992 4282467909
0.034932204 0.23783237 0.83577508 4282467908
0.036699623 0.23810105 0.8367644 4282402115
0.038580865 0.23863545 0.83875775 4282599495
0.040469602 0.23916985 0.84075099 4282599750
0.042252019 0.23943856 0.84174013 4282731080
0.04415388 0.23997299 0.84373331 4282402116
0.04594567 0.24024172 0.84472239 4282402373
0.04750232 0.23997903 0.84370339 4282468167
0.04917654 0.23998205 0.84368843 4282599242
0.050973956 0.2402508 0.84467745 4283059023
0.052900191 0.24078527 0.84667039 4282665036
0.05470698 0.24105403 0.84765935 4282928209
0.056517519 0.24132279 0.84864825 4282336071
0.058201116 0.24132583 0.84863317 4282467656
0.059884708 0.24132887 0.84861815 4283454807
0.061568301 0.24133189 0.84860313 4291414989
0.063251898 0.24133493 0.84858805 4292335322
0.065073684 0.24160372 0.84957689 4292730078
0.066899225 0.2418725 0.85056561 4292861918
0.068586566 0.24187556 0.85055053 4292927452
0.070273913 0.2418786 0.85053545 4292927450
0.071961254 0.24188164 0.85052043 4293059035
0.073648602 0.24188468 0.85050535 4292663763
0.075335942 0.24188773 0.85049027 4292531917
0.076871969 0.241625 0.84947145 4292004802
0.078557439 0.24162804 0.84945637 4291675835
0.080397971 0.24189685 0.85044503 4291346611
0.082399204 0.24243146 0.85243732 4291411889
0.084249109 0.24270029 0.85342586 4291411374
0.086102776 0.24296914 0.85441434 4291541928
0.087960184 0.24323799 0.85540283 4291541670
0.08998578 0.24377264 0.85739487 4291541670
0.091852568 0.2440415 0.8583833 4291738792
0.094059482 0.24484198 0.86137879 4291804326
0.09593752 0.24511087 0.86236709 4291804581
0.097647361 0.24511395 0.86235183 4291738532
0.099357203 0.24511704 0.86233658 4291672739
0.10141842 0.24565175 0.86432827 4291804582
-0.20618524 0.23210496 0.81182683 4285750849
-0.20440549 0.23184079 0.8108058 4286934094
-0.20229466 0.23104247 0.80777162 4286999887
-0.20019509 0.23024414 0.80473757 4286802508
-0.19827043 0.22971287 0.80271012 4286540363
-0.19667684 0.22971575 0.80269587 4286146892
-0.19508323 0.22971863 0.80268168 4285621324
-0.19348963 0.22972149 0.80266744 4284570186
-0.19158371 0.22919019 0.80064017 4280689949
-0.18891388 0.22732338 0.79358053 4280756259
-0.18672752 0.22625785 0.78954059 4281940020
-0.18425511 0.22465806 0.78348786 4281018918
-0.18210249 0.22359245 0.77944815 4284176982
-0.18025844 0.22306103 0.77742147 4284242777
-0.17885663 0.22333093 0.77841407 4284111963
-0.17745104 0.22360083 0.77940661 4282533447
-0.17618288 0.22413787 0.78140551 4279701525
-0.17476793 0.22440779 0.78239799 4292005588
-0.17321183 0.22441061 0.7823841 4289440688
-0.17165571 0.22441341 0.78237015 4287401876
-0.16996595 0.22414909 0.78134996 4287665048
-0.1685435 0.22441903 0.78234237 4287994526
-0.16711731 0.22468898 0.78333473 4287862940
-0.16594343 0.22549321 0.78633958 4289968314
-0.16463214 0.22603032 0.78833807 4282467655
-0.16318908 0.2263003 0.7893303 4286678403
-0.16174226 0.22657028 0.79032248 4287467661
-0.16041222 0.22710742 0.79232079 4287138696
-0.15919335 0.22791174 0.79532528 4286020472
-0.15784644 0.22844893 0.79732347 4284507489
-0.15626222 0.22845177 0.79730928 4283060043
-0.15501709 0.22925614 0.80031347 4281612597
nan nan nan 4281547063
-0.15142906 0.23220372 0.81133765 4281481013
-0.14992411 0.23247381 0.81232929 4281020463
-0.1485191 0.2330111 0.81432694 4280822832
-0.14690299 0.233014 0.81431252 4280756525
-0.14528689 0.23301692 0.81429809 4282467144
-0.1436708 0.23301984 0.81428367 4283717211
-0.14205469 0.23302275 0.81426919 4288191392
-0.14043859 0.23302567 0.81425476 4291283920
-0.1388225 0.23302858 0.81424034 4287731097
-0.13729693 0.2332987 0.8152318 4283323223
nan nan nan 4281875264
nan nan nan 4280888369
nan nan nan 4281085748
nan nan nan 4281282612
nan nan nan 4281151026
nan nan nan 4281480500
nan nan nan 4281414964
nan nan nan 4281415218
-0.11177257 0.23494899 0.82103443 4281612597
-0.11026067 0.23548646 0.82303113 4281743413
-0.1086277 0.23548941 0.82301658 4281612083
-0.10721439 0.23656145 0.82702434 4281808695
-0.10568 0.23709896 0.82902086 4281808184
-0.10372878 0.23549825 0.82297277 4281216048
-0.10194793 0.23469934 0.81994152 4281676601
-0.098966487 0.23630895 0.82594556 4292072152
-0.097327888 0.23631191 0.82593095 4292730082
-0.095647499 0.23604757 0.82491082 4292401630
-0.093970858 0.23578322 0.82389075 4292138715
-0.092374049 0.23605347 0.82488155 4292204765
-0.090737328 0.23605643 0.82486695 4292007899
-0.089100599 0.23605938 0.82485229 4292073692
-0.087528713 0.23659696 0.82684851 4292073692
-0.085949332 0.23713456 0.82884461 4292073179
-0.084362447 0.23767217 0.83084065 4292270044
-0.082741268 0.23794246 0.83183128 4292138458
-0.081116334 0.23821276 0.83282185 4292204251
-0.079510704 0.23875041 0.83481771 4292269533
-0.077876404 0.23902074 0.83580822 4292664548
-0.076238349 0.23929106 0.83679873 4292795877
-0.074579127 0.23929405 0.83678389 4292664289
-0.072919905 0.23929705 0.83676904 4292927461
-0.071260683 0.23930004 0.83675426 4291808467
-0.069601461 0.23930302 0.83673942 4289439919
-0.06796208 0.23984073 0.83873498 4283255377
-0.066307157 0.2401111 0.83972532 4281215794
-0.06464231 0.24011409 0.83971047 4280755499
-0.062977463 0.2401171 0.83969557 4279834396
-0.061305355 0.239318 0.83666533 4280623912
-0.059645042 0.23878624 0.83464026 4286478977
-0.057989571 0.23878923 0.83462548 4291742930
-0.056334097 0.23879221 0.8346107 4292992998
-0.054673549 0.23906258 0.83560097 4292861925
-0.053016201 0.23906557 0.83558613 4292533472
-0.051367685 0.23880117 0.8345663 4292533473
-0.049712211 0.23880416 0.83455151 4292533730
-0.048069317 0.23853976 0.83353174 4292533986
-0.04641572 0.23854274 0.83351696 4292534243
-0.044762123 0.23854572 0.83350217 4292534243
-0.043108527 0.2385487 0.83348739 4292600036
-0.041495085 0.23801686 0.8314628 4292600036
-0.039845236 0.23801984 0.83144802 4292665829
-0.038171563 0.23829024 0.83243817 4292665829
-0.03651984 0.23829322 0.83242345 4292731622
-0.034868117 0.2382962 0.83240867 4292797415
-0.033186946 0.23856659 0.83339876 4292862695
-0.031533349 0.23856957 0.83338398 4292928488
-0.029879753 0.23857255 0.8333692 4292928744
-0.028191078 0.23884298 0.83435923 4292928744
-0.026498657 0.23911341 0.8353492 4292863208
-0.02484131 0.2391164 0.83533442 4292797672
-0.023183964 0.23911938 0.83531964 4292929257
-0.021569192 0.23885493 0.8343001 4292995050
-0.01995817 0.23859045 0.83328056 4293126380
-0.018304573 0.23859344 0.83326578 4293060586
-0.016699176 0.23832896 0.83224636 4291284175
-0.015097528 0.23806448 0.83122694 4286415234
-0.013447681 0.23806745 0.83121222 4282138945
-0.011851657 0.23780295 0.8301928 4281612601
-0.010092287 0.23834088 0.83218735 4281678650
-0.0083829919 0.23861134 0.83317715 4281547064
-0.0067888433 0.23834684 0.83215779 4281547065
-0.0050757984 0.2386173 0.83314764 4283455062
-0.0033590035 0.23888777 0.83413738 4285165425
-0.0017035317 0.23889075 0.8341226 4287862939
-4.8059937e-05 0.23889375 0.83410782 4290165694
0.0016074118 0.23889673 0.83409303 4291745239
0.0031921864 0.23863222 0.83307374 4292929513
0.0048457831 0.2386352 0.83305895 4293323758
0.006573827 0.23890568 0.83404863 4293586930
0.0082292985 0.23890868 0.83403385 4293257966
0.0099629667 0.23917918 0.83502346 4293060587
0.011700385 0.23944968 0.83601308 4292994794
0.013359606 0.23945267 0.83599824 4293060587
0.015018827 0.23945567 0.8359834 4292994795
0.016678048 0.23945867 0.83596861 4292929001
0.01833727 0.23946166 0.83595377 4292994281
0.019996492 0.23946464 0.83593893 4293191660
0.021655712 0.23946764 0.83592415 4293191916
0.023314934 0.23947063 0.83590931 4291349969
0.024974156 0.23947363 0.83589447 4288191905
0.026536433 0.23920907 0.8348754 4283652188
0.02809496 0.23894452 0.8338564 4281876287
0.029549042 0.23841238 0.83183318 4282007873
0.031200765 0.23841536 0.8318184 4282468424
0.032956932 0.23868591 0.83280784 4282468680
0.034610528 0.23868889 0.83279306 4282402373
0.036372319 0.23895943 0.83378243 4282533959
0.038137857 0.23922999 0.83477175 4282402373
0.03990715 0.23950057 0.83576107 4282270788
0.041680187 0.23977113 0.83675033 4282534473
0.043456975 0.24004172 0.83773959 4282666058
0.045002379 0.23977713 0.83672065 4281744185
0.046663478 0.23978013 0.8367058 4281481014
0.048324574 0.23978312 0.83669096 4281744443
0.050108861 0.24005371 0.83768016 4282995536
0.052021965 0.24059191 0.83967328 4284639592
0.053815629 0.24086252 0.84066236 4286349698
0.055613041 0.24113314 0.84165138 4288849831
0.057414204 0.24140376 0.8426404 4290692290
0.059219114 0.24167438 0.84362942 4291678672
0.060758892 0.24140979 0.84261054 4291940306
0.062431239 0.2414128 0.84259558 4292137171
0.064103581 0.24141581 0.84258068 4292334292
0.065915994 0.24168646 0.84356958 4292860117
0.067732155 0.24195711 0.84455848 4292399561
0.069552064 0.24222776 0.84554732 4291873214
0.071230039 0.24223079 0.8455323 4291676091
0.073055573 0.24250147 0.84652114 4291477943
0.074735418 0.24250449 0.84650612 4291346097
0.076415263 0.24250752 0.8464911 4291345580
0.078248292 0.2427782 0.84747982 4291345578
0.080085076 0.24304889 0.84846854 4291410856
0.082082547 0.24358724 0.85046089 4291542184
0.083928704 0.24385794 0.85144955 4291673254
0.085778616 0.24412864 0.85243809 4291804581
0.087632276 0.24439937 0.85342664 4291935654
0.08981856 0.24520543 0.85642242 4291935653
0.091849774 0.24574384 0.85841453 4291869604
-0.20212989 0.2323765 0.8067944 4286408009
-0.19970112 0.23103464 0.80174696 4286474832
-0.19778207 0.23049961 0.79971957 4286146894
-0.19619408 0.23050247 0.79970539 4285949776
-0.19460611 0.23050533 0.7996912 4285490003
-0.19317617 0.23077716 0.80068356 4284438348
-0.19143015 0.23051107 0.79966283 4280754198
-0.18953361 0.22997598 0.79763556 4280360214
-0.18440819 0.22648501 0.78452289 4280625185
-0.18255101 0.22594987 0.78249604 4281612080
-0.18070133 0.22541471 0.78046924 4282861635
-0.17914899 0.22541749 0.78045535 4283322186
-0.17759663 0.2254203 0.78044146 4281217326
-0.17618543 0.22569209 0.781434 4280228637
-0.17463119 0.22569489 0.78142011 4294835967
-0.17293955 0.2254287 0.78039986 4294310652
-0.1713872 0.2254315 0.78038603 4292140255
-0.16983484 0.2254343 0.78037214 4288126626
-0.16854607 0.22597513 0.78237092 4287468182
-0.16724978 0.22651596 0.78436965 4288125855
-0.16607404 0.22732583 0.78737456 4286612359
-0.16476089 0.22786669 0.7893731 4279112212
-0.16344023 0.22840756 0.79137158 4279374612
-0.16186725 0.22841041 0.79135752 4279835419
-0.1604148 0.22868226 0.7923497 4281480243
-0.15883996 0.22868511 0.79233563 4283716947
-0.15738189 0.228957 0.79332775 4285427565
-0.15592007 0.22922887 0.79431981 4285690993
-0.15456754 0.22976981 0.79631805 4284441439
-0.15320753 0.23031077 0.79831618 4282270527
-0.15216786 0.23165888 0.80333263 4280888876
-0.1506798 0.23193081 0.80432445 4280625961
-0.14939907 0.23274086 0.80732846 4282862924
-0.14800341 0.23328188 0.80932623 4285691770
-0.14649849 0.23355384 0.81031793 4288915627
-0.14478996 0.23328768 0.80929756 4290363328
-0.14318325 0.23329057 0.8092832 4292073692
-0.14148036 0.2330244 0.80826283 4292533986
-0.1398755 0.23302729 0.80824852 4292007899
-0.13827065 0.23303019 0.80823416 4291218383
-0.13666579 0.23303308 0.80821985 4286152835
-0.13506094 0.23303598 0.80820549 4280757809
-0.1334561 0.23303887 0.80819118 4280757296
-0.13176632 0.23277266 0.80717093 4281612605
-0.13016334 0.23277557 0.80715656 4281546811
-0.12864153 0.23304756 0.80814815 4281612601
-0.12711598 0.23331955 0.80913967 4281677624
-0.12543184 0.23305334 0.80811948 4281480245
-0.12352481 0.23197979 0.80408186 4281611829
-0.12170646 0.23117533 0.80105019 4281283632
-0.12018652 0.23144732 0.80204171 4281480243
-0.118523 0.23118107 0.80102175 4281415218
-0.11706736 0.23172219 0.80301899 4281480243
-0.11560422 0.23226333 0.80501622 4281414706
-0.11413358 0.23280448 0.80701339 4281349425
nan nan nan 4281547315
-0.11129089 0.2344251 0.81301886 4281547315
-0.11002868 0.23604286 0.81903845 4281415729
-0.10840321 0.23604579 0.81902391 4281415729
-0.10666789 0.23551042 0.81699812 4281481011
-0.10488703 0.2347059 0.81396675 4281546291
-0.1033221 0.23497796 0.81495792 4281809208
-0.10170413 0.23498088 0.81494349 4281808697
-0.10008615 0.2349838 0.81492901 4281808443
-0.098604813 0.23579422 0.81793123 4282071616
-0.09702488 0.23606631 0.81892228 4288256158
-0.0954412 0.23633842 0.81991327 4292335837
-0.093773931 0.23607218 0.81889319 4292401630
-0.09214846 0.23607512 0.81887871 4292336351
-0.090559155 0.23634723 0.81986964 4292270558
-0.088966101 0.23661935 0.82086056 4292270558
-0.0873693 0.23689148 0.82185143 4292204765
-0.085768744 0.23716362 0.82284224 4292270558
-0.084193118 0.23770495 0.82483846 4292204251
-0.082609989 0.23824631 0.82683462 4293190120
-0.081019357 0.23878767 0.82883072 4292663776
-0.07942123 0.23932904 0.8308267 4292137432
-0.077836774 0.24013965 0.83382797 4290952644
-0.076202475 0.24041185 0.83481854 4286807685
-0.074547 0.24041483 0.83480376 4282991691
-0.072875984 0.2401486 0.83378369 4280886315
-0.071222387 0.24015158 0.8337689 4280031520
-0.06956879 0.24015456 0.83375412 4279636504
-0.067944959 0.24096523 0.83675504 4279570711
-0.066301838 0.2415067 0.83875066 4280228384
-0.064632691 0.24124046 0.83773059 4280491556
-0.0629673 0.24097422 0.83671057 4280426018
-0.061300803 0.24016948 0.83368027 4280228896
-0.059646111 0.23963396 0.8316552 4279701527
-0.057994936 0.23990619 0.8326456 4280491300
-0.056340013 0.24017842 0.83363593 4285623155
-0.054681342 0.24045067 0.83462626 4292531933
-0.053025872 0.24045365 0.83461148 4293321705
-0.051379222 0.24018738 0.83359158 4293256170
-0.049725626 0.24019036 0.83357686 4292796132
-0.048084605 0.23992407 0.83255702 4292730595
-0.046447333 0.23965777 0.83153725 4292665316
-0.044813808 0.23939148 0.83051753 4292665573
-0.043165836 0.23939444 0.83050281 4292731622
-0.041558012 0.23885885 0.82847816 4292665829
-0.039935738 0.23859252 0.8274585 4292731622
-0.038293388 0.23859549 0.82744384 4292797415
-0.036625344 0.23886774 0.82843405 4292797415
-0.034953546 0.23914 0.82942426 4292863208
-0.033307448 0.23914298 0.8294096 4292862695
-0.031630028 0.23941526 0.83039975 4292994024
-0.029982056 0.23941822 0.83038503 4293059817
-0.028334083 0.2394212 0.83037031 4292994024
-0.026649164 0.23969348 0.8313604 4292994024
-0.024960496 0.23996578 0.83235043 4293059817
-0.023308773 0.23996876 0.83233571 4292994024
-0.021699622 0.23970242 0.83131617 4293059817
-0.020049775 0.23970538 0.83130145 4293059817
-0.018399928 0.23970836 0.83128667 4293191659
-0.016798276 0.23944201 0.83026725 4293717747
-0.015200376 0.23917563 0.82924783 4294046967
-0.013606224 0.23890927 0.82822841 4292862950
-0.011962001 0.23891224 0.82821375 4287731352
-0.010262082 0.23918454 0.82920367 4284441702
-0.0085584149 0.23945686 0.83019364 4288125853
-0.0069698878 0.23919049 0.82917428 4290034107
-0.0052624699 0.23946281 0.83016419 4291613396
-0.0034881078 0.24000451 0.83215863 4293455344
-0.0018363858 0.24000749 0.83214384 4293586930
-0.00018466372 0.24001047 0.83212906 4293192173
0.0014670583 0.24001345 0.83211434 4293192173
0.0029773922 0.23947768 0.83009052 4293060587
0.0045527956 0.23921128 0.82907134 4292994794
0.0061988933 0.23921424 0.82905662 4293060587
0.0078449911 0.23921721 0.8290419 4292929001
0.0095692817 0.23948957 0.83003163 4292929001
0.011297323 0.23976193 0.83102137 4292929001
0.013029112 0.2400343 0.83201104 4292994794
0.014680835 0.24003728 0.83199626 4292994794
0.016246865 0.23977086 0.83097714 4292994794
0.017809143 0.23950443 0.82995802 4292929001
0.019457117 0.23950741 0.8299433 4292928744
0.021105088 0.23951037 0.82992858 4292863208
0.022753062 0.23951335 0.82991385 4292929001
0.024401033 0.23951632 0.82989913 4292731622
0.025952064 0.23924987 0.82888013 4292535013
0.027499346 0.23898341 0.82786119 4292535012
0.029143568 0.23898637 0.82784647 4292140254
0.030890357 0.23925878 0.82883602 4289969085
0.032640897 0.23953119 0.82982552 4285363829
0.034288868 0.23953415 0.8298108 4281744957
0.03593684 0.23953713 0.82979608 4281942079
0.037584811 0.2395401 0.82978135 4284047199
0.039232787 0.23954308 0.82976663 4285100143
0.040994573 0.2398155 0.83075607 4287139984
0.042644419 0.23981848 0.83074129 4289639861
0.044176701 0.23955199 0.82972246 4291087305
0.045824677 0.23955497 0.82970774 4291942357
0.047593962 0.23982741 0.83069706 4292073685
0.049366999 0.24009985 0.83168638 4292466901
0.05126885 0.24064177 0.83367968 4292597457
0.053051259 0.24091424 0.83466893 4292596683
0.054837421 0.24118671 0.83565807 4292200126
0.056627329 0.24145919 0.83664727 4291475118
0.05842099 0.24173167 0.83763635 4291080870
0.060083959 0.24173467 0.83762151 4290225297
0.061610617 0.24146818 0.83660275 4290159500
0.063271716 0.24147117 0.83658791 4290291345
0.065072872 0.24174367 0.83757693 4290488466
0.067019723 0.24228568 0.83956981 4290949272
0.068830252 0.2425582 0.84055883 4290950818
0.070790224 0.24310023 0.84255159 4291213477
0.072610132 0.24337275 0.84354049 4291541671
0.074433789 0.2436453 0.84452933 4291541670
0.076109879 0.24364832 0.84451431 4291607462
0.078092352 0.24419039 0.84650689 4291738790
0.08008232 0.24473247 0.84849942 4291870631
-0.20229992 0.23424841 0.80783045 4284500534
-0.19970372 0.23262636 0.80177617 4285159489
-0.197621 0.23181675 0.79874206 4285555277
-0.19603491 0.23181961 0.79872787 4285424466
-0.1944488 0.23182248 0.79871368 4285096273
-0.1928627 0.23182534 0.79869956 4281807656
-0.19112043 0.23155735 0.79767877 4280228628
-0.1895362 0.23156022 0.79766464 4280426780
-0.18546452 0.22994082 0.79159719 4281480494
-0.18329689 0.22886023 0.78755713 4281151016
-0.18129104 0.22805049 0.78452367 4281610798
-0.17958626 0.22778243 0.78350323 4281807664
-0.17774221 0.22724351 0.78147644 4280755749
-0.17618798 0.22724631 0.78146255 4280426529
-0.17463374 0.22724912 0.78144866 4294966783
-0.1729421 0.22698104 0.78042835 4294440440
-0.17138974 0.22698385 0.78041446 4291216843
-0.16997105 0.22725753 0.781407 4289835703
-0.1688122 0.22807299 0.78441215 4288651943
-0.16751216 0.22861758 0.78641093 4288586663
-0.16620465 0.22916219 0.78840959 4285033841
-0.16488962 0.22970681 0.79040819 4281414968
-0.16344281 0.22998054 0.79140043 4281349174
-0.16186982 0.22998337 0.79138637 4281086001
-0.16041739 0.23025712 0.7923786 4280888621
-0.15884253 0.23025995 0.79236454 4281414707
-0.15726767 0.2302628 0.79235047 4282532674
-0.15580775 0.23053655 0.79334259 4283980377
-0.15434405 0.23081031 0.79433471 4284835430
-0.15298779 0.23135501 0.79633296 4285427310
-0.15173331 0.23217064 0.79933727 4287993750
-0.15046759 0.2329863 0.80234146 4291876053
-0.14929615 0.23407289 0.80635172 4292468703
-0.14800605 0.2348886 0.80935574 4292468448
-0.14639933 0.23489149 0.80934137 4292336863
-0.1447926 0.23489439 0.80932701 4292402910
-0.14308783 0.23462634 0.80830663 4292007898
-0.14138681 0.2343583 0.80728626 4292007899
-0.13968953 0.23409022 0.80626589 4292007899
-0.13808843 0.23409311 0.80625159 4292205278
-0.13648733 0.23409601 0.80623728 4292600806
-0.13488623 0.2340989 0.80622298 4290955981
-0.13319834 0.23383081 0.80520272 4284968818
-0.13159911 0.2338337 0.80518842 4280758066
-0.12991685 0.23356561 0.80416822 4281152823
-0.12848184 0.23411044 0.80616575 4281415737
-0.12696002 0.23438431 0.80715734 4281415479
-0.12543447 0.23465818 0.80814892 4281415220
-0.12360298 0.23384812 0.80511701 4281283891
-0.12178274 0.23303804 0.80208522 4281349684
-0.12026093 0.23331191 0.8030768 4281218868
-0.11859553 0.23304379 0.80205673 4281414964
-0.11700194 0.23304667 0.80204248 4281349682
-0.11560684 0.23386255 0.80504555 4281283889
-0.11407191 0.23413643 0.80603701 4281481268
-0.11265808 0.23495236 0.80903995 4281349936
-0.11117245 0.23549728 0.811037 4281284143
-0.10973798 0.23631324 0.81403977 4281415729
-0.10812189 0.23631616 0.81402528 4281415729
-0.10639594 0.23577702 0.8119995 4281415475
-0.10478359 0.23577993 0.81198514 4281349682
-0.10317124 0.23578283 0.81197071 4281546807
-0.10155889 0.23578575 0.81195629 4281678138
-0.099993959 0.2360597 0.81294751 4281940542
-0.098470829 0.23660469 0.81494427 4282006593
-0.096940205 0.23714969 0.81694096 4280756269
-0.095318474 0.23715262 0.81692642 4282795852
-0.093696751 0.23715554 0.81691194 4288717222
-0.092113078 0.23742953 0.81790298 4291744214
-0.090489477 0.23743245 0.8178885 4292402144
-0.088865876 0.23743539 0.81787395 4292205278
-0.087307125 0.23798044 0.81987041 4292138972
-0.085710324 0.23825444 0.82086134 4292336351
-0.084138453 0.23879953 0.82285762 4290888391
-0.082532279 0.23907354 0.82384849 4288453537
-0.080972202 0.23988973 0.82685006 4282202689
-0.079400882 0.24070592 0.82985157 4279767834
-0.077818312 0.24152215 0.83285296 4280228384
-0.076205187 0.24206731 0.83484888 4279702040
-0.07454972 0.24207029 0.8348341 4279833626
-0.072878696 0.24180219 0.83381402 4280425763
-0.071225099 0.24180517 0.83379924 4280623143
-0.069571503 0.24180815 0.83378446 4280557349
-0.067937754 0.24235335 0.8357802 4280557349
-0.06629651 0.24289855 0.83777589 4280425761
-0.064635418 0.24290155 0.83776104 4280360225
-0.062965721 0.24236231 0.8357358 4280492324
-0.06130109 0.24155195 0.83270538 4280426274
-0.059648816 0.2412838 0.83168542 4280623140
-0.057997644 0.24155791 0.83267587 4280623397
-0.056342725 0.24183202 0.83366627 4279964956
-0.054678984 0.24237727 0.83566177 4281280816
-0.05302164 0.24238025 0.83564693 4285886070
-0.051373113 0.2421121 0.83462703 4292597469
-0.049728338 0.24184394 0.8336072 4293716206
-0.048074741 0.24184693 0.83359241 4293387755
-0.046450038 0.24130762 0.83156753 4292993510
-0.044816509 0.24103944 0.83054775 4292862438
-0.043186735 0.24077125 0.82952803 4292928231
-0.041580778 0.2402319 0.82750332 4292862952
-0.039960377 0.2399637 0.82648367 4292928488
-0.038319904 0.23996666 0.826469 4292862695
-0.036653735 0.2402408 0.82745928 4292862695
-0.034983817 0.24051492 0.82844955 4292994024
-0.033339594 0.24051788 0.82843488 4293059560
-0.031664051 0.24079204 0.8294251 4292994024
-0.029984759 0.24106619 0.83041525 4293059304
-0.028336786 0.24106917 0.83040053 4293124840
-0.026688814 0.24107213 0.8303858 4293190377
-0.025002023 0.2413463 0.8313759 4293256426
-0.023352176 0.24134928 0.83136117 4293453549
-0.021702329 0.24135225 0.83134645 4293782513
-0.020052481 0.24135523 0.83133167 4293782770
-0.018448953 0.24108699 0.83031219 4293848306
-0.016849173 0.24081875 0.82929271 4293717234
-0.015303211 0.2402793 0.82726854 4292269787
-0.013712806 0.24001105 0.82624918 4281808697
-0.012126151 0.23974279 0.82522982 4281808698
-0.010376167 0.24028818 0.82722455 4281742904
-0.0086762523 0.24056238 0.82821453 4282466884
-0.0070320293 0.24056534 0.8281998 4285098349
-0.0053264895 0.24083954 0.82918978 4290954184
-0.0035540082 0.24138498 0.83118427 4293060330
-0.0019041611 0.24138796 0.83116955 4293060331
-0.00025431378 0.24139094 0.83115482 4293060330
0.0013955334 0.24139391 0.83114004 4293125867
0.0029039986 0.2408544 0.82911623 4293125867
0.0044775303 0.2405861 0.82809699 4293125867
0.0061217532 0.24058907 0.82808232 4292994281
0.0077659758 0.24059203 0.8280676 4292994537
0.0094101988 0.240595 0.82805294 4292994281
0.011134487 0.24086924 0.82904273 4292994538
0.012780584 0.2408722 0.82902801 4292994281
0.014426682 0.24087517 0.82901329 4292928231
0.01607278 0.24087815 0.82899857 4292928488
0.017631313 0.24060984 0.82797951 4292862695
0.019275535 0.2406128 0.82796478 4292599523
0.020919759 0.24061577 0.82795012 4292534243
0.022563981 0.24061874 0.8279354 4292665829
0.024208203 0.2406217 0.82792073 4292731621
0.02565855 0.24008207 0.8258974 4292600036
0.027299022 0.24008502 0.82588273 4292534242
0.028939495 0.24008799 0.82586813 4292403168
0.030682532 0.24036226 0.82685769 4292732131
0.032429319 0.24063653 0.8278473 4292995303
0.034073539 0.24063949 0.82783258 4291349967
0.035825949 0.24091378 0.82882214 4291152842
0.037472047 0.24091674 0.82880741 4292534240
0.039118145 0.24091971 0.82879269 4292928229
0.040764242 0.24092269 0.82877797 4292993763
0.04241034 0.24092565 0.82876331 4292927710
0.043938875 0.24065728 0.82774442 4292795097
0.045583099 0.24066025 0.82772976 4292531149
0.047348633 0.24093457 0.82871914 4292134846
0.049117919 0.24120888 0.82970852 4291344556
0.05101601 0.24175455 0.83170193 4290555030
0.052794669 0.24202888 0.83269125 4290554260
0.054577079 0.24230321 0.83368045 4290356111
0.056363236 0.24257755 0.83466971 4289960842
0.058153141 0.24285191 0.83565891 4290027145
0.059812363 0.24285491 0.83564407 4290422666
0.061471585 0.24285789 0.83562922 4290816908
0.062992617 0.24258952 0.83461046 4291342488
0.064790025 0.24286388 0.8355996 4291605916
0.066591181 0.24313825 0.83658868 4291935138
0.068539895 0.24368401 0.83858162 4291935139
0.070496112 0.24422979 0.8405745 4291869602
0.072459824 0.24477558 0.84256732 4291672224
nan nan nan 4284173632
-0.19987187 0.23449078 0.8028121 4283779642
-0.19778727 0.23367554 0.79977781 4284043071
-0.1961993 0.23367842 0.79976362 4284701773
-0.19445141 0.23340857 0.79874277 4284899411
-0.19254921 0.232866 0.79671538 4283913546
-0.19065453 0.23232342 0.79468805 4282598203
-0.18892165 0.23205355 0.79366732 4281545772
-0.18734491 0.23205639 0.79365325 4281019943
-0.18546709 0.23151378 0.79162604 4280823079
-0.18329945 0.2304257 0.78758585 4280624930
-0.18158717 0.2301558 0.7865653 4281545775
-0.17958882 0.2293404 0.78353184 4282269244
-0.17774476 0.22879773 0.78150493 4281413935
-0.17604937 0.2285278 0.78048456 4280821800
-0.17435771 0.22825785 0.77946424 4294111987
-0.17280723 0.22826065 0.77945042 4290032822
-0.17125675 0.22826345 0.77943653 4285822073
-0.1699736 0.22881176 0.78143549 4288256927
-0.16881475 0.22963284 0.78444076 4290560452
-0.16751473 0.23018119 0.7864396 4287928733
-0.16620721 0.23072954 0.78843832 4285231220
-0.16476603 0.23100513 0.78943068 4283060308
-0.1631968 0.23100796 0.78941667 4282402634
-0.16162758 0.23101079 0.78940266 4282138947
-0.16005833 0.23101363 0.7893886 4281809980
-0.15860778 0.23128924 0.7903809 4281743931
-0.15703668 0.23129207 0.79036683 4281875259
-0.15558049 0.2315677 0.79135901 4282532931
-0.15400751 0.23157053 0.791345 4283322447
-0.15254571 0.23184617 0.79233712 4284243293
-0.15108015 0.23212181 0.79332924 4284900966
-0.14971825 0.23267026 0.79532748 4285361517
-0.14738667 0.23485845 0.80334836 4292138455
-0.14589298 0.23513414 0.80434024 4292533471
-0.14439555 0.23540984 0.80533206 4291942106
-0.14279632 0.23541273 0.80531782 4292073692
-0.14110093 0.23514278 0.80429745 4292271071
-0.13940927 0.23487283 0.80327713 4292336864
-0.13781381 0.23487572 0.80326283 4292402914
-0.13612777 0.23460576 0.80224258 4292206048
-0.1344455 0.2343358 0.80122232 4292140768
-0.13285378 0.23433867 0.80120814 4292272354
-0.13109221 0.23379585 0.79918194 4292206561
-0.12950422 0.23379871 0.79916775 4292469989
-0.12799741 0.23407443 0.80015951 4286285191
-0.12640756 0.2340773 0.80014533 4281482301
-0.12497256 0.23462588 0.80214292 4280889650
-0.12330341 0.2343559 0.80112278 4281349686
-0.12149066 0.23354018 0.79809093 4281415477
-0.11990456 0.23354304 0.79807681 4281284661
-0.11824853 0.23327303 0.79705679 4281349941
-0.11659625 0.23300301 0.79603684 4281349684
-0.11514625 0.23355162 0.79803431 4281349684
-0.11362445 0.23382735 0.79902589 4281349684
-0.11197404 0.23355734 0.79800594 4281547062
-0.11069068 0.23492464 0.80302054 4281547062
-0.10921256 0.2354733 0.80501777 4281349684
-0.10755653 0.2352033 0.80399776 4281152305
-0.1060141 0.23547907 0.80498916 4280560425
-0.10446793 0.23575486 0.80598056 4280560427
-0.10286683 0.23575775 0.80596626 4281350456
-0.10131503 0.23603354 0.8069576 4282139973
-0.099759474 0.23630935 0.80794895 4283718237
-0.098245725 0.23685807 0.80994582 4287139217
-0.096680805 0.23713389 0.81093705 4290231488
-0.09511213 0.23740973 0.81192827 4292139228
-0.09349978 0.23741263 0.81191385 4292534243
-0.091887429 0.23741554 0.81189948 4292665829
-0.090311252 0.23769139 0.81289059 4292271073
-0.088697031 0.23769429 0.81287616 4291481557
-0.087082803 0.2376972 0.81286174 4286481546
-0.08549913 0.23797306 0.81385279 4280823091
-0.083854347 0.23770303 0.81283289 4280099368
-0.08218652 0.23716004 0.81080759 4281019955
-0.074482717 0.24263389 0.83084297 4280623910
-0.072850302 0.24290983 0.8318336 4280492324
-0.071200453 0.24291281 0.83181888 4280426531
-0.069550604 0.24291578 0.83180416 4280426531
-0.067910686 0.24319175 0.83279473 4280295458
-0.066267021 0.2434677 0.83378524 4280427042
-0.064613424 0.24347068 0.83377045 4280361249
-0.062955521 0.24320067 0.83275044 4280492835
-0.061301369 0.24293067 0.83173043 4280426785
-0.05965152 0.24293365 0.8317157 4280558115
-0.058000352 0.24320962 0.83270615 4280689703
-0.056348633 0.2432126 0.83269143 4280821033
-0.05470198 0.24294257 0.83167148 4281149486
-0.051446378 0.24158345 0.82661635 4281149487
-0.04979521 0.24185944 0.8276068 4286149755
-0.048165433 0.24158937 0.82658702 4292531676
-0.046524957 0.24159233 0.82657236 4293781999
-0.044917122 0.24104923 0.82454759 4292992741
-0.043298591 0.24077916 0.82352793 4293453805
-0.041703876 0.24023604 0.82150322 4293059560
-0.04007278 0.24023898 0.82148868 4292993767
-0.03844168 0.24024193 0.82147408 4292993767
-0.036810581 0.24024487 0.82145953 4292993767
-0.035151914 0.24052085 0.82244992 4293651184
-0.033460058 0.2410699 0.82444525 4293716464
-0.0317607 0.24161896 0.82644045 4293716207
-0.030087035 0.24189498 0.82743073 4293715950
-0.028409621 0.242171 0.82842094 4290031542
-0.026802341 0.24190091 0.8274014 4286939271
-0.025198808 0.24163079 0.82638186 4284241757
-0.023558335 0.24163376 0.8263672 4282794569
-0.021960428 0.24136364 0.82534772 4281939773
-0.020321829 0.2413666 0.82533306 4281873979
-0.018729545 0.24109647 0.82431364 4282334529
-0.016996441 0.24164559 0.82630855 4282334784
nan nan nan 4282532419
nan nan nan 4282335040
-0.0090243332 0.24056798 0.82221651 4282137149
-0.0073319208 0.24084404 0.8232066 4281611063
-0.005697072 0.24084698 0.823192 4282137408
-0.0038726574 0.24166927 0.82619131 4284439907
-0.0021671206 0.24194534 0.82718128 4290097592
-0.00052477274 0.24194831 0.82716662 4293716463
0.001048762 0.24167815 0.82614738 4293387755
0.0025478592 0.24113485 0.8241235 4293387755
0.0041120197 0.24086468 0.82310432 4293191146
0.0057468684 0.24086763 0.82308972 4293059817
0.0073817172 0.24087058 0.82307512 4293125867
0.009016566 0.24087353 0.82306051 4292994281
0.010731476 0.24114962 0.82405043 4292796902
0.012450137 0.24142571 0.82504028 4292599523
0.014088735 0.24142867 0.82502562 4292336607
0.015641646 0.24115847 0.82400656 4292205021
0.017103247 0.24061511 0.82198304 4292467680
0.018736221 0.24061806 0.8219685 4292599266
0.020277884 0.24034785 0.82094949 4292731365
0.021908984 0.24035078 0.82093489 4292731364
0.023540081 0.24035372 0.82092035 4292797156
0.025171181 0.24035667 0.8209058 4292665057
0.026802279 0.2403596 0.8208912 4292533725
0.028433379 0.24036255 0.82087666 4292599262
0.030167038 0.24063867 0.82186633 4292599261
0.031904448 0.24091481 0.82285607 4292599006
0.033539295 0.24091776 0.82284147 4292730075
0.035174143 0.24092071 0.82282686 4292598488
0.036919054 0.24119686 0.82381648 4292729813
0.038443841 0.24092661 0.8227976 4292597454
0.040078688 0.24092956 0.82278299 4292201924
0.041597854 0.2406593 0.82176423 4291674550
0.043230828 0.24066225 0.82174963 4290884517
0.044983234 0.2409384 0.82273918 4290291089
0.046739392 0.24121457 0.82372874 4290290572
0.048499301 0.24149074 0.82471824 4290355848
0.050388012 0.24204014 0.82671177 4290355588
0.052157294 0.24231634 0.82770115 4290355844
0.053930324 0.24259253 0.82869053 4290948757
0.055837788 0.24314196 0.83068395 4291672480
0.05762019 0.24341817 0.8316732 4292132773
0.059406348 0.24369439 0.83266246 4292133028
0.061059944 0.24369738 0.83264768 4292198051
0.062713541 0.24370036 0.8326329 4291869086
0.064507194 0.24397659 0.8336221 4291737503
0.066446528 0.24452609 0.83561522 4291737759
0.068393365 0.2450756 0.83760822 4291277209
0.070347697 0.24562511 0.83960122 4290224780
0.072457083 0.24644792 0.84259802 4289304191
nan nan nan 4283846981
-0.19461392 0.23526925 0.79977858 4284571220
-0.19255182 0.23444834 0.79674441 4283190597
-0.19034478 0.23335284 0.79270369 4283453770
-0.18861564 0.23308109 0.79168302 4282335290
-0.18689024 0.23280932 0.79066235 4280230684
-0.18501805 0.23226295 0.78863513 4280099356
-0.18330202 0.23199117 0.78761452 4282138939
-0.18158974 0.23171939 0.78659403 4284704096
-0.17959137 0.23089838 0.7835604 4281874740
-0.17760426 0.23007734 0.78052694 4281874740
-0.17576957 0.22953092 0.77850002 4281019433
-0.17422096 0.2295337 0.77848619 4280953383
-0.17267235 0.2295365 0.77847236 4290493112
-0.17125928 0.22981392 0.77946496 4287532173
-0.16997615 0.23036598 0.78146404 4290558907
-0.16881731 0.23119269 0.78446943 4290822337
-0.16738738 0.23147014 0.78546184 4283848537
-0.16608174 0.23202224 0.78746068 4283717465
-0.16464242 0.23229972 0.7884531 4285954942
-0.16295078 0.23202789 0.78743273 4285692027
-0.1613853 0.2320307 0.78741872 4283783773
-0.15981981 0.23203354 0.78740478 4283125843
-0.15825434 0.23203635 0.78739077 4282665547
-0.15680565 0.23231384 0.78838307 4282336581
-0.15535322 0.23259133 0.78937536 4282270275
-0.15378399 0.23259416 0.7893613 4282204481
-0.15221477 0.23259699 0.78934729 4282796360
-0.15075484 0.2328745 0.79033953 4283848791
-0.14918374 0.23287734 0.79032546 4284704100
-0.14792927 0.23370422 0.79333001 4284835173
-0.14666356 0.23453112 0.79633445 4286743172
-0.1452848 0.23508336 0.79833263 4290295996
-0.14379863 0.23536091 0.79932457 4292138457
-0.14240675 0.23591316 0.80132264 4292401630
-0.14091119 0.23619074 0.80231452 4292204765
-0.13931759 0.23619361 0.80230027 4292402144
-0.13763157 0.23592177 0.80127996 4292336864
-0.13585874 0.23537523 0.79925364 4292271328
-0.1340934 0.23482867 0.79722738 4292140255
-0.13250919 0.23483153 0.79721326 4292008926
-0.1307551 0.23428494 0.79518706 4292074719
-0.12917462 0.2342878 0.79517293 4292074718
-0.12759414 0.23429064 0.7951588 4292008925
-0.12609297 0.23456822 0.79615068 4292074975
-0.12451062 0.23457108 0.7961365 4291285202
-0.12292826 0.23457393 0.79612237 4286350470
-0.12127223 0.23430204 0.79510236 4280955701
-0.11961995 0.23403016 0.79408234 4280824112
-0.11804134 0.234033 0.79406822 4281350454
-0.11639469 0.2337611 0.79304826 4281349686
-0.11481796 0.23376395 0.7930342 4281020721
-0.11330553 0.23404154 0.7940259 4281086514
-0.11178936 0.23431915 0.7950176 4281086514
-0.11032999 0.23487154 0.79701507 4280757549
-0.10880443 0.23514916 0.79800671 4281612859
-0.10721833 0.23515202 0.79799253 4282665290
-0.10568716 0.23542964 0.79898411 4284441701
-0.10415223 0.2357073 0.79997563 4287140241
-0.10266474 0.23625971 0.80197281 4291416531
-0.10112044 0.23653738 0.80296427 4292535012
-0.099619821 0.23708983 0.80496138 4292535013
-0.098066151 0.23736751 0.80595273 4292666085
-0.096465044 0.23737039 0.80593842 4292600036
-0.094905749 0.23764808 0.80692977 4292271071
-0.093302771 0.23765098 0.8069154 4292205278
-0.091699794 0.23765387 0.8069011 4292271071
-0.090132996 0.23793156 0.80789238 4292074208
-0.088528149 0.23793446 0.80787802 4292008415
-0.086923294 0.23793735 0.80786365 4292074208
-0.085318446 0.23794025 0.80784935 4292534759
-0.083713591 0.23794314 0.80783498 4286679182
-0.082108743 0.23794603 0.80782068 4281415996
-0.080553755 0.23849858 0.80981725 4279902501
-0.079014324 0.23932599 0.81281924 4280494636
nan nan nan 4280296744
nan nan nan 4280560170
nan nan nan 4280361249
-0.071148425 0.24346326 0.82782769 4280492322
-0.069517888 0.24374107 0.82881838 4280361249
-0.067883596 0.2440189 0.82980901 4280427042
-0.066237502 0.24402186 0.82979429 4280427042
-0.064585216 0.24374998 0.82877427 4280624421
-0.062936686 0.24347807 0.82775432 4280624421
-0.06129434 0.24348103 0.82773966 4280558628
-0.059651993 0.24348399 0.82772499 4280427042
-0.058009643 0.24348696 0.82771027 4280492835
-0.056370486 0.24321504 0.82669044 4280756264
nan nan nan 4280953645
nan nan nan 4281151024
nan nan nan 4281348405
nan nan nan 4281545784
nan nan nan 4281808700
-0.046643171 0.24103361 0.81856155 4281611065
-0.04503401 0.24076164 0.8175419 4280492584
-0.0434286 0.24048966 0.8165223 4280755756
-0.041826941 0.24021767 0.81550276 4284440164
-0.040207092 0.24022059 0.81548828 4292730595
-0.038587239 0.24022353 0.81547379 4292270044
-0.036967389 0.24022645 0.81545937 4291941079
-0.035319977 0.24050428 0.81644988 4290690499
-0.033639375 0.24105707 0.81844532 4287926680
-0.031951271 0.24160986 0.82044077 4285031531
-0.03028886 0.24188772 0.82143116 4283123277
-0.028622698 0.2421656 0.82242149 4282860105
-0.027026661 0.2418936 0.82140201 4282399296
nan nan nan 4282267710
nan nan nan 4282925895
nan nan nan 4282728774
nan nan nan 4282860873
nan nan nan 4282597957
nan nan nan 4282532419
-0.01620971 0.23861465 0.80924243 4282335296
-0.014653046 0.23834258 0.80822325 4282335551
-0.012992509 0.23862045 0.8092137 4282269502
-0.011272535 0.23917329 0.81120878 4282269759
nan nan nan 4282401090
nan nan nan 4282335298
nan nan nan 4282597958
nan nan nan 4282466116
nan nan nan 4281939773
nan nan nan 4283781978
0.00056440115 0.24139363 0.81914502 4288782246
0.0021210655 0.24112158 0.81812584 4293322219
0.0037465401 0.2411245 0.81811136 4293717234
0.0053720144 0.24112743 0.81809682 4293585904
0.0069974889 0.24113037 0.81808227 4292796645
0.0087011475 0.2414083 0.81907231 4292533730
0.010328497 0.24141124 0.81905776 4292270558
0.01203778 0.24168921 0.82004774 4292204765
0.013667004 0.24169214 0.82003319 4292138714
0.015296228 0.24169508 0.82001865 4292204764
0.016837895 0.24142298 0.81899965 4292599008
0.018286377 0.24087586 0.81697619 4292862179
0.019909978 0.24087878 0.81696171 4292993764
0.021533577 0.24088171 0.81694716 4292993761
0.023062119 0.2406096 0.81592828 4292796381
0.024683844 0.24061252 0.8159138 4292598745
0.026404375 0.2408905 0.81690365 4292664024
0.028027976 0.24089342 0.81688917 4292795351
0.029651575 0.24089636 0.81687468 4292795094
0.031275176 0.24089928 0.81686014 4292794837
0.033005081 0.24117728 0.81784993 4292531150
0.034630556 0.24118021 0.81783545 4292136133
0.036366086 0.24145821 0.81882519 4291148974
0.037993435 0.24146114 0.81881064 4291082660
0.039506979 0.241189 0.81779188 4290555800
0.041132454 0.24119194 0.81777734 4290555283
0.042875484 0.24146995 0.81876701 4290422926
0.044622265 0.24174798 0.81975663 4290422407
0.046372794 0.242026 0.82074624 4290685066
0.048127074 0.24230404 0.82173586 4291145618
0.050010156 0.24285719 0.82372952 4291080337
0.051900737 0.24341033 0.82572311 4291409044
0.053670015 0.2436884 0.82671255 4292000673
0.055443045 0.24396648 0.82770193 4293053874
0.057219822 0.24424456 0.8286913 4292461737
0.059134778 0.24479775 0.83068472 4292067239
0.060784623 0.24480073 0.83067 4291672994
0.062572651 0.24507883 0.83165926 4290883477
-0.19019119 0.23465122 0.79172593 4282401597
-0.18815532 0.23382464 0.78869188 4281612082
-0.18628313 0.23327453 0.78666461 4282204732
-0.18456897 0.23300087 0.78564399 4286086776
-0.18285857 0.23272721 0.78462344 4285954933
-0.18129872 0.23273003 0.7846095 4282203962
-0.17930409 0.23190337 0.78157586 4282203962
-0.17746376 0.23135321 0.77954882 4281940533
-0.17563093 0.23080301 0.77752191 4282006069
-0.17394491 0.23052931 0.77650154 4286808445
-0.17253746 0.2308086 0.77749425 4288519320
-0.17112629 0.23108789 0.77848691 4289373602
-0.16984503 0.23164369 0.78048605 4290426547
-0.16842447 0.231923 0.78147864 4286611324
-0.16713008 0.23247884 0.78347766 4282071609
-0.16582821 0.23303469 0.78547657 4281414193
-0.16426648 0.2330375 0.78546262 4283454291
-0.16270475 0.23304032 0.78544867 4287073421
-0.16102059 0.2327666 0.78442836 4287468436
-0.15946074 0.23276941 0.78441441 4286283907
-0.15801956 0.23304877 0.78540683 4283850336
-0.15657462 0.23332812 0.78639919 4283126869
-0.15501101 0.23333094 0.78638524 4282731596
-0.15344742 0.23333377 0.78637123 4282533960
-0.15188381 0.23333658 0.78635728 4282533703
-0.1503202 0.2333394 0.78634328 4282599239
-0.14886403 0.23361878 0.78733557 4282796360
-0.14740409 0.23389815 0.78832781 4284177756
-0.14594042 0.23417754 0.78931999 4284769637
-0.14447299 0.23445694 0.79031217 4284966761
-0.14280196 0.23418321 0.78929198 4284703589
-0.14162494 0.23529232 0.7933026 4291809492
-0.1405291 0.23667803 0.79831922 4292599266
-0.13913161 0.23723404 0.80031729 4292138972
-0.13744932 0.23696034 0.79929698 4292336351
-0.13568024 0.23641004 0.7972706 4292138972
-0.13391866 0.23585971 0.79524428 4292007899
-0.13216457 0.23530938 0.79321808 4292007899
-0.13050291 0.23503563 0.79219794 4292271071
-0.12892805 0.23503847 0.79218388 4292271071
-0.12743437 0.23531792 0.79317582 4292139228
-0.12593696 0.23559736 0.7941677 4292139742
-0.12435835 0.2356002 0.79415363 4292469220
-0.12277975 0.23560306 0.7941395 4292798185
-0.12112746 0.23532929 0.79311949 4290232771
-0.11955073 0.23533213 0.79310536 4284179301
-0.11804394 0.2356116 0.79409719 4280625963
-0.11646533 0.23561445 0.79408312 4280560170
-0.11482055 0.23534067 0.7930631 4282533960
-0.11324382 0.23534352 0.79304904 4284310371
-0.11166709 0.23534635 0.79303497 4287468181
-0.11015092 0.23562583 0.79402667 4289442741
-0.10863099 0.23590532 0.79501837 4291284945
-0.10705052 0.23590818 0.79500425 4292271841
-0.10547004 0.23591103 0.79499012 4292535013
-0.10394261 0.23619053 0.79598176 4292535013
-0.10246263 0.2367467 0.79797912 4292535013
-0.10097513 0.23730287 0.79997641 4292008669
-0.099432714 0.2375824 0.80096787 4292140255
-0.097886547 0.23786195 0.80195934 4292205278
-0.096336626 0.23814148 0.8029508 4292139485
-0.094741143 0.23814435 0.80293655 4292205278
-0.093145669 0.23814724 0.80292231 4292205278
-0.091588251 0.23842679 0.80391365 4292205278
-0.090027079 0.23870637 0.804905 4292205278
-0.088427857 0.23870924 0.80489069 4292140001
-0.086828627 0.23871213 0.80487639 4292140001
-0.085229397 0.23871501 0.80486214 4292140001
-0.083630174 0.2387179 0.80484784 4292074975
-0.082057759 0.23899747 0.80583906 4291811803
-0.080481589 0.23927706 0.80683029 4285298296
