# .PCD v0.7 - Point Cloud Data file format
VERSION 0.7
FIELDS x y z rgba
SIZE 4 4 4 4
TYPE F F F U
COUNT 1 1 1 1
WIDTH 1094
HEIGHT 1
VIEWPOINT 0 0 0 1 0 0 0
POINTS 1094
DATA ascii
-0.017576592 0.32848537 0.81890368 4283649620
-0.015952993 0.32848829 0.8188892 4283583827
-0.014225852 0.32924363 0.82088798 4293782257
-0.012491211 0.329999 0.82288671 4293782512
-0.010915633 0.32962573 0.8218655 4293782256
-0.0094011994 0.32887623 0.81983775 4282005565
-0.0077757244 0.32887915 0.81982327 4281479221
-0.0062113949 0.32850587 0.81880218 4281610807
-0.0046508145 0.32813257 0.81778115 4280690219
-0.0032237731 0.32700682 0.8147471 4289506994
-0.0017412112 0.32625726 0.81271964 4293718516
-0.0001288604 0.32626015 0.81270522 4293192172
0.0014834903 0.32626307 0.81269079 4293192429
0.003095841 0.32626599 0.81267643 4293127405
0.0047081918 0.32626888 0.81266201 4293258991
0.0063205427 0.3262718 0.81264758 4293127662
0.007932893 0.32627469 0.81263322 4293062127
0.0096251369 0.32665387 0.81362516 4292996333
0.01132113 0.32703304 0.8146171 4293062382
0.012769945 0.32628343 0.81259 4293062382
0.014296778 0.32591006 0.81156921 4293062126
0.015819862 0.3255367 0.81054854 4292996334
0.017428463 0.32553962 0.81053418 4292996334
0.019128207 0.32591879 0.81152606 4292996334
0.020831699 0.32629797 0.81251794 4292996334
0.022444049 0.32630089 0.81250358 4292930541
0.024153167 0.32668006 0.8134954 4292865261
0.025767392 0.32668298 0.81348097 4292930797
0.027381618 0.32668591 0.81346655 4292996590
0.028791063 0.3259362 0.81143975 4293062126
0.030401537 0.32593912 0.81142533 4292864490
0.032118153 0.32631832 0.81241715 4293060586
0.033946536 0.32707384 0.81441498 4282664009
0.036002196 0.32858202 0.81842506 4280557863
0.038072858 0.33009019 0.82243496 4281214766
0.039817598 0.33046946 0.82342649 4280885801
0.041450571 0.33047241 0.82341188 4280885801
0.043083545 0.33047536 0.82339728 4280951594
0.044835784 0.33085462 0.82438874 4280688422
0.04659177 0.33123392 0.82538015 4280951595
0.048228495 0.33123687 0.82536554 4281083181
0.049740329 0.33086348 0.82434493 4281806904
0.051375177 0.33086643 0.82433033 4281938489
0.053138662 0.33124572 0.82532167 4281938744
0.054775387 0.33124867 0.82530701 4282136123
0.056412112 0.33125162 0.82529241 4282004793
0.05791457 0.33087823 0.82427186 4281873208
0.059141006 0.32975209 0.82123959 4281873208
0.060632218 0.32937866 0.82021922 4281149228
0.061979793 0.32862887 0.81819296 4284371801
0.063603394 0.32863179 0.81817842 4293319386
0.064939715 0.32788199 0.81615227 4291082662
0.066414058 0.32750854 0.81513202 4290161031
0.067737259 0.32675868 0.813106 4290161031
0.069351479 0.3267616 0.81309158 4290094733
-0.15653059 0.32229856 0.80003214 4278911489
-0.15449162 0.32079029 0.7959854 4287724132
-0.152913 0.32079312 0.79597127 4289498475
-0.1513344 0.32079598 0.79595721 4289366371
-0.14986339 0.32117662 0.79695117 4289366635
-0.14838864 0.32155728 0.79794514 4288841850
-0.14691013 0.32193792 0.79893905 4290227627
-0.1453259 0.32194078 0.79892492 4290757056
-0.14374167 0.32194364 0.79891074 4290757574
-0.14205922 0.3215687 0.79788858 4290888905
-0.14047687 0.32157153 0.79787445 4290625988
-0.13880004 0.32119659 0.79685235 4290429124
-0.13712697 0.32082161 0.79583025 4290955981
-0.13554837 0.32082444 0.79581612 4291087566
-0.13396977 0.32082731 0.79580206 4291088079
-0.13239115 0.32083014 0.79578793 4291417044
-0.13081256 0.320833 0.79577386 4291878108
-0.12923396 0.32083586 0.79575974 4292141280
-0.12757401 0.32046086 0.79473776 4292075231
-0.12599728 0.32046369 0.79472369 4292075232
-0.12442055 0.32046655 0.79470962 4292207073
-0.12291954 0.32084724 0.79570335 4292075487
-0.12141478 0.32122794 0.79669702 4292272609
-0.11990628 0.32160863 0.79769069 4292338144
-0.11832392 0.32161149 0.79767656 4292140765
-0.11667334 0.32123649 0.79665464 4292074715
-0.11502652 0.32086146 0.79563278 4292271581
-0.11351239 0.32124218 0.79662639 4292206558
-0.1120571 0.3220008 0.79862767 4292600804
-0.11071576 0.32351518 0.80264425 4284177504
-0.10947712 0.32578534 0.808676 4291413708
-0.10798809 0.32654399 0.81067699 4291084230
-0.10649156 0.32730266 0.81267786 4291281609
-0.10488108 0.32730556 0.8126635 4291018437
-0.10321926 0.32693058 0.81164151 4290492093
-0.10151171 0.32617769 0.80961198 4290360507
-0.099811658 0.32542476 0.8075825 4280294177
-0.098164834 0.32504976 0.8065607 4280162591
-0.096609458 0.32543054 0.80755389 4280031005
-0.095050327 0.32581136 0.80854714 4289768370
-0.093527548 0.32657006 0.81054777 4289571505
-0.091959044 0.32695088 0.8115409 4289308333
-0.090423144 0.32770965 0.81354147 4289505712
-0.088879742 0.32846838 0.81554192 4289374126
-0.087328844 0.32922718 0.81754237 4289308333
-0.085770443 0.32998595 0.81954271 4289308333
-0.084146842 0.3299889 0.81952822 4289045161
-0.082523242 0.32999182 0.81951368 4289110954
-0.080949843 0.33075061 0.82151395 4289176747
-0.079322495 0.33075356 0.82149941 4288848295
-0.077567041 0.3284888 0.81544089 4288125085
-0.075892515 0.32735786 0.81240451 4289046187
-0.074229233 0.32622689 0.80936825 4293191660
-0.072592929 0.32547387 0.80733937 4292336864
-0.070977978 0.32509878 0.80631781 4292402657
-0.069390729 0.32547966 0.80731076 4292337634
-0.067799725 0.3258605 0.80830365 4292337634
-0.06620498 0.32624137 0.80929655 4292337634
-0.064600125 0.32624426 0.80928218 4292337634
-0.062995277 0.32624716 0.80926788 4292403683
-0.061390422 0.32625005 0.80925351 4292469733
-0.059784845 0.32587495 0.80823207 4292403940
-0.058181867 0.32587785 0.80821776 4291811802
-0.056578889 0.32588074 0.8082034 4291877596
-0.054975912 0.32588363 0.80818909 4291943389
-0.053366166 0.32626453 0.80918187 4291877083
-0.051752668 0.32664543 0.81017458 4292074461
-0.050156463 0.32627031 0.8091532 4292008668
-0.048551612 0.3262732 0.80913883 4292074461
-0.04694676 0.32627609 0.80912447 4292074461
-0.045341909 0.32627901 0.80911016 4292336606
-0.043737058 0.32628191 0.8090958 4292271070
-0.042132206 0.3262848 0.80908149 4292270558
-0.040505584 0.3266657 0.81007409 4292928488
-0.038827922 0.32780269 0.81308049 4293191146
-0.03713901 0.32893971 0.81608683 4281280816
-0.035329271 0.33158889 0.82312059 4286148472
-0.033581093 0.33310398 0.82713354 4286149242
-0.031973641 0.33272892 0.82611203 4285886070
-0.030336916 0.33273187 0.82609743 4285557105
-0.028769983 0.33197871 0.82406914 4285096554
-0.027210547 0.33122554 0.82204098 4285162347
-0.025619965 0.33085042 0.82101959 4282399040
-0.023992617 0.33085337 0.82100505 4282399040
-0.022365266 0.33085629 0.8209905 4282464063
-0.020737918 0.33085924 0.82097596 4282267455
-0.019202854 0.33010602 0.81894797 4282267454
-0.01767529 0.3293528 0.8169201 4282399040
-0.016055441 0.32935572 0.81690562 4282202172
-0.014332056 0.33011481 0.81890446 4282070586
-0.012601172 0.33087391 0.8209033 4282202172
-0.011084856 0.33012068 0.81887549 4281873465
-0.0095760403 0.32936743 0.81684774 4281873979
-0.0080154575 0.32899225 0.81582665 4281742393
-0.0064586238 0.32861707 0.81480557 4281742649
-0.00490554 0.32824188 0.8137846 4280032289
-0.0034859886 0.32711047 0.81075048 4285164655
-0.0019441537 0.32673526 0.80972958 4292994793
-0.00033742748 0.32673818 0.80971521 4292336864
0.0012692987 0.32674107 0.80970085 4292336864
0.0028760249 0.32674396 0.80968654 4292336864
0.0044827512 0.32674685 0.80967218 4292205535
0.0060894773 0.32674977 0.80965781 4292206048
0.0076962039 0.32675266 0.80964345 4292206048
0.0093828198 0.32713369 0.81063551 4292140255
0.010991421 0.32713658 0.81062114 4292206304
0.012516382 0.32676136 0.80960041 4292140768
0.014037594 0.32638612 0.80857968 4292206561
0.015555057 0.32601085 0.80755895 4292206561
0.017158033 0.32601374 0.80754465 4292074975
0.018852148 0.3263948 0.80853665 4292140768
0.020550014 0.32677585 0.80952859 4292140768
0.02215674 0.32677874 0.80951428 4292074975
0.023763467 0.32678163 0.80949992 4292140768
0.025370192 0.32678455 0.80948555 4292271584
0.026976919 0.32678744 0.80947119 4292402657
0.028583644 0.32679033 0.80945683 4292271071
0.030086108 0.32641506 0.80843627 4292336351
0.031690959 0.32641795 0.80842197 4293256938
0.033403825 0.32679904 0.80941379 4287466898
0.035340212 0.3279365 0.81241786 4280623912
0.037399609 0.32945216 0.81642807 4281939258
0.03936037 0.33058965 0.81943196 4282004537
0.040870335 0.33021438 0.81841129 4282004536
0.04261132 0.33059552 0.81940287 4282004536
0.044594578 0.33173305 0.82240659 4282004536
0.046467949 0.33249241 0.82440412 4282136122
0.047979787 0.33211714 0.82338345 4282070329
0.049487874 0.3317419 0.82236284 4282662466
0.051118974 0.33174482 0.8223483 4282662723
0.053007346 0.33250421 0.82434571 4282728516
0.054903213 0.33326361 0.826343 4282925895
0.056541812 0.33326656 0.8263284 4282991688
0.057777628 0.33213481 0.82329595 4282795079
0.059002198 0.33100307 0.82026356 4282795079
0.060353529 0.33024952 0.81823725 4282859845
0.06169736 0.32949597 0.81621099 4282727489
0.063033693 0.32874241 0.81418473 4293385180
0.064506158 0.32836708 0.81316447 4292727233
0.065974876 0.32799175 0.81214422 4290424205
0.067292459 0.32723814 0.81011814 4290095237
0.06860254 0.32648453 0.80809218 4290226573
0.070207395 0.32648742 0.80807781 4288910462
nan nan nan 4287726706
nan nan nan 4279633922
-0.15438098 0.32198924 0.79500616 4288908143
-0.15269291 0.32161242 0.79398394 4289235558
-0.15122752 0.3219949 0.79497802 4289629801
-0.1497584 0.32237741 0.79597205 4289629549
-0.14828551 0.32275996 0.79696608 4288777601
-0.14670503 0.32276279 0.79695195 4290951868
-0.14512455 0.32276565 0.79693782 4290953925
-0.14354408 0.32276851 0.7969237 4290953928
-0.1419636 0.32277134 0.79690957 4290823368
-0.14028677 0.32239452 0.79588741 4290757832
-0.13870816 0.32239735 0.79587334 4290495430
-0.13703696 0.3220205 0.79485124 4290626759
-0.13546024 0.32202336 0.79483712 4290692809
-0.13397235 0.3224059 0.79583102 4290561223
-0.13239375 0.32240874 0.7958169 4290627529
-0.13081515 0.3224116 0.79580277 4291219666
-0.12923655 0.32241443 0.79578871 4291285459
-0.12765794 0.32241729 0.79577458 4291417045
-0.12607934 0.32242015 0.79576051 4291351252
-0.12450073 0.32242298 0.79574639 4291482838
-0.12292213 0.32242584 0.79573226 4291482838
-0.12149122 0.32318813 0.79773384 4291482837
-0.1198369 0.32281125 0.79671186 4291417044
-0.11825641 0.32281411 0.7966978 4291482580
-0.11667594 0.32281697 0.79668367 4291350994
-0.11502911 0.32244006 0.79566175 4291284688
-0.1134505 0.32244292 0.79564768 4291284689
-0.1119971 0.32320526 0.79764903 4291876569
-0.11065765 0.32472712 0.80166572 4282993486
-0.10947975 0.32738829 0.80870539 4280162335
-0.10799072 0.32815072 0.81070644 4280228385
-0.10654929 0.32929289 0.8137151 4280096799
-0.10493694 0.32929581 0.81370068 4280228385
-0.10327324 0.32891893 0.81267864 4279965213
-0.10161329 0.32854208 0.81165665 4280096798
-0.099909484 0.32778543 0.80962706 4281083946
-0.098258913 0.32740852 0.80860519 4281215275
-0.096655935 0.32741141 0.80859083 4281149739
-0.095094934 0.3277941 0.80958408 4280952361
-0.093530186 0.3281768 0.81057727 4280886826
-0.091999911 0.32893929 0.81257796 4279965212
-0.090498492 0.33008158 0.81558603 4280031775
-0.088951349 0.33084407 0.81758654 4280097568
-0.087429307 0.33198643 0.82059449 4280097568
-0.085834563 0.33236915 0.82158738 4280031775
-0.084236063 0.3327519 0.82258028 4280492326
-0.082606837 0.33275485 0.82256573 4280425764
-0.081027821 0.33351743 0.82456595 4280360228
-0.079371616 0.33314055 0.82354403 4280097313
-0.077526987 0.32934526 0.81345582 4280295205
-0.075875677 0.32858849 0.8114267 4286874762
-0.074214265 0.32745191 0.80839038 4292665059
-0.072564095 0.32631528 0.80535412 4291810263
-0.070966743 0.32631817 0.80533981 4291810520
-0.069369391 0.32632107 0.80532557 4291745497
-0.067792252 0.32708362 0.80732578 4291679704
-0.066199377 0.32746637 0.80831873 4291745497
-0.064602755 0.32784912 0.80931163 4291811290
-0.062993422 0.32747215 0.80829012 4291877083
-0.061390448 0.32747504 0.80827576 4291942876
-0.059787471 0.32747793 0.80826145 4291877596
-0.058185641 0.32710096 0.80724001 4291811803
-0.05658152 0.32748371 0.80823284 4291943132
-0.054978542 0.3274866 0.80821848 4291942620
-0.053368796 0.32786936 0.80921131 4291942619
-0.051763944 0.32787228 0.80919695 4291876826
-0.050159093 0.32787517 0.80918258 4291942620
-0.048566636 0.32749817 0.8081612 4292008412
-0.046963658 0.32750106 0.80814689 4292008669
-0.045360684 0.32750395 0.80813259 4292139741
-0.043757707 0.32750684 0.80811822 4292205278
-0.042154729 0.32750973 0.80810392 4292205022
-0.040529985 0.32789254 0.80909657 4292204508
-0.038854208 0.32903513 0.81210315 4293125353
nan nan nan 4282334017
-0.035331946 0.33321998 0.82315052 4282266942
-0.033525247 0.33550242 0.82917744 4282267455
-0.031882901 0.33550537 0.82916278 4282333248
-0.03027357 0.33512843 0.82814121 4282201661
-0.028702877 0.33437154 0.82611281 4282530626
-0.027139686 0.33361462 0.82408452 4282464833
-0.025545353 0.33323765 0.82306314 4282530882
-0.023914253 0.33324057 0.82304853 4282530882
-0.022283155 0.33324352 0.82303399 4282465089
-0.020740587 0.33248657 0.82100582 4282465345
-0.019205518 0.33172962 0.81897777 4282333759
-0.017629933 0.33135259 0.81795657 4282137149
-0.016008208 0.33135551 0.81794202 4282137149
-0.014334718 0.33173841 0.81893426 4281940283
-0.012657479 0.33212128 0.81992644 4281940283
-0.011087519 0.33174425 0.81890523 4281808440
-0.0096360864 0.3306073 0.81587076 4281873976
-0.0080773747 0.33023024 0.81484967 4281676598
-0.0064612743 0.33023316 0.81483525 4281676598
-0.004845174 0.33023608 0.81482083 4281216048
-0.0034237383 0.32909906 0.81178659 4283190352
-0.0020135518 0.32796201 0.80875248 4283190352
-0.00040870026 0.3279649 0.80873811 4292467679
0.0011961511 0.32796779 0.80872381 4292402144
0.0028010025 0.32797068 0.80870944 4292402144
0.0044058538 0.32797357 0.80869514 4292336864
0.0059345681 0.32759649 0.80767429 4292337121
0.0076155569 0.32797939 0.80866647 4292271071
0.0093002953 0.32836229 0.80965859 4292205535
0.010907021 0.32836518 0.80964422 4292336864
0.012513747 0.32836807 0.80962986 4292402657
0.014034962 0.32799095 0.80860913 4292402657
0.015552428 0.32761383 0.8075884 4292271071
0.017155405 0.32761672 0.80757403 4292336864
0.018849516 0.32799965 0.80856609 4292402657
0.020454368 0.32800254 0.80855173 4292336864
0.022154106 0.32838547 0.80954373 4292336864
0.02366407 0.32800832 0.80852306 4292402657
0.025268922 0.32801121 0.80850875 4292336864
0.026873773 0.32801411 0.80849439 4292336864
0.028478624 0.328017 0.80848008 4292468450
0.029979218 0.32763985 0.80745947 4292402400
0.031582195 0.32764274 0.80744517 4292862695
0.033185169 0.32764563 0.80743086 4291414991
0.035007916 0.32840866 0.80942887 4280624682
0.037061676 0.3299318 0.81343925 4281808698
0.038903169 0.33069485 0.81543714 4281808696
0.040521145 0.33069777 0.81542265 4281677109
0.042373888 0.33146083 0.81742048 4281611316
0.044353388 0.33260399 0.82042432 4281611827
0.046344135 0.33374718 0.82342803 4281611316
0.047854099 0.33337003 0.82240736 4281545523
0.04911055 0.33223271 0.81937462 4281940281
0.050862785 0.33261573 0.82036614 4282532418
0.052876029 0.33375895 0.82336968 4282729797
0.054770019 0.3345221 0.82536709 4282663491
0.056539126 0.33490515 0.82635844 4282532416
0.057774954 0.3337678 0.82332587 4282729795
0.058863398 0.3322503 0.81928748 4282664004
0.060350869 0.33187312 0.81826705 4282926663
0.061554823 0.33073571 0.81523478 4281938741
0.062889285 0.32997838 0.81320852 4290227629
0.064359881 0.32960117 0.81218821 4293384912
0.065826721 0.32922396 0.8111679 4290556309
0.067142442 0.32846662 0.80914181 4290227847
0.06859991 0.32808939 0.80812162 4290161032
0.07005363 0.32771215 0.80710143 4289765510
nan nan nan 4287857776
nan nan nan 4280818961
-0.15381746 0.32165828 0.789994 4289435510
-0.1522501 0.32166111 0.78997999 4289367655
-0.15068275 0.32166395 0.78996599 4289696108
-0.14933059 0.32242984 0.79196835 4289498479
-0.14786521 0.32281423 0.79296243 4288973427
-0.14629222 0.32281706 0.79294837 4288713608
-0.14461727 0.32243836 0.79192621 4291019203
-0.14304617 0.32244119 0.7919122 4291019719
-0.14157329 0.32282558 0.79290622 4291020489
-0.13990396 0.32244685 0.79188412 4290824141
-0.13833286 0.32244968 0.79187006 4290757832
-0.13666914 0.32207096 0.79084802 4290692039
-0.13509992 0.32207379 0.79083401 4290757832
-0.13370839 0.32283977 0.79283595 4290757832
-0.13213541 0.3228426 0.79282194 4291086541
-0.13064754 0.32322702 0.79381585 4291481812
-0.12907268 0.32322985 0.79380178 4291416276
-0.12741648 0.32285112 0.79277974 4291416532
-0.1258435 0.32285395 0.79276568 4291548118
-0.12427051 0.32285678 0.79275167 4291548118
-0.12277326 0.32324123 0.79374546 4291482325
-0.12127226 0.32362568 0.79473925 4291679704
-0.11969553 0.32362852 0.79472518 4291548118
-0.1181188 0.32363135 0.79471111 4291482325
-0.11647385 0.32325259 0.79368919 4291350739
-0.11489899 0.32325542 0.79367512 4291416019
-0.11332414 0.32325828 0.79366106 4291284689
-0.11181188 0.32364273 0.79465473 4292073692
-0.11035661 0.32440883 0.79665619 4282467657
-0.10627642 0.32899705 0.80870616 4280755497
-0.10472667 0.32938159 0.80969954 4280821288
-0.10317317 0.32976612 0.81069285 4280952873
-0.10156645 0.32976902 0.81067854 4280952873
-0.099864513 0.32900861 0.80864888 4280953128
-0.098170079 0.3282482 0.80661935 4280887080
-0.096570849 0.32825106 0.80660504 4280887080
-0.094971627 0.32825395 0.8065908 4280821287
-0.093412504 0.32863852 0.80758405 4280689958
-0.091964327 0.33016807 0.81159991 4280821800
-0.090501145 0.33169767 0.81561565 4280952875
-0.088954002 0.33246392 0.81761628 4280821289
-0.087464578 0.33399355 0.82163179 4280821289
-0.08589869 0.33475986 0.82363218 4280952875
-0.08429645 0.33514449 0.82462507 4280952875
-0.082690455 0.33552912 0.82561797 4281017899
nan nan nan 4280755242
-0.074146464 0.32752806 0.80439031 4292664802
-0.07250379 0.3263858 0.80135399 4291941336
-0.070913933 0.32638866 0.80133981 4291810007
-0.069336064 0.32677326 0.80233294 4291942106
-0.067754447 0.32715786 0.80332601 4291942106
-0.066177309 0.32792416 0.80532634 4291876313
-0.064579956 0.32792705 0.80531204 4291942106
-0.062982604 0.32792991 0.80529779 4292007899
-0.061385252 0.3279328 0.80528349 4292007899
-0.059787899 0.3279357 0.80526924 4292073692
-0.058190547 0.32793856 0.80525494 4292073692
-0.056593195 0.32794145 0.80524069 4292073436
-0.054995842 0.32794434 0.80522645 4292205022
-0.053391725 0.32832897 0.80621928 4292138972
-0.051792499 0.32833186 0.80620503 4292138972
-0.050203785 0.32795298 0.80518359 4292138972
-0.048606433 0.32795587 0.80516934 4292073179
-0.047023349 0.32757697 0.80414796 4292204765
-0.04542787 0.32757986 0.80413371 4292336351
-0.04381438 0.32796451 0.80512655 4292205278
-0.042217027 0.32796738 0.80511224 4292205791
-0.040597908 0.32835203 0.80610502 4292205021
-0.038927767 0.32950026 0.80911171 4292993767
nan nan nan 4282202944
-0.033557206 0.33676296 0.82820064 4282333248
-0.031885594 0.33714771 0.82919288 4282464834
-0.030309273 0.3363871 0.82716441 4282596419
-0.028740451 0.33562645 0.82513595 4282662979
-0.027179128 0.33486578 0.8231076 4282597184
-0.025586665 0.33448693 0.82208616 4282531905
-0.023916928 0.33487168 0.82307845 4282466370
-0.022328217 0.3344928 0.82205707 4282334528
-0.020831779 0.33335027 0.81902206 4282203453
-0.019300453 0.33258957 0.81699401 4282137916
-0.017728616 0.33221066 0.81597275 4282072380
-0.01611064 0.33221358 0.81595826 4282006587
-0.014544426 0.33183467 0.81493706 4281744183
-0.013035598 0.33107391 0.81290919 4281744183
-0.011478758 0.330695 0.8118881 4281546804
-0.0099830544 0.32993421 0.80986029 4281480754
-0.0083763283 0.3299371 0.80984592 4281546291
-0.0066473312 0.33070371 0.81184489 4281677622
-0.0050368551 0.33070663 0.81183052 4281282352
-0.0035561498 0.3299458 0.80980289 4281282352
-0.0021497034 0.32880312 0.80676872 4281874747
-0.0006172366 0.32842416 0.80574781 4293454572
0.00098199036 0.32842705 0.8057335 4292468192
0.0025812173 0.32842994 0.80571926 4292402144
0.0041061849 0.32805094 0.80469841 4292402144
0.0057035368 0.32805383 0.8046841 4292402144
0.0073008891 0.32805669 0.80466986 4292402400
0.0089781247 0.32844147 0.8056621 4292336864
0.010577352 0.32844436 0.80564779 4292402401
0.012176579 0.32844722 0.80563349 4292468193
0.013690297 0.32806823 0.80461276 4292402144
0.01528765 0.32807112 0.80459851 4292467937
0.016885001 0.32807398 0.80458421 4292402144
0.018573487 0.32845879 0.80557638 4292402144
0.020172713 0.32846165 0.80556208 4292467937
0.021771941 0.32846454 0.80554777 4292533730
0.023274411 0.32808551 0.80452716 4292467937
0.024871763 0.3280884 0.80451286 4292336351
0.026469115 0.32809129 0.80449861 4292336608
0.028066466 0.32809415 0.80448437 4292468450
0.029663818 0.32809705 0.80447006 4292271071
0.031155039 0.32771799 0.80344951 4292402143
0.032750517 0.32772088 0.80343527 4293323501
0.034455877 0.32810569 0.80442727 4282336068
0.03594147 0.32772663 0.80340677 4281480758
nan nan nan 4281677366
0.040056471 0.33078796 0.81142765 4281743413
0.041549567 0.3304089 0.8104071 4281546034
0.047734212 0.3296566 0.80833745 4281611827
nan nan nan 4282138169
nan nan nan 4282664513
nan nan nan 4282598720
0.055609785 0.3338699 0.81934637 4282467134
0.056563988 0.33196294 0.81430179 4282204732
0.05804396 0.33158386 0.81328136 4282598722
0.059658188 0.33158678 0.81326693 4282664002
0.060992658 0.33082572 0.81124061 4282400319
0.062319625 0.33006462 0.80921435 4283385930
0.063639097 0.32930353 0.80718815 4293319898
0.065242074 0.32930642 0.80717385 4291280297
0.066550292 0.3285453 0.80514771 4289964421
0.067851014 0.32778418 0.80312169 4290029445
0.069446497 0.32778707 0.80310744 4290160268
0.071194977 0.32817197 0.80409902 4288449912
nan nan nan 4282791721
-0.15336712 0.32169199 0.78598976 4289433455
-0.15169591 0.32131138 0.7849676 4289629543
-0.15024741 0.32169762 0.78596187 4289826924
-0.14879516 0.32208386 0.78695613 4289760880
-0.14733915 0.3224701 0.7879504 4288973171
-0.1458794 0.32285634 0.7889446 4288977041
-0.14421193 0.32247573 0.78792244 4290887618
-0.14264834 0.32247856 0.78790849 4291085256
-0.14118296 0.3228648 0.78890264 4291151050
-0.13952112 0.3224842 0.78788054 4291085769
-0.13795751 0.32248703 0.78786659 4290888907
-0.13639392 0.32248983 0.78785259 4290823112
-0.13483031 0.32249266 0.78783864 4290823112
-0.13344441 0.32326239 0.7898407 4290823112
-0.13196403 0.32364866 0.79083472 4290823112
-0.1303948 0.32365149 0.79082072 4291283919
-0.12882558 0.32365432 0.79080671 4291547348
-0.12717499 0.32327369 0.78978473 4291613141
-0.12560764 0.32327652 0.78977072 4291678934
-0.12404028 0.32327935 0.78975672 4291613141
-0.12254865 0.32366565 0.79075062 4291613141
-0.12105328 0.32405195 0.79174453 4291613141
-0.11948217 0.32405478 0.79173046 4291678934
-0.11791107 0.32405761 0.79171646 4291613141
-0.11633997 0.32406047 0.79170239 4291481555
-0.11470251 0.3236798 0.79068053 4291481555
-0.11313327 0.32368264 0.79066652 4291481554
-0.11168926 0.32445246 0.7926681 4292271069
-0.11023774 0.32522231 0.79466957 4282270533
-0.10883758 0.32637566 0.79767883 4280230949
nan nan nan 4280756519
nan nan nan 4280690726
-0.10440991 0.32868531 0.80368268 4280756517
-0.10302174 0.33022228 0.80769926 4280822309
-0.10137115 0.32984164 0.80667728 4280756516
-0.099724323 0.32946101 0.8056553 4280625700
-0.098035507 0.32869682 0.80362576 4280625700
-0.096354187 0.32793263 0.80159622 4280625700
-0.094764337 0.32793549 0.80158204 4280625702
-0.093294807 0.32908899 0.80459064 4280625702
-0.091852263 0.33062604 0.80860668 4280559909
-0.09039472 0.33216313 0.81262261 4280691495
-0.08885321 0.33293313 0.81462336 4280625700
-0.08736942 0.33447024 0.81863904 4280756007
-0.085839897 0.33562383 0.82164711 4280756007
-0.084270269 0.33639389 0.82364756 4280756007
-0.082666151 0.3367804 0.82464045 4280755494
nan nan nan 4280689704
nan nan nan 4280426533
-0.074113861 0.32835636 0.80240476 4292664801
-0.072459191 0.3268249 0.79836106 4292664801
-0.070874959 0.32682776 0.79834688 4292006872
-0.069302715 0.32721421 0.79934007 4291941849
-0.067736834 0.32798424 0.80134058 4291942106
-0.066146985 0.3279871 0.80132639 4292007899
-0.06456349 0.32837358 0.80231947 4291942106
-0.062971763 0.32837647 0.80230522 4292073692
-0.061380036 0.32837933 0.80229104 4292073692
-0.059787571 0.32799858 0.80126953 4292073692
-0.058196582 0.32838508 0.8022626 4292073692
-0.056604855 0.32838795 0.80224836 4292073692
-0.055013124 0.32839081 0.80223411 4292139229
-0.053421397 0.3283937 0.80221993 4292204765
-0.05182967 0.32839656 0.80220568 4292073179
-0.050248455 0.3280158 0.80118436 4292270301
-0.048670989 0.32763502 0.80016297 4292204765
-0.047083013 0.32763788 0.80014879 4292138972
-0.045495033 0.32764077 0.8001346 4292204765
-0.043889042 0.32802728 0.80112749 4292336351
-0.042279303 0.32841378 0.80212039 4292270558
-0.040665817 0.32880032 0.80311322 4292270558
-0.039001305 0.32995415 0.80612004 4293059560
-0.037376568 0.33034068 0.80711275 4283651160
nan nan nan 4282663752
-0.033618417 0.33763611 0.82621676 4282531907
-0.031950559 0.33802271 0.82720912 4282597700
-0.030344969 0.33764201 0.82618749 4282597698
-0.028778017 0.33687761 0.82415903 4282663491
-0.027181802 0.33649686 0.82313752 4282597698
-0.025589338 0.33611614 0.82211608 4282532418
-0.023960114 0.33611909 0.82210153 4282466625
-0.022415657 0.33535463 0.82007325 4282335550
-0.020967219 0.33382279 0.81603134 4282335550
-0.019441511 0.33305833 0.81400323 4282269757
-0.017827285 0.33306125 0.8139888 4282073148
-0.016213061 0.33306414 0.81397438 4281875769
-0.014702352 0.33229965 0.81194639 4281810233
-0.013306408 0.33076772 0.80790496 4281678390
-0.011758939 0.33038691 0.80688387 4281546804
-0.010272603 0.32962236 0.80485612 4281546804
-0.0086159939 0.33000895 0.8058486 4281481011
-0.0068333694 0.33116302 0.8088544 4281546548
-0.005228518 0.33116591 0.80884004 4281546035
-0.0036885487 0.33078507 0.80781907 4281677622
-0.002285843 0.32963675 0.80478477 4280756521
-0.0007571227 0.32925591 0.80376387 4292072663
0.00083835458 0.32925877 0.80374962 4292797157
0.0023614503 0.32887793 0.80272877 4292402143
0.0038807967 0.32849705 0.80170798 4292402144
0.0054725241 0.32849991 0.80169374 4292467937
0.0070642517 0.32850277 0.80167955 4292402657
0.0086559793 0.32850567 0.80166531 4292336864
0.010247707 0.32850853 0.80165112 4292402657
0.011839435 0.32851142 0.80163687 4292402657
0.013431163 0.32851428 0.80162263 4292402657
0.01502289 0.32851714 0.80160844 4292402657
0.016614618 0.32852003 0.8015942 4292336864
0.018206345 0.32852289 0.80158001 4292402657
0.019891078 0.32890955 0.80257219 4292468450
0.02148468 0.32891241 0.80255795 4292402657
0.022981528 0.3285315 0.80153733 4292336864
0.024474626 0.32815057 0.80051672 4292336864
0.02606448 0.32815346 0.80050254 4292402657
0.027654333 0.32815632 0.80048835 4292336864
0.029244184 0.32815918 0.80047411 4292271071
0.030834038 0.32816204 0.80045992 4292336608
0.032315888 0.32778111 0.79943943 4292336606
0.033903867 0.32778397 0.79942524 4292928741
0.035491843 0.32778683 0.79941106 4280559655
0.037307076 0.32855734 0.80140936 4281546550
0.039245311 0.32971168 0.80441374 4281546804
0.04096004 0.33009839 0.80540568 4281349425
0.04255927 0.33010125 0.80539137 4281481011
0.044158496 0.33010414 0.80537707 4281744181
0.04563472 0.32972321 0.80435663 4281415216
0.047356948 0.33010992 0.80534852 4281415216
0.04933643 0.33126432 0.80835253 4281349425
nan nan nan 4281744183
nan nan nan 4282204732
0.057360686 0.3312788 0.80828089 4282467904
0.058965538 0.33128169 0.80826652 4282532927
0.060430516 0.33090073 0.80724621 4282598722
0.061891742 0.33051974 0.8062259 4282268219
0.063205592 0.32975489 0.8041997 4292267470
0.064657442 0.3293739 0.8031795 4292267202
0.065958172 0.32860902 0.80115336 4290029711
0.067400649 0.328228 0.80013323 4290030214
0.068990506 0.32823089 0.80011904 4290226312
0.070580356 0.32823375 0.80010486 4289699978
0.072170213 0.32823661 0.80009061 4287725939
nan nan nan 4285486912
-0.15302999 0.32209599 0.7829935 4289498729
-0.1513644 0.32171351 0.78197134 4289497698
-0.14992152 0.32210159 0.78296572 4289826153
-0.1483673 0.32210439 0.78295183 4289431913
-0.14702453 0.32287779 0.78495443 4288907635
-0.1455704 0.32326591 0.78594869 4289700768
-0.14401054 0.32326871 0.78593475 4291019460
-0.14245069 0.32327154 0.7859208 4291019977
-0.14089084 0.32327434 0.78590691 4291151049
-0.13933097 0.32327718 0.78589296 4290888648
-0.13767664 0.32289466 0.78487092 4290823112
-0.13611867 0.32289746 0.78485698 4290757319
-0.13465141 0.32328561 0.78585112 4290757319
-0.13318041 0.32367375 0.78684527 4290888905
-0.13170566 0.3240619 0.78783935 4291020491
-0.13014206 0.3240647 0.78782541 4291349456
-0.12849522 0.32368219 0.78680342 4291612628
-0.12693349 0.32368502 0.78678948 4291744471
-0.12537175 0.32368782 0.78677553 4291678934
-0.12388764 0.324076 0.7877695 4291810263
-0.12239976 0.32446417 0.78876352 4291875800
-0.12083428 0.324467 0.78874952 4291744470
-0.1192688 0.3244698 0.78873551 4291678934
-0.11770333 0.32447264 0.78872156 4291547348
-0.11613784 0.32447547 0.78870755 4291481555
-0.11457236 0.3244783 0.78869355 4291547348
-0.11307137 0.32486647 0.78968745 4291481556
-0.11150401 0.3248693 0.78967345 4292271325
-0.11005813 0.32564288 0.79167509 4281415223
-0.1086636 0.32680187 0.79468441 4280625449
-0.10714386 0.3271901 0.79567814 4280625702
-0.10556525 0.32719293 0.79566401 4280625188
-0.10388017 0.32642502 0.79363441 4280690724
-0.099441275 0.32874593 0.79963839 4280559650
nan nan nan 4280559907
nan nan nan 4280559907
-0.094682969 0.32875451 0.79959589 4280559907
-0.093257308 0.33029905 0.80361223 4280691493
-0.09177842 0.33145818 0.8066209 4280691493
-0.090288274 0.33261731 0.80962938 4280691495
-0.088752396 0.33339107 0.81163019 4280691493
-0.087209016 0.33416483 0.813631 4280494114
-0.085688882 0.33532402 0.81663918 4280493601
-0.084157489 0.33648324 0.81964737 4280559139
-0.082587868 0.33725706 0.82164788 4280559139
nan nan nan 4280558628
nan nan nan 4280295458
-0.074116468 0.32994807 0.80243397 4292796387
-0.072446048 0.32802364 0.79738271 4292796387
-0.070849828 0.32764104 0.79636115 4291875543
-0.06928134 0.32802936 0.7973544 4291941593
-0.067719214 0.32880315 0.79935503 4291942106
-0.066133112 0.32880601 0.79934084 4292073692
-0.06454701 0.32880887 0.79932666 4292007899
-0.062960908 0.32881173 0.79931247 4292007899
-0.061374802 0.3288146 0.79929835 4292007899
-0.059787959 0.32843196 0.7982769 4292073692
-0.058202595 0.32882032 0.79926997 4292073692
-0.056616493 0.32882318 0.79925579 4292073692
-0.055030391 0.32882604 0.79924166 4292073692
-0.053444285 0.3288289 0.79922748 4292139228
-0.051866818 0.32844627 0.79820609 4292139228
-0.050293099 0.32806361 0.79718477 4292204765
-0.048710745 0.32806647 0.79717064 4292204765
-0.047142651 0.32768381 0.79614937 4292205021
-0.04556217 0.32768667 0.79613525 4292204765
-0.043963686 0.32807502 0.7971282 4292139485
-0.042341564 0.32884893 0.79912829 4292205278
-0.040733702 0.32923731 0.80012119 4292270558
-0.03909846 0.33001125 0.8021211 4292994281
-0.037481226 0.33039966 0.80311394 4285230192
nan nan nan 4282532166
-0.031984378 0.33927578 0.82623214 4282729284
-0.030380661 0.33889318 0.82521057 4282663747
-0.028780693 0.33851057 0.82418901 4282597955
-0.027184477 0.33812797 0.82316744 4282664004
-0.025553377 0.33813092 0.8231529 4282598211
-0.024003292 0.33736274 0.82112449 4282532418
-0.022545466 0.33582342 0.81708235 4282467136
-0.021102641 0.33428407 0.81304038 4282467136
-0.019582551 0.33351582 0.81101227 4282269757
-0.017925944 0.3339043 0.81200475 4282138941
-0.016265588 0.3342928 0.81299716 4281941562
-0.014756748 0.33352453 0.81096911 4281875769
-0.013416297 0.33159953 0.80592078 4281744183
-0.01192808 0.33083123 0.80389291 4281678390
-0.010447362 0.33006293 0.80186516 4281481011
-0.0087963799 0.3304514 0.8028577 4281481011
-0.0069582602 0.33199665 0.80687034 4281481011
-0.0052941539 0.33238515 0.80786276 4281611828
-0.0037560565 0.33200243 0.80684173 4281611829
-0.0023552163 0.33084849 0.80380744 4280822057
-0.00089699653 0.33008015 0.80177981 4289177771
0.00062422757 0.3296974 0.80075896 4293059559
0.002141702 0.32931465 0.79973817 4292467679
0.0036554269 0.3289319 0.79871732 4292467937
0.00524153 0.32893476 0.79870319 4292467937
0.0068276334 0.32893762 0.79868901 4292336351
0.0084137367 0.32894048 0.79867482 4292402144
0.0099998396 0.32894334 0.79866064 4292467937
0.011585942 0.3289462 0.79864651 4292467937
0.013172045 0.32894906 0.79863232 4292402144
0.014758149 0.32895193 0.79861814 4292336608
0.016344253 0.32895479 0.79860395 4292271071
0.017930355 0.32895765 0.79858983 4292336864
0.019516459 0.32896051 0.79857564 4292402657
0.021197438 0.32934904 0.79956788 4292402657
0.022785416 0.3293519 0.79955369 4292534243
0.024274768 0.32896909 0.79853314 4292402657
0.02586087 0.32897195 0.79851896 4292336864
0.027446974 0.32897481 0.79850477 4292271071
0.029033078 0.32897767 0.79849064 4292402657
0.030513056 0.32859486 0.79747009 4292336864
0.031989284 0.32821202 0.79644966 4292336606
0.033351887 0.32744351 0.79442292 4292797157
0.03493049 0.32744637 0.79440886 4290560193
0.040722672 0.33092621 0.80342257 4281349425
0.042437397 0.33131477 0.80441451 4281349423
0.043913625 0.33093196 0.80339402 4281481009
0.045509104 0.33093482 0.80337977 4281349423
0.047479201 0.33209485 0.80638403 4281152044
0.04920705 0.33248344 0.80737585 4281481009
0.050552782 0.3317149 0.80534929 4281678388
nan nan nan 4281810487
nan nan nan 4281744693
nan nan nan 4281678900
nan nan nan 4282205244
nan nan nan 4282204731
0.059868399 0.33096075 0.8032515 4282730306
0.061463874 0.33096361 0.80323726 4281874227
0.06277211 0.33019501 0.801211 4287465096
0.064218342 0.32981211 0.80019081 4292926423
0.065660819 0.32942924 0.79917067 4290622110
0.067099556 0.32904634 0.79815054 4290227594
0.068534538 0.32866344 0.79713041 4290161030
0.070118763 0.3286663 0.79711628 4290292369
0.071702994 0.32866916 0.79710215 4288055159
nan nan nan 4287792503
-0.15470187 0.32403457 0.78404427 4286998608
-0.15280607 0.32287589 0.78100538 4286998608
-0.15114424 0.32249153 0.77998322 4289433191
-0.14959562 0.32249433 0.77996939 4289826150
-0.14815463 0.32288429 0.78096384 4289432169
-0.14670987 0.32327425 0.78195822 4288644722
-0.14536524 0.32405141 0.78396082 4290425004
-0.14380914 0.32405421 0.78394693 4291019717
-0.14235313 0.3244442 0.78494126 4290823367
-0.14079516 0.32444701 0.78492731 4290954183
-0.13914081 0.32406265 0.78390521 4290757319
-0.13758472 0.32406545 0.78389132 4290691526
-0.1360286 0.32406825 0.78387743 4290691526
-0.13456324 0.32445824 0.78487164 4290625733
-0.13300525 0.32446107 0.78485769 4290691526
-0.13153425 0.32485107 0.7858519 4291020491
-0.1299744 0.3248539 0.78583795 4291283663
-0.1283313 0.32446951 0.78481597 4291546835
-0.12669197 0.32408509 0.78379399 4291744214
-0.12513587 0.32408789 0.7837801 4291744214
-0.12365737 0.32447794 0.78477418 4291810007
-0.12217512 0.32486796 0.78576827 4291810007
-0.12068913 0.32525802 0.7867623 4291612628
-0.1191274 0.32526082 0.78674835 4291612884
-0.11756567 0.32526365 0.7867344 4291613141
-0.11600394 0.32526645 0.78672045 4291613141
-0.11444221 0.32526928 0.78670651 4291547348
-0.11294496 0.32565933 0.78770041 4291613142
-0.11138136 0.32566217 0.78768647 4291547348
-0.10993923 0.32643947 0.78968817 4280954415
-0.1084896 0.32721683 0.79168987 4280691242
-0.10703247 0.32799417 0.79369146 4280559909
-0.1054025 0.32760975 0.79266959 4280428323
-0.10372305 0.32683805 0.79063994 4280559394
nan nan nan 4280428321
nan nan nan 4280625700
nan nan nan 4280625700
nan nan nan 4280559907
-0.093219809 0.33150536 0.80263382 4280494114
-0.091742799 0.33267009 0.80564255 4280428321
-0.090218179 0.33344758 0.80764353 4280428323
-0.088651568 0.33383775 0.80863684 4280559907
-0.08711382 0.33461526 0.81063777 4280559907
-0.085599311 0.33578008 0.81364614 4280756518
-0.084102422 0.33733222 0.817662 4280690725
-0.082536556 0.33810976 0.81966263 4280624932
nan nan nan 4280756006
nan nan nan 4280295458
-0.074083842 0.33076513 0.80044824 4285361778
-0.072417162 0.32883134 0.7953968 4292731108
-0.070838556 0.32883418 0.79538274 4291941593
-0.069259949 0.32883704 0.79536861 4291875800
-0.067701578 0.32961458 0.7973693 4291942106
-0.066119231 0.32961741 0.79735518 4292007899
-0.064530507 0.32923293 0.79633367 4292007899
-0.062954523 0.32962313 0.79732692 4292007899
-0.061369549 0.32923862 0.79630542 4292073692
-0.059789073 0.32924148 0.79629129 4292007899
-0.058209725 0.32885697 0.79526991 4292073692
-0.056628115 0.32924718 0.79626304 4292073692
-0.055047635 0.32925004 0.79624897 4292073692
-0.053467158 0.32925287 0.79623485 4292073692
-0.051895309 0.32886836 0.79521346 4292073692
-0.050316706 0.32887119 0.79519939 4292139485
-0.048750482 0.32848665 0.79417807 4292139485
-0.047159497 0.32887688 0.79517114 4292139485
-0.045580894 0.32887974 0.79515707 4292205278
-0.044002291 0.3288826 0.79514295 4292139485
-0.042403806 0.32927284 0.79613596 4292205278
-0.040801574 0.3296631 0.79712898 4292270558
-0.03919559 0.33005336 0.79812193 4292994024
-0.037560351 0.33083102 0.80012196 4287203982
-0.035917614 0.33160871 0.80212188 4282663752
-0.032080449 0.33975023 0.82324111 4282795590
-0.030482354 0.33936575 0.82221949 4282729796
-0.028888008 0.33898127 0.82119793 4282532416
-0.027260659 0.33898419 0.82118338 4282664260
-0.025671938 0.33859971 0.82016194 4282598467
-0.02412747 0.33782777 0.81813347 4282467136
-0.022717634 0.33589351 0.81308436 4282401343
-0.021238042 0.33473408 0.81004924 4282269757
-0.019723572 0.33396208 0.80802107 4282204220
-0.01802459 0.33473986 0.81002051 4282073148
-0.016367987 0.33513021 0.81101298 4281941562
-0.014914642 0.33397076 0.80797809 4281941562
-0.013526174 0.33242381 0.80393648 4281809976
-0.012097202 0.33126432 0.80090177 4281678390
-0.010564726 0.33087972 0.79988074 4281612597
-0.0088582449 0.33165753 0.80188012 4281481011
-0.0070831385 0.3328228 0.80488622 4281546804
-0.0054227849 0.33321315 0.8058787 4281546548
-0.0038235581 0.33321604 0.80586439 4281611829
-0.0024245835 0.33205649 0.80282998 4281282865
-0.0010368581 0.33089691 0.79979563 4286217085
0.00055111997 0.33089978 0.79978144 4292993765
0.0019943474 0.33012766 0.79775393 4292467422
0.0035043256 0.329743 0.79673314 4292533216
0.005086679 0.32974586 0.79671901 4292467937
0.0065910327 0.3293612 0.79569829 4292402144
0.0081715118 0.32936406 0.79568416 4292402144
0.0098337391 0.32975441 0.79667658 4292402400
0.011416093 0.32975727 0.79666245 4292467937
0.012998447 0.32976013 0.79664832 4292402400
0.0145808 0.329763 0.7966342 4292402144
0.016163154 0.32976583 0.79662007 4292467937
0.017745508 0.32976869 0.79660594 4292467937
0.01932786 0.32977155 0.79659176 4292402144
0.020910215 0.32977441 0.79657763 4292468194
0.022589315 0.33016479 0.79756993 4292402657
0.024074921 0.3297801 0.79654938 4292468450
0.025657274 0.32978296 0.79653525 4292336864
0.027239628 0.32978582 0.79652107 4292336864
0.028821982 0.32978868 0.79650694 4292336864
0.03019209 0.32901642 0.79448009 4292336864
0.031662699 0.3286317 0.79345965 4292336864
0.033129554 0.32824701 0.79243922 4292402399
0.034592662 0.32786226 0.79141885 4292731364
0.040602684 0.3321341 0.80244559 4281415218
0.042315532 0.33252454 0.80343759 4281415217
0.043789886 0.33213985 0.8024171 4281349423
0.045506485 0.33253029 0.80340904 4281481009
0.047476575 0.33369595 0.80641341 4281283630
nan nan nan 4281217837
nan nan nan 4281481522
nan nan nan 4281349935
nan nan nan 4281481521
0.053334169 0.32750872 0.7902441 4281810486
0.055041395 0.32789916 0.79123616 4282271037
0.056890361 0.32867721 0.79323429 4282139451
0.059446175 0.33139336 0.80026257 4282336318
0.061177772 0.33178386 0.80125445 4282795586
0.062338643 0.33062387 0.79822212 4282795586
0.06377925 0.33023909 0.79720193 4281807667
0.065216109 0.32985431 0.7961818 4293055949
0.066798463 0.32985717 0.79616767 4290227346
0.068229698 0.32947239 0.7951476 4290029441
0.069657184 0.32908762 0.79412752 4290161031
0.071390659 0.32947809 0.79511935 4289897357
nan nan nan 4287725937
nan nan nan 4288183138
-0.1524689 0.32325926 0.77800876 4288183138
-0.15081269 0.32287303 0.7769866 4289432934
-0.1492697 0.3228758 0.77697283 4289564771
-0.14783433 0.32326764 0.77796733 4289695335
-0.14650095 0.32404852 0.77997011 4288711801
-0.14516006 0.3248294 0.78197283 4290623669
-0.1437097 0.32522127 0.78296721 4290888902
-0.14215547 0.32522407 0.78295332 4290823366
-0.140503 0.3248378 0.78193122 4290954184
-0.13885428 0.32445154 0.78090918 4290823112
-0.1373038 0.32445434 0.78089529 4290822855
-0.13584593 0.32484621 0.78188962 4290757319
-0.13429357 0.32484901 0.78187573 4290757319
-0.13283008 0.32524088 0.78287005 4290823368
-0.13127585 0.32524368 0.78285617 4290889162
-0.12963651 0.32485741 0.78183413 4290954954
-0.12800092 0.32447112 0.7808122 4291217870
-0.12645043 0.32447392 0.78079832 4291612628
-0.12489995 0.32447672 0.78078449 4291678678
-0.12342708 0.32486862 0.78177869 4291744214
-0.12202621 0.32564962 0.78378087 4291678421
-0.1204701 0.32565242 0.78376693 4291678421
-0.11891399 0.32565522 0.78375304 4291678677
-0.11735789 0.32565802 0.78373915 4291613141
-0.11580178 0.32566082 0.78372526 4291547605
-0.11424568 0.32566366 0.78371131 4291547605
-0.11275405 0.32605559 0.78470534 4291678677
-0.11119608 0.32605839 0.78469145 4291744213
-0.10975958 0.32683945 0.78669327 4291481296
-0.10837444 0.32800967 0.78970295 4280757034
-0.10697806 0.32917988 0.79271251 4280494116
-0.10529485 0.32840446 0.79068279 4280494115
-0.10361914 0.327629 0.78865314 4280559395
-0.10205366 0.32763183 0.78863913 4280559137
-0.10043868 0.3272455 0.78761733 4280494114
nan nan nan 4280428321
nan nan nan 4280625700
nan nan nan 4280559907
nan nan nan 4280559907
-0.093222417 0.33309707 0.80266303 4280494116
-0.091745421 0.33426744 0.80567187 4280494116
-0.090148069 0.33427033 0.80565757 4280494116
nan nan nan 4280559909
nan nan nan 4280625700
nan nan nan 4280624932
nan nan nan 4280559139
nan nan nan 4280756519
nan nan nan 4280756007
nan nan nan 4280624421
-0.074068829 0.3319639 0.79946989 4285098606
-0.072388262 0.32963151 0.79341084 4292731364
-0.070785664 0.32885593 0.79138178 4291875800
-0.06921456 0.32885876 0.79136777 4291875800
-0.067653574 0.32925081 0.79236114 4291942106
-0.06608884 0.32964289 0.79335451 4291942106
-0.064513989 0.32964572 0.79334044 4292007899
-0.062939137 0.32964855 0.79332638 4292007899
-0.061364278 0.32965139 0.79331231 4292073692
-0.059788678 0.329265 0.79229093 4292007899
-0.0582157 0.32926783 0.79227686 4292073692
-0.056642719 0.32927069 0.79226279 4292139485
-0.055069741 0.32927352 0.79224873 4292139485
-0.053490009 0.3296656 0.79324198 4292007899
-0.051915154 0.32966843 0.79322791 4292007899
-0.050350804 0.32928202 0.79220659 4292007899
-0.048765447 0.32967412 0.79319978 4292073692
-0.047190592 0.32967696 0.79318571 4292139485
-0.045615736 0.32967982 0.79317164 4292139485
-0.044040885 0.32968265 0.79315758 4292139485
-0.04246603 0.32968548 0.79314351 4292205278
-0.040891174 0.32968834 0.79312938 4292139229
-0.039292693 0.33008045 0.79412246 4292204765
-0.037690464 0.33047259 0.79511553 4288519842
-0.036002353 0.33203256 0.79912978 4282532423
nan nan nan 4283058762
-0.030617028 0.33943778 0.81822121 4282927174
-0.02903018 0.3390514 0.81719971 4282861894
-0.027410328 0.33905432 0.81718522 4282993480
-0.025829105 0.33866793 0.81616372 4282796101
nan nan nan 4282598979
nan nan nan 4282598979
nan nan nan 4282138941
nan nan nan 4282138941
nan nan nan 4282270527
nan nan nan 4282073148
nan nan nan 4281941562
nan nan nan 4281678390
nan nan nan 4281678390
nan nan nan 4281678390
nan nan nan 4281612597
-0.0074524973 0.33208406 0.79887474 4281612597
-0.005803396 0.33247629 0.79986733 4281612340
-0.0041505452 0.33286849 0.80085993 4281611827
-0.0026941879 0.33209264 0.79883224 4281348658
-0.0013139524 0.33092743 0.79579788 4283190608
0.00026652633 0.33093029 0.79578376 4293059558
0.0017746328 0.33054376 0.79476291 4292467423
0.0032789896 0.33015725 0.79374212 4292533216
0.0047795968 0.32977071 0.79272139 4292467680
0.0063544512 0.32977355 0.79270732 4292336608
0.0079293055 0.32977641 0.79269326 4292271071
0.0095859058 0.3301686 0.79368579 4292271071
0.011162635 0.33017147 0.79367173 4292336864
0.012739364 0.3301743 0.7936576 4292336864
0.014316093 0.33017716 0.79364353 4292402657
0.015803576 0.32979059 0.79262292 4292336864
0.017378431 0.32979342 0.79260886 4292402144
0.018953284 0.32979628 0.79259473 4292467937
0.02062301 0.33018851 0.79358721 4292336608
0.022199739 0.33019137 0.79357308 4292336864
0.023776466 0.33019421 0.79355901 4292205278
0.025353195 0.33019707 0.79354495 4292402144
0.026929924 0.3301999 0.79353082 4292336351
0.028506653 0.33020276 0.79351676 4292336351
0.029977264 0.32981616 0.79249626 4292336351
0.031444125 0.32942957 0.79147583 4292402144
0.032797366 0.32865354 0.78944904 4292336350
0.034143109 0.32787749 0.78742236 4292928744
0.035935827 0.32865921 0.78942102 4289705397
0.037851535 0.32983038 0.79242593 4280625963
nan nan nan 4281546805
nan nan nan 4281678390
nan nan nan 4281547061
nan nan nan 4281481268
nan nan nan 4281415732
nan nan nan 4281350452
0.051495757 0.32829803 0.78827465 4281416500
0.052928869 0.32791138 0.78725451 4282140222
0.05476658 0.32869315 0.78925276 4282008893
0.056473803 0.32908547 0.79024488 4282139709
0.057905041 0.32869881 0.78922474 4281942330
0.060041234 0.33025962 0.793235 4282073146
0.061617963 0.33026248 0.79322094 4282204736
0.063049205 0.32987583 0.7922008 4281809208
0.064771421 0.33026817 0.79319274 4285427053
0.066198908 0.32988149 0.79217267 4293057754
0.067622647 0.32949483 0.7911526 4291081893
0.069195628 0.32949767 0.79113853 4290619014
0.07076861 0.3295005 0.79112452 4290094476
0.072341591 0.32950333 0.79111046 4288186740
-0.15213172 0.32363141 0.77501196 4289367157
-0.15048113 0.32324326 0.7739898 4289170023
-0.14894377 0.32324603 0.77397609 4289565286
-0.14762165 0.32403064 0.77597904 4289696104
-0.14618628 0.32442436 0.77697355 4289434223
-0.14485101 0.32520899 0.77897638 4290756284
-0.14330429 0.32521176 0.77896255 4290954438
-0.14165744 0.32482362 0.77794051 4290889160
-0.14011258 0.32482642 0.77792668 4290954184
-0.13856773 0.32482919 0.77791291 4290757319
-0.13702287 0.32483199 0.77789909 4290757319
-0.13557063 0.32522571 0.77889347 4290823369
-0.1340239 0.32522851 0.77887964 4290823625
-0.13247716 0.32523131 0.77886587 4290757832
-0.13093044 0.32523409 0.77885205 4290955211
-0.1293837 0.32523689 0.77883822 4290889418
-0.12775373 0.32484871 0.7778163 4291086797
-0.12620887 0.32485148 0.77780247 4291547348
-0.12466402 0.32485428 0.7777887 4291613141
-0.12319677 0.32524803 0.77878296 4291547861
-0.12172578 0.32564181 0.77977717 4291613654
-0.12025104 0.32603559 0.78077137 4291613911
-0.11870056 0.32603839 0.78075755 4291679447
-0.11707997 0.32565019 0.77973568 4291613655
-0.11553136 0.32565299 0.77972186 4291482068
-0.11404912 0.32604676 0.78071594 4291547349
-0.11249864 0.32604957 0.78070211 4291546836
-0.11101077 0.32644334 0.7816962 4291744470
-0.10951916 0.32683715 0.78269023 4290889159
-0.1080238 0.32723096 0.78368425 4279704347
-0.1064107 0.32684276 0.78266251 4280559911
-0.10340872 0.3276304 0.78465044 4280494115
-0.10143979 0.32450506 0.77657384 4280494115
-0.099995799 0.32528991 0.77857566 4280494114
-0.098639548 0.32685679 0.78259307 4280559907
nan nan nan 4280559907
nan nan nan 4280559907
nan nan nan 4280559907
-0.073965698 0.33120352 0.79345375 4284638053
-0.072343595 0.33003312 0.79041713 4292731364
-0.070746623 0.32925376 0.78838813 4291941593
-0.069169141 0.3288655 0.78736663 4292007386
-0.067615665 0.32925943 0.78836018 4291876570
-0.066066682 0.33004445 0.79036105 4291942106
-0.064497449 0.33004725 0.79034704 4291811290
-0.062928222 0.33005008 0.79033303 4292073435
-0.061356366 0.32966182 0.78931159 4291942619
-0.059789013 0.32966465 0.78929758 4292139485
-0.058221657 0.32966748 0.78928357 4292008412
-0.056654301 0.32967031 0.78926963 4292073692
-0.055082072 0.33006424 0.79026294 4292073692
-0.053512841 0.33006707 0.79024893 4292139485
-0.051934987 0.33046103 0.79124218 4291942619
-0.050363883 0.33046386 0.79122818 4291942619
-0.048780404 0.33085784 0.79222137 4291942620
-0.047193173 0.3312518 0.79321456 4292139998
