# .PCD v0.7 - Point Cloud Data file format
VERSION 0.7
FIELDS x y z rgba
SIZE 4 4 4 4
TYPE F F F U
COUNT 1 1 1 1
WIDTH 1091
HEIGHT 1
VIEWPOINT 0 0 0 1 0 0 0
POINTS 1091
DATA ascii
0.054627847 0.24650964 0.78574711 4292073945
0.056193326 0.24651247 0.78573316 4287534223
0.057758804 0.24651529 0.78571916 4283652691
0.059324287 0.24651812 0.78570515 4283257681
0.060889766 0.24652094 0.7856912 4283586384
0.062600896 0.24681577 0.78668147 4284113498
0.064315774 0.24711062 0.78767169 4286219898
0.065885007 0.24711345 0.78765768 4289772207
0.067454234 0.24711628 0.78764367 4292795087
0.068870313 0.24682708 0.78662544 4292466634
0.07043767 0.24682991 0.78661144 4292070847
0.072161928 0.24712476 0.78760159 4291741623
0.073889926 0.24741963 0.78859174 4291478451
0.075782329 0.24800654 0.79058594 4291477679
0.077682234 0.24859345 0.79258007 4292398010
0.079589635 0.24918039 0.79457414 4293712843
0.081338257 0.24947529 0.79556406 4293779150
0.083090633 0.24977019 0.79655397 4293713613
0.084846765 0.25006512 0.79754382 4291803819
0.086606637 0.25036004 0.79853368 4291343780
0.088196494 0.2503629 0.79851943 4290949022
0.090137638 0.25094989 0.80051321 4290225553
0.09226381 0.25182897 0.8035109 4289567623
-0.12575231 0.24334544 0.77230352 4280226053
-0.12405629 0.24276125 0.77027714 4282527778
-0.12244522 0.24247055 0.76925719 4284632380
-0.12091349 0.2424733 0.76924348 4286737495
-0.11930805 0.24218258 0.76822358 4287197016
-0.11777819 0.24218534 0.76820987 4288907370
-0.11610842 0.24160111 0.76618379 4290157947
-0.11458231 0.24160387 0.76617014 4290157173
-0.1130562 0.24160662 0.76615655 4290551931
-0.11153009 0.24160936 0.7661429 4290617214
-0.11006644 0.24190563 0.76713538 4290420098
-0.10859904 0.24220189 0.76812792 4289830033
-0.10701047 0.24191114 0.76710808 4290491314
-0.10548249 0.2419139 0.76709443 4291546572
-0.1039545 0.24191666 0.76708078 4291548117
-0.10242652 0.24191941 0.76706713 4291615194
-0.10094975 0.24221569 0.76805955 4290563275
-0.099419892 0.24221845 0.7680459 4285166707
-0.097937487 0.24251474 0.76903826 4280757292
-0.084549516 0.24635597 0.7819913 4285692283
-0.082993411 0.24635878 0.78197742 4288784555
-0.081410468 0.24606802 0.78095764 4290758345
-0.079856232 0.24607082 0.78094375 4292205791
-0.078302003 0.24607362 0.78092986 4293126893
-0.076726563 0.24578284 0.77991021 4292995307
-0.075174205 0.24578564 0.77989638 4292994794
-0.073604383 0.24549486 0.77887672 4292994794
-0.072053902 0.24549764 0.77886289 4292534243
-0.070517138 0.24579404 0.77985477 4292863208
-0.068964779 0.24579684 0.77984089 4293126893
nan nan nan 4289113264
nan nan nan 4283583568
-0.056428995 0.25668344 0.81693572 4283583567
nan nan nan 4283715152
nan nan nan 4283780944
-0.051528681 0.25786674 0.82091433 4283846737
-0.049910113 0.25757605 0.81989425 4283978322
-0.048307836 0.25699168 0.81786877 4284175701
-0.046741873 0.25582004 0.8138324 4284241494
-0.045174625 0.254942 0.81080163 4284044372
-0.043600466 0.25435761 0.80877638 4284044630
-0.04203381 0.25377318 0.80675119 4283978837
-0.04047465 0.25318876 0.80472612 4284044630
-0.038946774 0.25231063 0.8016957 4283979351
-0.037353169 0.25231352 0.80168146 4283913559
-0.035842169 0.2514354 0.79865116 4283781975
-0.034401231 0.24996988 0.79361033 4283914073
-0.032979041 0.24850434 0.78856969 4283782232
-0.031476125 0.24791981 0.7865451 4283782232
-0.02998071 0.24733527 0.78452057 4283519061
-0.028455887 0.2470444 0.78350133 4283255890
-0.026973596 0.24645983 0.78147691 4282729803
-0.02541749 0.24646263 0.78146303 4284638056
-0.023903916 0.24617174 0.78044391 4290954184
-0.022394091 0.24588084 0.77942485 4293388782
-0.020795453 0.24617735 0.78041613 4293256939
-0.019193066 0.24647386 0.78140742 4293256939
-0.01758693 0.24677038 0.78239864 4293322732
-0.015977042 0.2470669 0.78338987 4293322219
-0.014309625 0.24765715 0.78538615 4293453805
-0.012690364 0.2479537 0.78637725 4292664289
-0.011009824 0.24854396 0.78837341 4291545808
-0.009381189 0.24884053 0.78936446 4289045930
-0.0078713642 0.24854963 0.7883454 4285953402
-0.0063021346 0.24855246 0.78833139 4282203201
-0.004732905 0.24855529 0.78831732 4282203199
-0.0032305797 0.24826439 0.78729832 4282335040
-0.0016632249 0.2482672 0.78728431 4282532420
-2.5215795e-05 0.24856378 0.7882753 4282795592
0.0014714849 0.24827287 0.7872563 4282927433
0.0029644361 0.24798194 0.78623742 4282993482
0.0045299162 0.24798475 0.78622341 4282730309
0.0060172426 0.24769382 0.78520453 4282796101
0.007660876 0.2479904 0.78619546 4282730309
0.0093901623 0.24858077 0.78819114 4282796101
0.01104317 0.24887736 0.78918201 4282796103
0.012614274 0.24888021 0.78916794 4282730310
0.014097852 0.24858926 0.78814912 4282335297
0.015577679 0.2482983 0.7871303 4282400834
0.017053757 0.24800734 0.78611153 4286413952
0.018619237 0.24801017 0.78609753 4292401116
0.02008969 0.2477192 0.78507882 4293585647
0.021459492 0.24713443 0.78305537 4293125353
0.023019347 0.24713725 0.78304148 4292862695
0.024579203 0.24714006 0.78302753 4292862695
0.026036533 0.24684907 0.78200889 4292863208
0.027490111 0.24655807 0.7809903 4292797415
0.029046217 0.24656087 0.78097641 4292731622
0.030602323 0.24656369 0.78096253 4292731622
0.032268453 0.24686031 0.78195322 4292665829
0.033826437 0.24686313 0.78193933 4292534243
0.035384417 0.24686593 0.78192538 4292468450
0.036942396 0.24686874 0.78191149 4292534243
0.038382854 0.24657772 0.78089303 4292468450
0.03993896 0.24658053 0.78087914 4292402657
0.041495066 0.24658333 0.78086519 4292336864
0.04329747 0.24717383 0.78286028 4292468450
0.044982348 0.24747048 0.78385085 4292534243
0.046670977 0.24776715 0.7848413 4292600035
0.048234586 0.24776997 0.78482735 4292533985
0.049536891 0.24718508 0.78280455 4292599778
0.050964225 0.24689403 0.7817862 4292533983
0.052387808 0.24660298 0.78076792 4292402395
0.054080185 0.24689965 0.78175837 4292534235
0.055500019 0.2466086 0.78074008 4293060579
0.057056125 0.2466114 0.78072619 4292336854
0.058612231 0.2466142 0.78071231 4290363063
0.060168337 0.24661702 0.78069836 4292006859
0.061724443 0.24661982 0.78068447 4292796114
0.063428067 0.24691652 0.78167486 4292598990
0.065135449 0.24721321 0.78266519 4292071106
0.066695303 0.24721603 0.78265125 4292200380
0.068408303 0.24751274 0.78364152 4292067765
0.070125058 0.24780945 0.78463179 4291936690
0.071845561 0.24810618 0.785622 4292265138
0.073569812 0.24840291 0.78661221 4292264366
0.07545846 0.24899356 0.78860652 4292000935
0.077517122 0.24987814 0.79160488 4292396720
0.079422645 0.25046882 0.79359901 4292133548
0.081003122 0.25047168 0.79358494 4291606436
0.082919888 0.25106236 0.79557896 4291212448
0.084844157 0.25165308 0.79757297 4290291092
-0.12583604 0.24517815 0.77333808 4279898378
-0.12413814 0.24459021 0.77131164 4280358153
-0.12244773 0.24400227 0.76928526 4281277971
-0.12076483 0.24341431 0.767259 4283711793
-0.11916313 0.24312171 0.76623905 4286013520
-0.11756519 0.2428291 0.76521915 4286802517
-0.11590104 0.2422411 0.76319307 4287854432
-0.11424438 0.2416531 0.76116699 4289499255
-0.11272764 0.24165584 0.76115346 4290156667
-0.11127525 0.24195395 0.76214612 4290551167
-0.1098191 0.24225208 0.76313871 4290222714
-0.10829861 0.24225482 0.76312512 4290288511
-0.10683684 0.24255295 0.76411772 4289763464
-0.10531449 0.24255569 0.76410407 4289898915
-0.10379212 0.24255845 0.76409048 4291217349
-0.10226976 0.24256119 0.76407689 4291678416
-0.10079861 0.24285933 0.76506937 4291549143
-0.099225044 0.24256667 0.76404971 4290958546
-0.09779761 0.24316025 0.76604819 4287668639
-0.09640827 0.24404924 0.76905262 4282206535
-0.095051385 0.24523367 0.773063 4280297511
-0.093553998 0.24553187 0.77405524 4280494121
nan nan nan 4283060304
nan nan nan 4285560184
nan nan nan 4289047726
-0.087629937 0.24761102 0.78104174 4290692808
-0.086010776 0.24702296 0.77901602 4292337633
-0.084399119 0.24643487 0.77699035 4292863978
-0.082794957 0.24584676 0.77496475 4292732392
-0.081251979 0.24584955 0.77495098 4292732392
-0.079708993 0.24585234 0.77493721 4292535013
-0.078166015 0.24585512 0.77492344 4292535013
-0.07662303 0.24585791 0.77490962 4292535013
-0.07506071 0.24556522 0.77389008 4292535013
-0.073519602 0.24556801 0.77387631 4292600806
-0.071978495 0.24557078 0.77386254 4292535013
-0.070437387 0.24557357 0.77384877 4292535013
-0.068896279 0.24557635 0.773835 4292600806
-0.06736514 0.2458746 0.77482694 4292600806
nan nan nan 4291613654
-0.053167481 0.2591975 0.8199532 4284109908
nan nan nan 4284307287
nan nan nan 4284109908
-0.048297964 0.2589108 0.81890404 4284307287
-0.04671571 0.25802717 0.81587303 4284373080
-0.045160986 0.25684801 0.81183666 4284241751
-0.043566789 0.25655538 0.81081682 4284242009
-0.042016406 0.25567168 0.80778605 4284176216
-0.040499177 0.25449243 0.80375004 4284176473
-0.039020728 0.25301763 0.79870868 4284176987
-0.037407093 0.25331604 0.7996999 4284243293
nan nan nan 4283783256
nan nan nan 4283520343
nan nan nan 4283520344
-0.028716775 0.2465353 0.77649289 4283322966
-0.027170043 0.2465381 0.77647907 4283191124
-0.025663964 0.24624532 0.77546 4282006850
-0.024119109 0.24624811 0.77544618 4281677885
-0.022529848 0.24654646 0.77643764 4285691001
-0.020983115 0.24654926 0.77642381 4291283406
-0.019388231 0.24684763 0.77741516 4292402144
-0.017789597 0.24714601 0.7784065 4291875543
-0.016187211 0.24744439 0.77939785 4289769910
-0.0145273 0.24803838 0.78139424 4286874248
-0.012915541 0.24833678 0.78238547 4283650390
-0.011184979 0.24922639 0.78538686 4282334786
-0.0095025692 0.24982041 0.78738308 4282203456
-0.0079352148 0.24982324 0.78736907 4282071869
-0.0064310115 0.24953046 0.78635001 4282795592
-0.0049305581 0.24923767 0.78533101 4282861640
-0.003366953 0.24924049 0.785317 4282730566
-0.0017345714 0.24953893 0.78630805 4282730566
-9.8440272e-05 0.24983738 0.7872991 4282664773
0.0013238628 0.24924895 0.7852751 4282533442
0.0027386665 0.24866052 0.78325123 4282533697
0.0042985221 0.24866334 0.78323728 4282731076
0.0059365281 0.24896178 0.78422827 4282467904
0.0075782835 0.24926023 0.78521925 4282599490
0.009223789 0.2495587 0.78621018 4282533697
0.010873044 0.24985717 0.78720105 4282599492
0.012354749 0.24956435 0.78618222 4282599492
0.01374518 0.24897587 0.78415853 4282796359
0.01530691 0.24897869 0.78414458 4282927432
0.016868642 0.24898151 0.78413063 4282203455
0.018337222 0.24868865 0.78311187 4282861385
0.019897077 0.24869147 0.78309792 4288387997
0.021360034 0.24839862 0.78207922 4292664544
0.022918016 0.24840142 0.78206533 4293388524
0.024375347 0.24810855 0.78104669 4292862180
0.025931453 0.24811137 0.7810328 4292731109
0.027383162 0.24781848 0.78001416 4292599523
0.028937394 0.24782129 0.78000027 4292665316
0.030491624 0.24782409 0.77998644 4292600036
0.032155879 0.24812259 0.78097719 4292665829
0.033711985 0.24812539 0.78096324 4292534243
0.035268091 0.24812821 0.78094935 4292534243
0.036824197 0.24813101 0.78093547 4292731622
0.038262781 0.24783811 0.779917 4292534243
0.039817009 0.24784091 0.77990311 4292468450
0.041492514 0.24813943 0.78089374 4292336864
0.043171767 0.24843796 0.78188437 4292336864
0.044854768 0.24873649 0.78287494 4292599778
0.046541519 0.24903503 0.78386551 4292665571
0.047974478 0.24874212 0.78284711 4292730846
0.04940369 0.24844919 0.7818287 4292796126
0.05082915 0.24815626 0.78081036 4292730331
0.052385256 0.24815908 0.78079647 4292730072
0.053941362 0.24816188 0.78078252 4292795864
0.055497468 0.2481647 0.78076863 4292926936
0.056913555 0.24787176 0.77975035 4293058520
0.058467783 0.24787456 0.77973646 4292729549
0.060022015 0.24787736 0.77972257 4292070845
0.061576247 0.24788016 0.77970868 4291807414
0.063277997 0.24817872 0.78069913 4291674800
0.065132886 0.24877307 0.7826938 4291936430
0.066692747 0.24877587 0.78267986 4292067503
0.068405747 0.24907446 0.78367019 4292461745
0.069967471 0.24907728 0.78365624 4292593329
0.071842991 0.24967165 0.78565073 4292462511
0.073567241 0.24997026 0.78664094 4292001192
0.075455882 0.25056466 0.78863531 4292001961
0.077514537 0.25145486 0.79163378 4291805096
0.079420052 0.2520493 0.79362804 4290620054
0.081166796 0.25234795 0.79461807 4290422678
0.083085433 0.25294238 0.79661214 4289041538
0.085011572 0.25353685 0.79860622 4286803806
-0.12252771 0.24583122 0.77031976 4279832074
-0.12076733 0.24494229 0.76728702 4280555019
-0.1189445 0.2437561 0.76324809 4282198558
-0.11728033 0.24316436 0.76122195 4285750607
-0.11562368 0.24257261 0.7591958 4286474069
-0.11397451 0.24198084 0.75716972 4286999895
-0.11246528 0.24198356 0.75715625 4288776046
-0.11095604 0.24198629 0.75714278 4290419839
-0.1094468 0.241989 0.75712931 4290287989
-0.10799816 0.24228899 0.75812203 4290420086
-0.10654576 0.24258898 0.75911468 4290354552
-0.10503278 0.24259171 0.75910121 4290091905
-0.10357476 0.24289171 0.76009381 4289370509
-0.10211299 0.24319172 0.7610864 4290689462
-0.10059626 0.24319445 0.76107287 4291743694
-0.099030182 0.24289991 0.76005322 4291481553
-0.097562782 0.24319993 0.76104575 4291416018
-0.096182823 0.24409452 0.76405042 4290693321
-0.094835334 0.24528643 0.76806098 4287074706
-0.093389153 0.24588379 0.77005941 4288587175
-0.092015415 0.24707575 0.77406979 4290429123
-0.090588585 0.24797043 0.77707398 4291811032
-0.089041851 0.24797322 0.77706021 4291679703
-0.087460779 0.2476787 0.77604038 4292140254
-0.085850984 0.24708687 0.77401471 4292337634
-0.084279284 0.24679233 0.772995 4292469220
-0.082682617 0.24620047 0.77096939 4292535013
-0.081147134 0.24620324 0.77095568 4292666086
-0.079611652 0.24620602 0.77094197 4292731622
-0.078076169 0.24620877 0.77092826 4292731622
-0.076519467 0.24591422 0.76990867 4292665829
-0.074985862 0.24591698 0.76989502 4292731622
-0.073452249 0.24591975 0.76988131 4292665829
-0.07190305 0.24562517 0.76886177 4292665829
-0.070385039 0.24592528 0.76985389 4292600806
-0.068851426 0.24592805 0.76984018 4292600806
-0.067317821 0.24593082 0.76982647 4292666599
-0.065776117 0.24563622 0.76880705 4292601062
-0.064250603 0.24593635 0.76979911 4292995051
-0.062716998 0.24593911 0.7697854 4292995564
-0.061180916 0.24564451 0.76876599 4289771964
-0.048325688 0.25994149 0.81692278 4284570715
-0.046703964 0.25994441 0.8169083 4284570972
-0.035141453 0.24569148 0.76853335 4284309599
-0.033578444 0.24599168 0.76952505 4283520597
-0.032077987 0.24569701 0.76850599 4283389269
-0.030546254 0.24569978 0.76849228 4283191634
-0.028977619 0.24599998 0.76948392 4282599499
-0.027444011 0.24600273 0.76947027 4282796879
-0.025869753 0.24630295 0.77046186 4283717981
-0.024334271 0.24630572 0.77044815 4284902255
-0.022754386 0.24660593 0.77143967 4287205010
-0.02121703 0.24660872 0.77142596 4290560453
-0.019679671 0.24661149 0.77141219 4291810263
-0.018142313 0.24661426 0.77139848 4287401876
-0.016553055 0.24691449 0.77238995 4282269765
-0.015067598 0.24661981 0.77137101 4281546042
-0.013641539 0.24602763 0.76934695 4281941056
nan nan nan 4282861896
nan nan nan 4282730567
-0.0053882874 0.24871886 0.77832413 4282665286
-0.0037040089 0.24931663 0.78032041 4282665542
-0.0020122314 0.24991442 0.78231663 4282534211
-0.00038360269 0.25021473 0.78330773 4282600003
0.0010312072 0.24962255 0.78128374 4282533953
0.0024385178 0.24903035 0.77925986 4282533953
0.0041434192 0.24962816 0.78125596 4282468416
0.0073356531 0.24993129 0.78223312 4282468416
0.0088117365 0.24963658 0.78121424 4282534209
0.010284071 0.24934188 0.78019542 4282534209
0.014946764 0.24935028 0.78015381 4282731077
0.016318453 0.24875802 0.77813023 4283520080
0.017962081 0.24905835 0.77912116 4283585362
0.019514436 0.24906115 0.77910733 4283190348
0.020969898 0.24876641 0.77808863 4283782487
0.022520378 0.24876919 0.7780748 4288782755
0.024070861 0.248772 0.77806097 4292072151
0.025416302 0.24817967 0.77603763 4293190632
0.026963033 0.24818248 0.77602381 4292664801
0.028509766 0.24818526 0.77600998 4292796388
0.030056497 0.24818805 0.77599615 4292665059
0.031713247 0.24848841 0.77698702 4292600036
0.033261854 0.2484912 0.77697319 4292534243
0.034810461 0.248494 0.77695936 4292600036
0.036243424 0.24819921 0.7759409 4292534243
0.037672639 0.24790442 0.77492243 4292534243
0.039217494 0.24790721 0.77490866 4292599523
0.040883619 0.24820758 0.77589941 4292533985
0.042553496 0.24850796 0.77689016 4292533215
0.044102103 0.24851076 0.77687633 4292664799
0.045650709 0.24851355 0.7768625 4292861919
0.047199316 0.24851635 0.77684867 4292992992
0.048747919 0.24851914 0.77683485 4293058269
0.050429046 0.24881954 0.77782547 4292992729
0.051845133 0.24852473 0.77680713 4292926423
0.05339374 0.24852751 0.7767933 4292597458
0.055080488 0.24882793 0.77778393 4291741371
0.056490954 0.2485331 0.77676564 4291740340
0.058039561 0.2485359 0.77675182 4291674289
0.059588168 0.24853869 0.77673799 4292002482
0.061136775 0.24854149 0.77672416 4292067757
0.062980413 0.24913955 0.77871901 4292460716
0.064682156 0.24943998 0.77970946 4292593070
0.066236392 0.2494428 0.77969557 4292264875
0.068096906 0.25004089 0.78169024 4292000933
0.069809899 0.25034136 0.78268063 4292066726
0.071683533 0.25093946 0.78467518 4291869606
0.073405907 0.25123996 0.78566545 4290487953
0.075292662 0.25183809 0.78765994 4289238658
0.07718692 0.25243625 0.78965431 4287988848
-0.11879956 0.24467835 0.76126331 4280489486
-0.1170673 0.24378374 0.75823075 4280489486
-0.11534628 0.24288911 0.7551983 4281475351
-0.11377271 0.24259269 0.75417852 4284435517
-0.11220288 0.24229628 0.75315881 4286276946
-0.11070114 0.24229899 0.7531454 4286867796
-0.10913694 0.24200258 0.75212574 4287854432
-0.10763708 0.24200527 0.75211233 4289828984
-0.10619593 0.24230713 0.75310516 4290420341
-0.10475104 0.24260898 0.75409794 4290486133
-0.1033024 0.24291083 0.75509065 4290157436
-0.10185001 0.2432127 0.75608343 4289961358
-0.10039387 0.24351457 0.75707608 4290160548
-0.098835289 0.24321814 0.75605649 4291478468
-0.097375393 0.24352001 0.75704914 4291677902
-0.095957346 0.24412106 0.75904787 4291481808
-0.094619244 0.24532045 0.76305866 4291678678
-0.093224294 0.24622071 0.76606327 4291678933
-0.091858059 0.24742015 0.77007383 4291744980
-0.090438738 0.24832045 0.77307826 4291810516
-0.088899508 0.24832323 0.77306449 4291678931
-0.087360278 0.248326 0.77305073 4291744726
-0.08578857 0.24802959 0.77203101 4291942105
-0.084220618 0.24773318 0.77101129 4292271071
-0.082656413 0.24743675 0.76999164 4292402657
-0.081095964 0.24714032 0.76897198 4292600036
-0.079564229 0.24714309 0.76895833 4292731622
-0.078032494 0.24714585 0.76894462 4292731622
-0.076479539 0.2468494 0.76792508 4292665829
-0.074949682 0.24685216 0.76791137 4292731622
-0.073402353 0.2465557 0.7668919 4292731622
-0.071858771 0.24625924 0.76587242 4292731622
-0.070332661 0.246262 0.76585877 4292731622
-0.068794705 0.24596553 0.76483935 4292665829
-0.067270473 0.24596828 0.7648257 4292665829
-0.06574624 0.24597102 0.76481211 4292666086
-0.064215779 0.24567454 0.76379275 4292600806
-0.062693425 0.24567729 0.7637791 4292600807
-0.061171062 0.24568003 0.76376551 4292863979
-0.0596499 0.24628127 0.76576334 4292929771
-0.058121238 0.24688251 0.76776105 4288849835
-0.05659138 0.24688527 0.7677474 4283322966
nan nan nan 4284835175
nan nan nan 4284638053
-0.036730748 0.24662186 0.76656425 4284506980
-0.03526156 0.24602601 0.76453972 4284112735
-0.033768598 0.24572946 0.76352072 4283389013
-0.032246239 0.2457322 0.76350713 4283718234
-0.030758904 0.24543564 0.76248813 4285033581
-0.029201522 0.2457377 0.76347989 4286283906
-0.027640391 0.24603976 0.76447165 4291744727
-0.026116157 0.2460425 0.76445806 4293126380
-0.0245494 0.24634458 0.7654497 4293257966
-0.023023292 0.24634734 0.76543611 4293323759
-0.021497183 0.24635009 0.76542246 4293060587
-0.019971075 0.24635284 0.76540881 4292994794
-0.018444965 0.24635559 0.76539516 4292994794
-0.016970754 0.24605902 0.76437634 4290363074
-0.015446519 0.24606176 0.76436269 4284178532
-0.013922286 0.24606451 0.7643491 4282204741
-0.012340531 0.24636661 0.76534063 4282599498
-0.01069563 0.24696806 0.76733732 4282862669
-0.0091045005 0.24727018 0.76832885 4282797129
-0.0075096223 0.2475723 0.76932025 4282665541
nan nan nan 4282600003
nan nan nan 4282665796
-0.0023586371 0.24997556 0.77731979 4282534210
-0.00081003038 0.24997835 0.77730596 4282534209
0.00059353665 0.24938239 0.77528203 4282468416
nan nan nan 4282534209
nan nan nan 4282468416
nan nan nan 4282468416
nan nan nan 4282468416
nan nan nan 4282665795
nan nan nan 4282797381
nan nan nan 4282797381
nan nan nan 4282994760
nan nan nan 4283257932
nan nan nan 4283652433
nan nan nan 4283717458
0.018941784 0.248817 0.77310675 4283848788
0.020385999 0.24852036 0.77208811 4283980120
0.022024 0.24882255 0.77307922 4283387728
0.023565106 0.24882534 0.77306545 4283716182
0.025003698 0.24852869 0.77204686 4289111466
0.02654293 0.24853146 0.7720331 4292467422
0.028082162 0.24853423 0.77201939 4292730593
0.029729536 0.24883646 0.77301037 4292731107
0.031270642 0.24883923 0.7729966 4292665316
0.032699861 0.24854256 0.77197814 4292599523
0.034125324 0.24824589 0.77095968 4292599778
0.035547044 0.24794921 0.76994127 4292665569
0.037082527 0.24795198 0.76992756 4292796128
0.038737398 0.24825421 0.77091849 4292730335
0.040274758 0.24825698 0.77090472 4292795615
0.041812114 0.24825975 0.77089101 4292926685
0.043349471 0.24826252 0.7708773 4292992473
0.044886831 0.24826531 0.77086353 4292860628
0.046552952 0.24856755 0.77185434 4292860374
0.048222825 0.24886981 0.77284515 4292398796
0.049896445 0.24917208 0.7738359 4292135617
0.051439427 0.24917486 0.77382207 4291937721
0.052982409 0.24917765 0.7738083 4291937207
0.054663531 0.24947992 0.77479899 4292265657
0.056208387 0.24948271 0.77478516 4292462771
0.057895131 0.24978499 0.77577579 4292330929
0.059441864 0.24978779 0.77576196 4292264107
0.061134234 0.25009009 0.77675253 4292000932
0.062977865 0.25069189 0.77874744 4291869347
0.064679608 0.25099421 0.77973795 4292132518
0.066233844 0.25099701 0.77972406 4291869347
0.067941211 0.25129935 0.78071451 4290356365
0.069652326 0.25160167 0.7817049 4289106300
0.07121031 0.2516045 0.78169101 4288053612
0.07292705 0.25190684 0.78268135 4286738524
-0.1120729 0.24319601 0.75117373 4283382058
-0.11057492 0.24319871 0.75116032 4286474581
-0.10901446 0.24290042 0.75014067 4286736725
-0.10745775 0.2426021 0.74912101 4287196758
-0.10608096 0.24320681 0.75112021 4289368687
-0.10463981 0.24351054 0.75211304 4290288500
-0.1032499 0.24411529 0.75411206 4290289014
-0.10179938 0.24441902 0.75510484 4290157690
-0.1002939 0.24442174 0.75509143 4290026113
-0.09878841 0.24442446 0.75507796 4289830033
-0.097330399 0.24472821 0.75607067 4291279803
-0.09591423 0.245333 0.75806946 4291742668
-0.094578013 0.24653989 0.76208043 4291678933
-0.093184948 0.24744576 0.76508516 4291613141
-0.091820605 0.24865271 0.7690959 4291744725
-0.090403169 0.24955863 0.77210039 4291613653
-0.088902034 0.24986245 0.77309275 4291678933
-0.087328449 0.24956417 0.77207297 4291678933
-0.085791096 0.24956694 0.7720592 4291810519
-0.084223136 0.24926865 0.77103949 4291810520
-0.082658932 0.24897034 0.77001977 4291942106
-0.081098475 0.24867205 0.76900011 4292336864
-0.079566739 0.24867481 0.7689864 4292534243
-0.078035004 0.24867757 0.76897275 4292600036
-0.076503269 0.24868034 0.76895905 4292665829
-0.074952193 0.24838202 0.76793945 4292665829
-0.073387384 0.24778259 0.76591402 4292731622
-0.071830072 0.24718316 0.76388866 4292731622
-0.070307717 0.24718592 0.76387507 4292731622
-0.068773501 0.24688755 0.76285565 4292665829
-0.067253023 0.24689031 0.76284206 4292731622
-0.065724432 0.24659194 0.76182264 4292797415
-0.064205825 0.24659468 0.76180911 4292797415
-0.062682867 0.2462963 0.76078975 4292666342
-0.061168607 0.24660015 0.76178193 4292469220
-0.0596512 0.24720514 0.76377988 4292666599
-0.058127567 0.247509 0.76477194 4292929514
-0.056600187 0.24781288 0.76576406 4291349969
nan nan nan 4284375394
-0.03828688 0.2478459 0.76560044 4284638823
-0.036788292 0.24754749 0.76458132 4285297010
-0.035293456 0.24724907 0.76356226 4286349954
-0.033802368 0.24695064 0.7625432 4288455330
-0.032281883 0.24695338 0.76252961 4290823879
-0.030796418 0.24665494 0.76151061 4292666085
-0.029277809 0.24665768 0.76149702 4293061099
-0.027720431 0.24696161 0.76248884 4292995564
-0.026159301 0.24726555 0.7634806 4292929514
-0.024636943 0.24726829 0.76346701 4292929258
-0.023114583 0.24727103 0.76345342 4293060587
-0.021545954 0.24757499 0.76444513 4292929001
-0.020069866 0.24727653 0.76342624 4292929001
-0.018547505 0.24727927 0.76341265 4292994794
-0.017025147 0.24728203 0.763399 4293389809
-0.015556556 0.24698354 0.76238018 4292863978
-0.014036071 0.2469863 0.76236659 4288719018
-0.012515588 0.24698904 0.762353 4282863696
-0.010935711 0.24729301 0.76334465 4282074179
-0.0092908163 0.24789821 0.7653414 4282337350
-0.0077647073 0.24790096 0.76532775 4282534727
-0.0061085639 0.24850619 0.76732439 4282534980
nan nan nan 4282600516
nan nan nan 4282665796
nan nan nan 4282534209
nan nan nan 4282402623
nan nan nan 4282600002
nan nan nan 4282731588
nan nan nan 4282863174
nan nan nan 4283126346
nan nan nan 4283586897
nan nan nan 4283784277
nan nan nan 4283848537
0.024181062 0.24765746 0.7640366 4283190607
0.026122851 0.24886546 0.76804221 4284045916
0.027654584 0.24886821 0.7680285 4289704114
0.029186318 0.24887098 0.76801479 4292467676
0.030718051 0.24887374 0.76800114 4292599006
0.032137897 0.24857518 0.76698273 4292861921
0.033667754 0.24857794 0.76696903 4292861919
0.035081975 0.24827938 0.76595068 4292796125
0.036609959 0.24828213 0.76593703 4292927451
0.038257327 0.24858622 0.76692802 4292927193
0.03990845 0.24889033 0.767919 4292991700
0.041440181 0.24889308 0.76790535 4292728013
0.042846903 0.24859449 0.76688701 4292332742
0.044503648 0.24889861 0.76787794 4291609273
0.046164144 0.24920273 0.76886886 4291543476
0.047828387 0.24950685 0.76985973 4291805620
0.049496382 0.24981098 0.77085054 4292068533
0.051168125 0.2501151 0.77184135 4292857279
0.052707359 0.2501179 0.77182758 4293449414
0.05424659 0.25012067 0.77181381 4293185720
0.056065843 0.25072619 0.77380902 4292132770
0.057750709 0.25103036 0.7747997 4291803554
0.059439328 0.25133452 0.77579033 4291474589
0.061422966 0.25224146 0.77878982 4291145624
0.063270338 0.25284702 0.78078479 4290421902
-0.11200914 0.24439111 0.75019485 4280555532
-0.11051302 0.24439381 0.7501815 4281607703
-0.10895444 0.24409363 0.74916178 4284896067
-0.107339 0.24349056 0.74713582 4286737240
-0.10584851 0.24349324 0.74712253 4286999636
-0.10441488 0.24379882 0.74811548 4288183650
-0.10297749 0.24410442 0.74910837 4290157172
-0.10153636 0.24441001 0.75010127 4290419830
-0.10004024 0.24441271 0.75008792 4290419832
-0.098544128 0.2444154 0.75007457 4290222714
-0.097048022 0.2444181 0.75006121 4289894279
-0.095734313 0.24563245 0.75407249 4289963424
-0.094449326 0.24714975 0.75908983 4291283142
-0.093020044 0.24775831 0.76108861 4291613141
-0.091663212 0.24897274 0.76509953 4291678676
-0.090253286 0.24988426 0.7681042 4291875541
-0.088723421 0.24988703 0.76809055 4291810005
-0.087193564 0.24988979 0.7680769 4291744469
-0.085663706 0.24989255 0.76806319 4291744726
-0.084164448 0.25019825 0.76905555 4291744726
-0.08263272 0.25020102 0.7690419 4291678934
-0.081074134 0.24990082 0.76802218 4291876313
-0.07956925 0.25020653 0.76901454 4292073692
-0.078037515 0.2502093 0.76900083 4292271071
-0.076505788 0.25021207 0.76898712 4292534243
-0.074954696 0.24991186 0.76796752 4292665829
-0.073389888 0.24930869 0.76594204 4292731622
-0.071816966 0.24840255 0.76291066 4292731622
-0.070269026 0.24779935 0.7608853 4292665829
-0.068740435 0.24749911 0.75986588 4292731622
-0.067215599 0.24719886 0.75884652 4292797415
-0.065702617 0.24720159 0.75883299 4292863208
-0.064183399 0.24690135 0.75781369 4292731622
-0.062672287 0.24690408 0.75780016 4292731622
-0.061161179 0.2469068 0.75778669 4292665829
-0.059650674 0.24721251 0.75877893 4292731622
-0.058135148 0.24782124 0.76077694 4292731622
-0.056615267 0.24812697 0.76176912 4292994794
-0.05507658 0.24934173 0.76577842 4293126380
nan nan nan 4285230962
nan nan nan 4284703846
-0.041516747 0.24694222 0.75761116 4287270799
-0.039958101 0.24755102 0.75960875 4288850088
-0.038468886 0.24725072 0.75858968 4290823879
-0.036928382 0.24755649 0.75958169 4292271070
-0.035413522 0.24755923 0.75956815 4292929000
-0.033929929 0.24725892 0.75854915 4293060586
-0.032416943 0.24726164 0.75853562 4292995050
-0.030938977 0.24696131 0.75751668 4292732392
-0.029427867 0.24696404 0.75750315 4292666599
-0.02787799 0.24726982 0.75849509 4292798185
-0.026365006 0.24727255 0.75848156 4292798185
-0.024852021 0.24727528 0.75846803 4292732392
-0.023339035 0.24727802 0.7584545 4292863721
-0.021826051 0.24728075 0.75844103 4292929001
-0.020313065 0.24728347 0.7584275 4292929001
-0.018800082 0.2472862 0.75841397 4292994794
-0.017287096 0.24728893 0.75840044 4292929514
-0.015827876 0.24698856 0.75738168 4292797672
-0.014372407 0.2466882 0.75636292 4292863978
-0.012863171 0.24669091 0.75634938 4292995820
-0.011413326 0.24639054 0.75533068 4293127662
-0.0098447008 0.24669637 0.75632244 4291746009
-0.0082723256 0.2470022 0.75731415 4285824639
-0.0066311872 0.24761115 0.75931102 4282140485
-0.0050494382 0.247917 0.76030266 4282337603
-0.0031888839 0.24943532 0.76531482 4282534467
nan nan nan 4282665795
-0.0002816937 0.24883458 0.76327735 4282665795
0.0037384168 0.24672087 0.75620109 4283521104
nan nan nan 4283586897
nan nan nan 4283389518
nan nan nan 4283652691
nan nan nan 4283652693
0.017226523 0.2464422 0.7550748 4283455312
nan nan nan 4283717971
0.023768518 0.24796897 0.76004517 4287664012
0.025598411 0.24888127 0.76304615 4290097841
0.027120769 0.24888401 0.76303256 4292137166
0.028751263 0.24918994 0.76402372 4292334287
0.030275498 0.2491927 0.76401013 4292399563
0.03179973 0.24919544 0.76399648 4292399302
0.033210207 0.24889499 0.76297814 4292069822
0.034732565 0.24889773 0.76296455 4291675064
0.036372434 0.2492037 0.76395565 4291806134
0.038016051 0.24950965 0.7649467 4292200375
0.039542161 0.2495124 0.76493311 4292660412
0.041191403 0.24981837 0.7659241 4293186497
0.042719387 0.24982113 0.76591045 4292791735
0.04424737 0.24982388 0.7658968 4292330925
0.045904111 0.25012988 0.76688778 4292199342
0.047695238 0.2507391 0.76888329 4291936171
0.049361352 0.25104508 0.76987416 4292528050
0.051031217 0.25135109 0.77086502 4292790708
0.052432317 0.25105062 0.76984674 4289303680
0.054105934 0.25135663 0.77083755 4288250994
0.055783298 0.25166267 0.77182829 4290421903
0.057748176 0.25257519 0.77482808 4289040250
0.059436791 0.25288123 0.77581871 4287988075
0.061420418 0.25379381 0.77881831 4287264353
0.063562803 0.25500965 0.78282219 4287330148
-0.10883193 0.24497834 0.74717653 4280949780
-0.10728084 0.24467628 0.74615687 4283514673
-0.10567478 0.24406943 0.74413091 4282133537
-0.10418992 0.24407211 0.74411762 4285225033
-0.10276003 0.24437957 0.74511069 4286671447
-0.10127329 0.24438225 0.7450974 4286999381
-0.099735327 0.24408014 0.74407786 4288381285
-0.098250464 0.24408282 0.74406457 4289894518
-0.096860558 0.24469507 0.74606377 4290354293
-0.095554359 0.2459169 0.75007528 4290025858
-0.09427689 0.24744356 0.75509286 4289633937
-0.092896968 0.24836066 0.75809789 4290953147
-0.091545776 0.24958257 0.76210904 4291940822
-0.090065271 0.24989012 0.76310158 4291875286
-0.088581018 0.25019765 0.76409411 4291809493
-0.087058656 0.25020042 0.76408052 4291744469
-0.085568778 0.25050795 0.765073 4291678676
-0.084075145 0.25081554 0.76606548 4291613140
-0.082577772 0.2511231 0.7670579 4291678933
-0.081049785 0.25112584 0.76704425 4291744726
-0.079546779 0.25143343 0.7680366 4291876313
-0.078040034 0.25174102 0.7690289 4291942106
-0.076508299 0.25174379 0.76901525 4292139485
-0.074957207 0.25144172 0.7679956 4292468450
-0.073392384 0.25083479 0.76596999 4292534243
-0.071819462 0.24992302 0.76293856 4292665829
-0.070271514 0.24931608 0.76091313 4292731622
-0.068731062 0.24870911 0.75888777 4292731622
-0.067208096 0.24840699 0.75786841 4292731622
-0.065688878 0.24810487 0.75684905 4292797415
-0.064179644 0.24810758 0.75683552 4292731622
-0.06267041 0.24811031 0.75682205 4292731622
-0.061161175 0.24811304 0.75680858 4292797415
-0.059652548 0.24842063 0.75780088 4292665829
-0.058138903 0.24903309 0.75979894 4292731622
-0.0566209 0.2493407 0.76079118 4292665829
-0.055084098 0.25056297 0.76480067 4292797415
nan nan nan 4292994279
nan nan nan 4289243565
nan nan nan 4284835432
nan nan nan 4285624948
nan nan nan 4289507505
nan nan nan 4291218123
-0.043090381 0.24753588 0.75463551 4292994536
-0.041606788 0.24723369 0.75361651 4292863207
-0.040103175 0.2472364 0.75360304 4292929000
-0.038599566 0.24723911 0.75358963 4292863207
-0.037068442 0.24754675 0.75458175 4292929000
-0.035533566 0.2478544 0.75557381 4292797415
-0.034026206 0.24785711 0.75556034 4292863208
-0.032518845 0.24785982 0.75554687 4292928745
-0.031011483 0.24786255 0.7555334 4292929001
-0.029504122 0.24786526 0.75551993 4292929001
-0.028035527 0.24756305 0.75450104 4293060587
-0.02653004 0.24756576 0.75448757 4292994794
-0.025067069 0.24726354 0.75346869 4292994794
-0.023563458 0.24726625 0.75345528 4292929001
-0.022059847 0.24726896 0.75344187 4292797415
-0.020556236 0.24727167 0.7534284 4292863208
-0.019002613 0.24757934 0.75442034 4292929001
-0.017497128 0.24758205 0.75440687 4292929002
-0.016045403 0.24727981 0.75338811 4292994796
-0.014541793 0.24728252 0.7533747 4292994794
-0.013153206 0.24667528 0.7513507 4292994794
-0.011653345 0.24667798 0.75133729 4292863464
-0.010092222 0.24698567 0.75232911 4293061356
-0.0085904859 0.24698839 0.7523157 4293127149
-0.0070237387 0.24729608 0.75330752 4290166719
-0.0053863558 0.24790877 0.75530446 4284903277
-0.0036727127 0.24882647 0.75830656 4282797901
-0.002159728 0.2488292 0.75829303 4283323986
-0.00064674299 0.24883193 0.7582795 4283652436
0.00079185655 0.24852966 0.75726086 4283652436
0.0021504462 0.24792236 0.75523716 4283784020
0.0035796717 0.24762008 0.75421858 4283520592
0.0050851572 0.24762279 0.75420511 4283455057
0.0065087583 0.24732049 0.75318664 4283586899
0.0079286098 0.24701817 0.75216812 4283652435
0.0090878084 0.24580079 0.74813461 4283587155
0.010582045 0.24580349 0.74812126 4283718998
0.012076281 0.24580617 0.74810791 4283849303
0.013570518 0.24580887 0.74809456 4283783765
0.015251022 0.24642165 0.75009114 4283192910
0.016844017 0.24672939 0.75108272 4284114012
0.018537644 0.24734218 0.75307918 4285889396
0.020041255 0.2473449 0.75306571 4288849053
0.021645499 0.24765266 0.75405717 4291611844
0.023253493 0.24796043 0.75504863 4292597969
0.024760853 0.24796315 0.75503516 4292728531
0.02637447 0.24827093 0.75602651 4292399563
0.027991839 0.24857871 0.75701785 4291871928
0.029612955 0.24888651 0.7580092 4291870899
0.031237822 0.24919431 0.75900048 4291871154
0.032752682 0.24919704 0.75898695 4292002993
0.034383174 0.24950485 0.75997818 4292396722
0.036134921 0.25011775 0.7619741 4293120190
0.037774786 0.25042558 0.76296526 4292922806
0.039418403 0.25073341 0.76395637 4292593582
0.041065767 0.25104126 0.76494741 4292067241
0.042716879 0.25134909 0.76593846 4291935655
0.044244863 0.25135186 0.76592481 4291409824
0.045901604 0.25165972 0.76691586 4290751643
0.047562093 0.25196758 0.76790679 4289370244
0.049226329 0.25227547 0.76889771 4288120177
0.050759938 0.25227821 0.768884 4287659372
0.05215729 0.25197586 0.76786572 4287198822
0.053965282 0.25258887 0.76986116 4287199337
0.055780776 0.2532019 0.77185655 4287199337
-0.10555975 0.24494101 0.74214542 4280293134
-0.10402178 0.24463704 0.74112588 4280884240
-0.10254255 0.24463971 0.74111265 4284172346
-0.1010102 0.24433573 0.74009311 4286408021
-0.099532835 0.24433839 0.74007994 4286802005
-0.098055474 0.24434106 0.74006671 4287328856
-0.096625596 0.24465038 0.74105978 4289038955
-0.095237568 0.24526638 0.74305904 4290090610
-0.094016969 0.24710904 0.7490831 4290354550
-0.092522733 0.24711174 0.74906975 4290485626
-0.09130837 0.24926114 0.75609976 4289963681
-0.089877225 0.24987721 0.7580986 4291874770
-0.088402353 0.25018662 0.75909126 4291809493
-0.086889364 0.25018933 0.75907779 4291744468
-0.085441343 0.25080544 0.76107651 4291744723
-0.083985828 0.25142157 0.76307511 4291744469
-0.082494073 0.25173101 0.76406765 4291744470
-0.080971718 0.25173375 0.76405406 4291679447
-0.079474337 0.25204319 0.76504648 4291811287
-0.077996321 0.25265935 0.76704496 4291942106
-0.076468341 0.25266209 0.76703131 4292007899
-0.074940361 0.25266486 0.76701766 4292073436
-0.073394887 0.25236091 0.76599801 4292204765
-0.071853168 0.25205693 0.76497841 4292336351
-0.070301466 0.25144625 0.76295286 4292599523
-0.068769127 0.25114226 0.76193339 4292796902
-0.067230545 0.25053155 0.75990796 4292796902
-0.065707579 0.25022754 0.75888854 4292731109
-0.06419459 0.25023028 0.75887501 4292796902
-0.062681608 0.25023302 0.75886148 4292862695
-0.061168622 0.25023574 0.75884795 4293059560
-0.059656858 0.25085196 0.76084614 4292927974
-0.058137596 0.25146818 0.7628442 4292927974
-0.056610834 0.25208443 0.76484221 4293125353
nan nan nan 4292993510
nan nan nan 4292993509
nan nan nan 4291019720
nan nan nan 4287598227
nan nan nan 4292006614
nan nan nan 4293191402
-0.04456206 0.24965221 0.75668794 4293059303
-0.043132875 0.24842781 0.75265187 4292993509
-0.041674916 0.24781695 0.75062716 4292928486
-0.040200692 0.24751286 0.74960816 4292862950
-0.038704578 0.24751556 0.74959481 4292863207
-0.037180956 0.24782506 0.75058699 4292928744
-0.035682969 0.24782775 0.75057364 4292994794
-0.034184981 0.24783045 0.75056022 4292863208
-0.032686997 0.24783316 0.75054687 4292929001
-0.031153999 0.24814267 0.75153899 4292929001
-0.029617252 0.24845219 0.75253111 4292929001
-0.028154276 0.24814808 0.75151217 4292994794
-0.026654417 0.24815078 0.75149882 4292994794
-0.025239576 0.24753985 0.74947453 4292994794
-0.023787849 0.24723572 0.7484557 4292994794
-0.022293612 0.24723841 0.74844235 4292929001
-0.020751242 0.24754794 0.74943441 4292797415
-0.019205119 0.24785748 0.75042641 4292863208
-0.01765525 0.24816702 0.75141841 4292929001
-0.016155388 0.24816972 0.751405 4293060587
-0.014711161 0.24786559 0.75038624 4292994794
-0.013270684 0.24756144 0.74936759 4292994794
-0.011833956 0.24725728 0.74834889 4292929001
-0.010278461 0.24756683 0.74934083 4292666341
-0.0087823486 0.24756953 0.74932748 4292534755
-0.0072212294 0.24787909 0.75031936 4292732391
-0.0057232431 0.2478818 0.75030595 4292469474
-0.0041564987 0.24819137 0.75129783 4289640373
-0.0026566377 0.24819407 0.75128442 4284837483
-0.0010117615 0.24881053 0.75328135 4283324243
0.00056623155 0.24912012 0.75427312 4283521365
0.0016904315 0.24758843 0.7492339 4283521621
0.0032646749 0.24789801 0.75022566 4283456084
0.0044426341 0.24667315 0.7461918 4283455313
0.0058512394 0.24636894 0.74517339 4283586641
0.0072560953 0.24606474 0.74415505 4283258191
0.0087428326 0.24606742 0.74414176 4283455570
0.010317076 0.24637701 0.74513352 4283586641
0.011895069 0.24668659 0.74612522 4284245083
0.013385556 0.24668929 0.74611193 4286152567
0.014969174 0.24699889 0.74710363 4290955455
0.016556541 0.24730849 0.74809527 4292270288
0.018147659 0.24761811 0.74908686 4292663760
0.019742524 0.24792773 0.75007844 4292466122
0.02124051 0.24793044 0.75006509 4291873984
0.022738498 0.24793313 0.75005168 4291610041
0.024236483 0.24793583 0.75003833 4291477941
0.025840724 0.24824548 0.75102979 4291740084
0.027448714 0.24855512 0.75202125 4292265652
0.029060455 0.24886477 0.75301272 4292331952
0.030787822 0.24948138 0.75500894 4292593327
0.032408938 0.24979104 0.75600028 4292329131
0.034149431 0.25040767 0.75799638 4292395692
0.036014926 0.25133127 0.76099724 4292461742
0.03765291 0.25164098 0.7619884 4292198825
0.039294649 0.25195068 0.76297957 4291014294
0.041063264 0.25256735 0.76497543 4290027657
0.042714376 0.25287709 0.76596653 4288449142
0.044369236 0.25318682 0.76695758 4287790958
0.046027847 0.25349656 0.76794857 4287330921
0.047690205 0.25380629 0.76893955 4287199080
-0.10232504 0.24488486 0.73711437 4281476121
-0.10080019 0.24457899 0.73609489 4283118890
-0.099330328 0.24458164 0.73608172 4285618765
-0.097860463 0.24458429 0.73606861 4287328350
-0.09643808 0.24489547 0.73706174 4287065684
-0.095103174 0.24582374 0.74006742 4288644712
-0.093800746 0.24706057 0.74407923 4289895281
-0.092399605 0.24768034 0.74607849 4290290292
-0.091030948 0.24860866 0.74908382 4290289526
-0.089612931 0.24922846 0.7510829 4290158462
-0.088187419 0.24984826 0.75308192 4289698955
-0.086720042 0.25015953 0.75407463 4290292905
-0.085313886 0.25108793 0.75707966 4291548117
-0.083865874 0.25170779 0.7590785 4291810263
-0.082381628 0.25201908 0.7600711 4291744727
-0.080866769 0.25202182 0.76005757 4291744727
-0.07942687 0.25295025 0.7630623 4291876312
-0.077952608 0.25357017 0.76506084 4292007898
-0.07644961 0.25388148 0.76605326 4292073691
-0.0749235 0.25388426 0.76603967 4292138972
-0.073397391 0.253887 0.76602602 4292007386
-0.071871281 0.25388974 0.76601237 4291809750
-0.070345178 0.25389251 0.76599872 4292138458
-0.068807207 0.25358665 0.76497912 4292533216
-0.067262992 0.25297222 0.76295364 4292796388
-0.065734394 0.25266635 0.7619341 4292993511
-0.064209551 0.25236046 0.76091462 4292927461
-0.062692814 0.2523632 0.76090103 4293256426
-0.06117608 0.25236595 0.7608875 4293256169
-0.059660573 0.25298592 0.76288569 4293058534
-0.058137566 0.2536059 0.76488382 4292532190
nan nan nan 4288979623
nan nan nan 4286611075
nan nan nan 4285361265
nan nan nan 4285032300
nan nan nan 4286282110
nan nan nan 4286282110
nan nan nan 4288387486
-0.044564538 0.25116143 0.75671566 4288387486
-0.043155346 0.24962088 0.7516737 4291808979
-0.041721139 0.24869761 0.74864328 4293256425
-0.040250663 0.24839164 0.74762428 4293059302
-0.0387583 0.24839433 0.74761099 4293059560
-0.037265938 0.24839702 0.74759763 4293125610
-0.035773575 0.24839972 0.74758428 4292994538
-0.034281213 0.2484024 0.74757099 4292863208
-0.03278885 0.2484051 0.74755764 4292863208
-0.031226475 0.24902515 0.74955541 4292929001
-0.029730363 0.24902785 0.74954206 4292994794
-0.028234251 0.24903056 0.74952865 4292994794
-0.026778772 0.24872456 0.74850982 4292994794
-0.025412057 0.24780117 0.74548 4292994794
-0.023967827 0.24749516 0.74446124 4292994794
-0.022481089 0.24749784 0.74444795 4292994794
-0.020994352 0.24750051 0.74443465 4292863208
-0.019407602 0.24812062 0.74643224 4292863208
-0.017865233 0.24843203 0.7474243 4292797415
-0.016372873 0.24843471 0.74741095 4292797415
-0.014936141 0.24812868 0.74639225 4292863208
-0.01350316 0.24782264 0.74537361 4292863208
-0.012014547 0.24782534 0.74536031 4292797159
-0.010525935 0.24782802 0.74534702 4292665572
-0.0089741936 0.24813944 0.74633902 4292534243
-0.0074837063 0.24814212 0.74632567 4292534242
-0.0060600992 0.24783607 0.74530709 4292468449
-0.0045714867 0.24783877 0.7452938 4292600804
-0.0030828747 0.24784145 0.7452805 4291614164
-0.0015217582 0.24815288 0.74627244 4286811274
4.3108113e-05 0.24846432 0.74726433 4283390037
0.0014592159 0.24815826 0.7462458 4282797641
0.002793445 0.24754342 0.74422216 4283258191
0.0041201753 0.24692857 0.74219859 4282929225
0.0054394058 0.24631372 0.74017507 4283323983
0.0069186436 0.24631639 0.74016184 4284705893
0.0084835095 0.24662784 0.74115372 4286744706
0.010052126 0.24693927 0.74214554 4289901228
0.011713869 0.24755952 0.74414247 4291809223
0.013200606 0.2475622 0.74412918 4292795859
0.014687344 0.24756488 0.74411589 4292729295
0.016269084 0.24787635 0.74510759 4292071106
0.017854573 0.24818783 0.74609929 4291674291
0.019443812 0.24849932 0.747091 4291542703
0.020936174 0.24850202 0.74707764 4291740338
0.022428535 0.2485047 0.74706429 4292200374
0.024025274 0.24881621 0.74805593 4292858045
0.025519511 0.24881889 0.74804258 4293186495
0.027121874 0.2491304 0.74903411 4293055163
0.028727986 0.24944192 0.75002563 4292264872
0.030449724 0.25006226 0.75202197 4292461991
0.032065209 0.25037381 0.75301343 4291934627
0.034031324 0.25161183 0.75701934 4291605918
0.035894934 0.25254104 0.76002026 4290487694
0.037650418 0.25316146 0.7620163 4289303423
0.039292153 0.25347304 0.76300752 4288317043
0.041183885 0.25440231 0.7660082 4287724904
-0.10232745 0.24635659 0.73714137 4280753685
-0.10074949 0.24573845 0.73511547 4280817938
-0.099281497 0.2457411 0.73510236 4281276432
-0.097813509 0.24574374 0.73508924 4284303675
-0.096393004 0.2460568 0.73608243 4286671704
-0.095059983 0.24699068 0.73908824 4287000151
-0.093715705 0.2479246 0.74209392 4287459672
-0.092276454 0.24823768 0.74308693 4290157171
-0.090953425 0.24948205 0.74709874 4290288498
-0.089577273 0.25041601 0.75010413 4290617209
-0.088153638 0.25103956 0.75210321 4290486394
-0.086688146 0.2513527 0.75309604 4290224007
-0.085251383 0.25197628 0.75509501 4290820791
-0.083807126 0.25259987 0.75709391 4291874512
-0.082355373 0.25322348 0.75909269 4291876055
-0.080842391 0.25322622 0.75907922 4291876055
-0.079354391 0.25353938 0.76007181 4292203993
-0.07786265 0.25385258 0.76106435 4292138970
-0.076388389 0.25447622 0.76306301 4292139484
-0.074887276 0.25478944 0.76405549 4292205020
-0.073399894 0.25541312 0.76605403 4292204250
-0.071905017 0.25603679 0.76805246 4292006358
-0.070402637 0.25666049 0.77005082 4292137432
-0.068880901 0.25697371 0.77104312 4292663776
nan nan nan 4293190120
nan nan nan 4293584364
nan nan nan 4285360493
nan nan nan 4285623665
-0.043157808 0.25112075 0.75170124 4285689203
-0.041701708 0.25050238 0.74967641 4289045416
-0.04025311 0.24988399 0.7476517 4292664031
-0.038786378 0.24957615 0.7466327 4293190632
-0.0373509 0.24895775 0.74460804 4293059560
-0.035893545 0.24864988 0.7435891 4293059817
-0.034408681 0.24865256 0.74357587 4292928745
-0.032923818 0.24865524 0.74356258 4292863208
-0.031368949 0.24927904 0.74556053 4292863208
-0.029880336 0.24928172 0.74554724 4292994794
-0.028391723 0.2492844 0.74553388 4292863208
-0.026903111 0.24928708 0.74552059 4292929001
-0.025457002 0.2489792 0.74450177 4292929001
-0.024014644 0.24867131 0.74348301 4292929001
-0.022576036 0.24836341 0.74246424 4292929001
-0.021044919 0.24867666 0.74345648 4292797415
-0.019510053 0.24898992 0.74444866 4292731622
-0.017919559 0.24961379 0.74644625 4292665829
-0.016429072 0.24961647 0.74643296 4292600036
-0.014994213 0.24930857 0.7454142 4292665572
-0.013505601 0.24931125 0.74540091 4292731109
-0.012076367 0.24900334 0.74438226 4292731109
-0.010589629 0.24900602 0.74436897 4292730852
-0.0090397643 0.24931931 0.74536103 4292533473
-0.0076161544 0.24901138 0.74434239 4292468194
-0.006196294 0.24870345 0.7433238 4292468193
-0.0046426798 0.24901675 0.74431586 4292468449
-0.0031559423 0.24901943 0.74430257 4292600290
-0.0015242024 0.24964336 0.74629974 4292601058
-3.3715365e-05 0.24964605 0.74628645 4290890439
0.0013042697 0.24902748 0.7442627 4286153083
0.0027128812 0.24871951 0.74324423 4286087288
0.0039577419 0.24779028 0.74021542 4289047717
0.005273229 0.24717167 0.73819184 4291284422
0.0068324679 0.24748497 0.73918384 4292533203
0.0083954558 0.24779829 0.74017572 4292598479
0.010049694 0.24842227 0.74217278 4292269254
0.011711431 0.24904625 0.74416971 4291873211
0.013198168 0.24904893 0.74415642 4291543988
0.014684906 0.24905162 0.74414319 4291477168
0.016266642 0.24936496 0.74513495 4291805104
0.017852129 0.24967831 0.74612665 4292594617
0.019342616 0.249681 0.74611336 4292856505
0.020933727 0.24999437 0.74710506 4292724918
0.022426087 0.24999705 0.74709171 4292857273
0.02391845 0.24999975 0.74707836 4292725686
0.025517059 0.25031313 0.74807 4292725428
0.02711942 0.2506265 0.74906158 4292856757
0.028725529 0.25093991 0.75005311 4291409311
0.030447261 0.251564 0.75204957 4291014295
0.032062743 0.2518774 0.75304103 4288843896
0.034028843 0.25312293 0.75704706 4288119662
0.035892446 0.25405777 0.76004809 4287593319
0.037767295 0.25499263 0.76304901 4287593578
0.039410904 0.25530609 0.76404023 4287593837
0.041427623 0.25655171 0.76804584 4287396973
-0.099181429 0.24658452 0.73311651 4280162061
-0.097717188 0.24658716 0.73310339 4281213719
-0.096252948 0.24658981 0.73309034 4283383344
-0.09483432 0.24690473 0.73408359 4286014289
-0.09349943 0.24784425 0.73708946 4287131485
-0.092069559 0.2481592 0.73808265 4287197015
-0.090715922 0.24909875 0.74108833 4289959795
-0.089389145 0.25035062 0.7451002 4290222451
-0.088011138 0.2512902 0.7481057 4290682485
