# .PCD v0.7 - Point Cloud Data file format
VERSION 0.7
FIELDS x y z rgba
SIZE 4 4 4 4
TYPE F F F U
COUNT 1 1 1 1
WIDTH 1116
HEIGHT 1
VIEWPOINT 0 0 0 1 0 0 0
POINTS 1116
DATA ascii
0.027113071 0.22987539 0.91471583 4292994793
0.028920403 0.22987865 0.91469967 4292994793
0.030634489 0.22964624 0.91367984 4292271070
0.032344826 0.22941382 0.91266 4287271056
0.033954412 0.22894572 0.9106366 4282533960
0.035754245 0.22894897 0.91062051 4281876028
0.037352584 0.22848085 0.90859717 4282533958
0.03914867 0.22848408 0.90858114 4282533958
0.041153748 0.22895871 0.91057229 4282731337
0.043059949 0.22919765 0.91155976 4282402115
0.045078151 0.22967228 0.91355079 4282533445
0.04677349 0.22943984 0.91253114 4282533445
0.04857707 0.2294431 0.91251498 4281941821
0.050380655 0.22944635 0.91249889 4281283891
0.052299984 0.22968532 0.91348624 4279968033
0.054223061 0.22992429 0.91447359 4279835934
0.056149889 0.23016326 0.91546094 4282007617
0.057959095 0.23016652 0.91544473 4282599241
0.059768304 0.23016979 0.91542858 4283783514
0.06157751 0.23017305 0.91541243 4284573028
0.063386716 0.23017631 0.91539627 4284901993
0.065067053 0.22994384 0.91437674 4284770661
0.066743642 0.22971137 0.9133572 4284375903
0.068549104 0.22971463 0.9133411 4284376415
0.070220068 0.22948214 0.91232163 4283981143
0.072023652 0.22948539 0.91230553 4282600004
0.07410372 0.22996014 0.91429597 4281810233
0.076051168 0.23019916 0.91528314 4288323227
0.078144364 0.23067394 0.91727346 4292927707
0.079957321 0.2306772 0.91725725 4292531915
0.081916019 0.23091625 0.9182443 4291346606
0.083730854 0.23091951 0.91822809 4290227603
0.085545681 0.23092279 0.91821188 4290622098
0.087360516 0.23092607 0.91819566 4290753170
0.089175351 0.23092933 0.91817945 4290687377
0.090990178 0.23093261 0.91816324 4290950296
0.092648022 0.23070011 0.91714388 4290884250
0.09430211 0.23046759 0.91612458 4290555289
0.095952451 0.23023506 0.91510534 4289963153
0.097761661 0.23023832 0.91508913 4289370761
-0.22881427 0.22552404 0.89292598 4281218601
-0.22669472 0.22505312 0.89089793 4282402361
-0.2247594 0.22481923 0.88987607 4280229907
-0.22317755 0.22505946 0.89086652 4278518528
-0.22176492 0.22553676 0.89286298 4278847488
-0.2203448 0.22601408 0.89485943 4279044353
-0.21925564 0.22696555 0.89886791 4281149211
-0.21748205 0.22696874 0.89885211 4282859827
-0.21603943 0.22744609 0.90084833 4284570703
-0.2144257 0.22768638 0.90183848 4285360477
-0.21264648 0.22768959 0.90182257 4287005302
-0.21070743 0.22745572 0.9008007 4287860611
-0.20877211 0.22722183 0.89977884 4288452749
-0.20699665 0.22722504 0.89976299 4288452750
-0.20522119 0.22722824 0.89974713 4288453009
-0.20359808 0.22746854 0.90073717 4288848281
-0.20182075 0.22747174 0.90072131 4288914331
-0.1998948 0.22723784 0.89969951 4289243297
-0.19811934 0.22724104 0.89968365 4289704105
-0.19634388 0.22724424 0.8996678 4290098864
-0.19456843 0.22724745 0.89965194 4290427829
-0.19279295 0.22725065 0.89963609 4290362294
-0.19115673 0.22749098 0.900626 4290494136
-0.18937939 0.22749418 0.90061015 4290428345
-0.18760206 0.22749738 0.90059423 4290362554
-0.18582472 0.2275006 0.90057838 4290296764
-0.18404739 0.22750381 0.90056252 4290297021
-0.1821402 0.22726987 0.8995409 4290034362
-0.18036473 0.22727308 0.89952505 4288719017
-0.17846316 0.22703913 0.89850348 4283587164
-0.17631687 0.22633086 0.89547062 4281284409
-0.17454891 0.22633405 0.89545482 4281284663
-0.17278095 0.22633724 0.89543903 4281744960
-0.1711316 0.22657759 0.89642888 4281678651
-0.16936176 0.22658078 0.89641309 4281481270
-0.16759193 0.22658399 0.89639723 4281283378
-0.16582209 0.22658718 0.89638144 4281217585
-0.16427448 0.22706471 0.8983767 4281085999
-0.16261013 0.2273051 0.89936644 4281151792
-0.16083467 0.2273083 0.89935058 4281085999
-0.15895373 0.22707431 0.8983292 4281086253
-0.15718013 0.22707751 0.89831334 4281152046
-0.15540655 0.22708072 0.89829749 4281020719
-0.15363297 0.22708391 0.89828163 4281020719
-0.15176138 0.22684991 0.89726037 4281020719
-0.15008579 0.22709031 0.89824998 4281020719
-0.14840645 0.22733071 0.89923954 4281086512
-0.14663099 0.22733392 0.89922369 4280757034
-0.14494601 0.22757433 0.90021318 4280428071
-0.14316867 0.22757754 0.90019727 4280428071
-0.14139134 0.22758074 0.90018141 4280230692
-0.13969886 0.22782117 0.90117085 4280954417
-0.13791966 0.22782439 0.90115494 4285823099
-0.13622156 0.22806482 0.90214431 4288981163
-0.13444048 0.22806804 0.90212846 4285625977
nan nan nan 4283060050
nan nan nan 4282665033
-0.12894998 0.22760318 0.90007025 4281480759
nan nan nan 4280822572
nan nan nan 4281085485
nan nan nan 4281085485
nan nan nan 4281151276
-0.11993483 0.2271447 0.89798057 4281020203
-0.11816125 0.22714789 0.89796478 4281020203
-0.11632717 0.22691382 0.89694381 4281151276
-0.11443823 0.22644249 0.89491779 4281151276
-0.11261352 0.2262084 0.89389694 4281151276
-0.11084744 0.22621158 0.8938812 4281151276
-0.10892237 0.22550292 0.89085031 4280954411
-0.10711079 0.22526883 0.88982958 4281020203
-0.10535221 0.22527198 0.88981384 4281151790
-0.10354625 0.22503787 0.88879317 4281282862
-0.10178954 0.22504105 0.88877743 4281282862
-0.10012006 0.22551881 0.89077163 4281151019
-0.098443091 0.22599658 0.89276582 4281282605
-0.096718743 0.22623707 0.89375496 4281414191
nan nan nan 4281282861
-0.093186572 0.22624344 0.89372337 4280887847
-0.091386244 0.22600931 0.89270276 4280953639
nan nan nan 4281808949
-0.087400407 0.22245586 0.87759876 4281545776
-0.085492596 0.22103505 0.87155437 4280624673
-0.083714269 0.2205635 0.86952937 4280624673
-0.081918567 0.21985461 0.8664996 4280295708
-0.080134116 0.2191457 0.86347002 4280361758
-0.07840316 0.21891144 0.86244994 4281546032
-0.076695189 0.21891452 0.86243469 4281611824
-0.07496985 0.21868026 0.86141473 4282401339
-0.073263757 0.21868335 0.86139947 4283914322
-0.071557671 0.21868642 0.86138427 4280887844
-0.069851577 0.2186895 0.86136901 4281151016
-0.068135612 0.21845521 0.86034912 4281348395
-0.066423401 0.21822093 0.85932928 4281743153
-0.064721055 0.218224 0.85931408 4282203704
-0.063022964 0.21846443 0.86030346 4282466876
-0.061318744 0.2184675 0.8602882 4282861377
-0.059614528 0.21847059 0.860273 4283321928
-0.057910308 0.21847366 0.86025774 4283387978
-0.056206092 0.21847673 0.86024255 4283387978
-0.054496747 0.21871719 0.8612318 4283519564
-0.05277665 0.21919505 0.86322558 4283980116
-0.051049054 0.21967292 0.8652193 4283980115
-0.049335465 0.219676 0.86520398 4283782992
-0.047583994 0.22039129 0.86820197 4283980115
-0.045806769 0.22134401 0.87220436 4283716944
-0.044030927 0.22205934 0.87520218 4283453773
-0.042243831 0.22277468 0.87819988 4284177242
-0.040324733 0.22491454 0.88722378 4286348414
nan nan nan 4288190876
nan nan nan 4292467423
nan nan nan 4292401887
-0.032725248 0.22991315 0.90825164 4292402144
-0.030872039 0.23039123 0.91024417 4292467680
-0.028979957 0.23110677 0.91324097 4292467937
-0.027143124 0.23134747 0.91422909 4292467937
-0.025302541 0.23158817 0.91521722 4292599523
-0.023495208 0.23159142 0.91520107 4292599266
-0.02172675 0.23135725 0.9141807 4292730595
-0.019839793 0.2318354 0.91617298 4292862181
-0.01807321 0.23160121 0.91515261 4293059303
-0.016354876 0.23112956 0.91312814 4293191146
nan nan nan 4292862181
-0.0054776296 0.23138654 0.91403556 4293915381
-0.0037297942 0.23115233 0.91301537 4293586930
-0.0018667137 0.23139307 0.91400325 4292731365
-0.00012262823 0.23115884 0.91298312 4292599780
0.0016177077 0.23092459 0.91196305 4292665572
0.003289172 0.23045287 0.90993899 4292600036
0.0050201337 0.2302186 0.90891898 4292600036
0.006885089 0.23045935 0.90990686 4292534243
0.0087537942 0.23070009 0.91089469 4292665829
0.01069887 0.23117836 0.91288644 4292534243
0.012576949 0.23141912 0.91387427 4292600036
0.014382407 0.23142238 0.91385812 4292600036
0.016109619 0.23118812 0.9128381 4292665829
0.017833082 0.23095384 0.91181815 4292600036
0.019634789 0.23095709 0.91180205 4292665829
0.021436498 0.23096034 0.91178596 4292600036
0.023238206 0.23096359 0.91176987 4292600036
0.024952294 0.23072931 0.91075003 4292468450
0.026752127 0.23073256 0.91073394 4292665829
0.02855196 0.23073581 0.91071784 4292731364
0.030258549 0.2305015 0.90969801 4292600035
0.03205651 0.23050475 0.90968198 4293126379
0.033854466 0.230508 0.90966588 4292731619
0.035553556 0.23027368 0.90864617 4288784295
0.037148152 0.2298018 0.90662283 4282928716
0.038940486 0.22980504 0.90660679 4281876028
0.04073282 0.22980827 0.90659076 4281876028
0.042631522 0.23004907 0.90757835 4282402115
0.044642217 0.23052745 0.90956956 4281744442
0.046550296 0.23076826 0.91055703 4282007614
0.048350129 0.23077151 0.91054094 4282797131
0.050149962 0.23077476 0.9105249 4283849818
0.052065536 0.23101559 0.91151232 4286547333
0.053867247 0.23101884 0.91149622 4288981674
0.055668954 0.23102209 0.91148013 4290363073
0.057470661 0.23102534 0.91146404 4290823624
0.059149127 0.23079099 0.9104445 4288191904
0.061074078 0.23103185 0.91143185 4282467910
0.062875785 0.2310351 0.91141576 4282796617
0.064548627 0.23080073 0.91039622 4284573541
0.066086978 0.23032875 0.90837336 4285099883
0.067750446 0.23009439 0.90735394 4285231469
0.069410168 0.22985999 0.90633458 4285428846
0.071202502 0.22986323 0.90631855 4284837483
0.073271312 0.23034172 0.90830922 4287798681
0.075347632 0.23082021 0.91029978 4292995815
0.07743144 0.23129873 0.91229028 4292336606
0.079235025 0.23130198 0.91227418 4292664029
0.081038609 0.23130523 0.91225803 4292729556
0.082842194 0.23130849 0.91224194 4292794318
0.084795259 0.23154938 0.91322905 4291741115
0.086449355 0.23131499 0.91220969 4290688676
0.088252939 0.23131825 0.9121936 4290885275
0.090056524 0.2313215 0.9121775 4290753170
0.091860108 0.23132475 0.91216135 4290819220
0.093663685 0.23132801 0.91214526 4290752917
0.095467269 0.23133126 0.91212916 4290752919
0.097108245 0.23109685 0.91110992 4290752667
0.099074438 0.23133777 0.91209692 4290160532
0.10087802 0.23134102 0.91208082 4289437324
nan nan nan 4288713860
nan nan nan 4288319104
-0.23804906 0.22559497 0.88600862 4279572237
-0.2364897 0.22583702 0.88699931 4281611050
-0.2349266 0.22607909 0.88798994 4282533433
-0.23354584 0.22656009 0.88998675 4283915853
-0.23197336 0.22680217 0.89097732 4285429604
-0.23021477 0.22680534 0.89096159 4286743927
-0.2284562 0.22680852 0.89094591 4287268987
-0.226519 0.22657277 0.88992399 4287531900
-0.22458555 0.226337 0.88890213 4284703056
-0.22300558 0.2265791 0.88989258 4281807398
-0.22142184 0.22682121 0.89088303 4284832586
-0.22017659 0.22754121 0.89388573 4286083156
-0.21875085 0.22802228 0.89588213 4287005543
-0.21698289 0.22802547 0.89586633 4287136871
-0.2153804 0.22826761 0.89685667 4287400048
-0.21377417 0.22850975 0.89784688 4287203190
-0.21200247 0.22851296 0.89783102 4287991686
-0.21007089 0.22827719 0.89680922 4288321165
-0.20798509 0.22780246 0.89478135 4288847766
-0.2060629 0.22756666 0.89375961 4289242782
-0.20429868 0.22756985 0.89374387 4290230192
-0.20253447 0.22757304 0.89372808 4290624951
-0.20061977 0.22733723 0.89270639 4290757051
-0.19885743 0.22734042 0.89269066 4290691002
-0.1970951 0.22734359 0.89267492 4290625467
-0.19533277 0.22734676 0.89265913 4290428602
-0.19371341 0.22758894 0.89364928 4290363067
-0.1919492 0.22759213 0.89363354 4290363070
-0.19018498 0.2275953 0.89361775 4290363328
-0.18855813 0.22783749 0.89460784 4290363073
-0.18679205 0.22784068 0.89459205 4290297280
-0.18489236 0.22760485 0.89357048 4290363073
-0.18325987 0.22784705 0.89456046 4290428866
-0.18149379 0.22785023 0.89454472 4290560709
-0.1797277 0.22785342 0.89452893 4290627016
-0.17796162 0.22785661 0.89451313 4290824908
-0.1760713 0.22762077 0.89349169 4286482569
-0.17430708 0.22762395 0.89347589 4280758578
-0.17254287 0.22762713 0.89346015 4280824369
-0.17077866 0.22763032 0.89344436 4281021491
-0.16913119 0.22787254 0.89443427 4280889903
-0.16725023 0.22763668 0.89341283 4281086512
-0.16537303 0.22740081 0.8923915 4280954924
-0.16349958 0.22716494 0.89137018 4280889132
-0.16173913 0.22716811 0.89135444 4280296994
-0.15997866 0.22717129 0.89133871 4280296996
-0.15821819 0.22717446 0.89132297 4280231203
-0.15666497 0.22765577 0.8933183 4280691754
-0.15500249 0.22789802 0.89430803 4281152305
-0.1532364 0.22790121 0.89429224 4283455060
-0.15137233 0.22766532 0.89327103 4286020989
-0.14960812 0.22766849 0.89325523 4288521123
-0.14793815 0.22791076 0.89424491 4290494913
-0.14617206 0.22791395 0.89422911 4290823878
-0.14449647 0.22815622 0.89521879 4290823878
-0.14272851 0.22815941 0.89520299 4290429120
-0.14096054 0.2281626 0.8951872 4290428866
-0.13919258 0.22816579 0.8951714 4290428866
-0.13742462 0.22816898 0.89515561 4290363073
-0.13565665 0.22817217 0.89513981 4290428866
-0.13388871 0.22817536 0.89512402 4290428866
-0.13212074 0.22817855 0.89510822 4290494659
-0.13027729 0.22794262 0.89408714 4286941837
-0.12851119 0.2279458 0.89407134 4281546811
-0.12667337 0.22770987 0.89305031 4280560170
-0.12490916 0.22771305 0.89303458 4281152305
-0.12321294 0.22795536 0.89402401 4281217585
-0.12151297 0.22819768 0.89501345 4281086510
-0.11968076 0.22796173 0.89399248 4280888874
-0.11778994 0.22748664 0.8919664 4280889131
-0.11596711 0.22725068 0.89094549 4281020460
-0.11414803 0.22701471 0.88992465 4281020460
-0.11238944 0.22701788 0.88990897 4280954411
-0.11057598 0.2267819 0.88888818 4281020203
-0.10876627 0.22654592 0.88786739 4280954411
-0.10701144 0.22654907 0.88785172 4281020460
-0.10530584 0.22679141 0.88884109 4281020460
-0.10354913 0.22679457 0.88882536 4281151533
-0.10174692 0.22655858 0.88780469 4281151533
-0.099992089 0.22656174 0.88778901 4281151790
-0.098278992 0.22680408 0.88877827 4281217581
-0.096641898 0.22752479 0.89177746 4281085994
nan nan nan 4281283117
-0.09318947 0.22800952 0.89375579 4281282860
-0.091389135 0.22777352 0.89273512 4280822309
-0.089333571 0.22562397 0.8836754 4281151274
-0.087372757 0.22395274 0.87662572 4282006583
-0.085466802 0.22252068 0.87058115 4282006583
-0.083690345 0.22204538 0.86855608 4282532670
-0.081896506 0.22133087 0.86552626 4282335291
-0.080136925 0.22085553 0.86350137 4282072119
-0.078384832 0.22038019 0.86147654 4281085224
-0.076659493 0.22014405 0.86045653 4280624673
-0.074955277 0.22014713 0.86044127 4280690466
-0.073235564 0.21991098 0.85942131 4281085223
-0.071533218 0.21991405 0.85940611 4280887844
-0.06981913 0.2196779 0.85838622 4280887844
-0.068128534 0.21992019 0.85937572 4281216809
-0.066418193 0.21968402 0.85835582 4281611567
-0.064717725 0.21968709 0.85834062 4282137911
-0.063017257 0.21969016 0.85832542 4282401083
-0.061319165 0.21993247 0.85931486 4282730048
-0.059616823 0.21993554 0.85929966 4283059013
-0.057914481 0.21993862 0.85928446 4283256392
-0.056208886 0.22018094 0.86027384 4283322186
-0.054499544 0.22042328 0.86126316 4283387979
-0.052779455 0.22090489 0.86325693 4283848529
-0.05106074 0.22114724 0.86424619 4283717200
-0.049338274 0.22138959 0.86523539 4283651407
-0.04758681 0.22211049 0.8682335 4283848787
-0.045824099 0.22283143 0.87123156 4283848530
-0.044033766 0.22379167 0.87523395 4283585103
-0.042246681 0.22451265 0.87823176 4284045656
-0.040347733 0.22643007 0.88625157 4284045660
nan nan nan 4290098617
nan nan nan 4292532960
nan nan nan 4292467423
nan nan nan 4292532959
-0.030933984 0.23171058 0.90826851 4292664545
-0.029014286 0.23267105 0.91226971 4292795875
-0.027179331 0.23291361 0.91325796 4293059047
-0.025340626 0.23315617 0.91424608 4293190633
-0.023572166 0.23292011 0.91322571 4293059047
-0.021807453 0.23268405 0.91220534 4292335324
-0.019964999 0.23292662 0.91319346 4291348429
-0.018204037 0.23269054 0.91217315 4289111467
nan nan nan 4286677125
nan nan nan 4284440163
-0.0021076521 0.23224108 0.91002017 4293322731
-0.00030969354 0.23224433 0.91000408 4293059559
0.001425021 0.2320082 0.90898401 4292928231
0.0030908671 0.23153271 0.90695995 4292796645
0.0047492138 0.2310572 0.90493596 4292665316
0.0065377979 0.23106042 0.90491992 4292599780
0.0083971256 0.23130302 0.90590793 4292600036
0.010260203 0.23154564 0.90689588 4292600036
0.012127031 0.23178825 0.90788382 4292731622
0.013844871 0.23155209 0.90686387 4292665829
0.015558963 0.23131594 0.90584397 4292665829
0.017349422 0.23131917 0.90582794 4292600036
0.019221874 0.23156179 0.90681583 4292600036
0.021014208 0.23156503 0.90679979 4292534243
0.022892283 0.23180768 0.90778762 4292468450
0.024686493 0.23181091 0.90777159 4292534243
0.02639121 0.23157473 0.90675175 4292600036
0.028183544 0.23157796 0.90673578 4292600036
0.029975878 0.2315812 0.90671974 4292600036
0.03176821 0.23158443 0.90670371 4292796902
0.033657536 0.2318271 0.90769142 4292665571
0.035451747 0.23183033 0.90767539 4293454831
0.037044473 0.2313547 0.90565199 4293126122
0.038629703 0.23087905 0.90362865 4289573298
0.040416412 0.23088227 0.90361267 4284112479
0.042309485 0.23112494 0.90460038 4286612613
0.044314552 0.23160706 0.90659165 4288849575
0.046327114 0.23208919 0.90858287 4290823878
0.048123196 0.23209244 0.90856677 4292337117
0.049919281 0.23209567 0.90855074 4292600291
0.051715367 0.23209891 0.90853471 4292600035
0.053393833 0.23186269 0.90751511 4292797415
0.055068556 0.23162647 0.90649557 4292073692
0.05686089 0.2316297 0.90647954 4292073691
0.058653224 0.23163293 0.9064635 4291613140
0.060320444 0.23139668 0.90544403 4291086796
0.062110905 0.23139991 0.90542805 4288323744
0.063901365 0.23140314 0.90541208 4285165680
0.065561086 0.23116688 0.90439266 4282928718
0.067084439 0.23069113 0.90236986 4283389267
0.068869278 0.23069435 0.90235388 4285560436
0.070654109 0.23069757 0.90233797 4286086782
0.072715424 0.23117979 0.9043287 4290363073
0.074784227 0.23166202 0.90631944 4292731621
0.076718546 0.23190476 0.90730673 4292533730
0.078512758 0.23190799 0.9072907 4292533216
0.08030697 0.23191124 0.90727466 4292532702
0.082101174 0.23191448 0.90725863 4292598238
0.084044874 0.23215723 0.90824586 4292794839
0.085689597 0.23192094 0.90722656 4292662736
0.087483801 0.23192418 0.90721053 4292267717
0.089278013 0.23192742 0.9071945 4291412401
0.091229208 0.23217019 0.90818167 4290753695
0.093184151 0.23241296 0.90916884 4290490515
0.09498211 0.23241621 0.90915275 4290818452
0.096780069 0.23241945 0.90913671 4290950299
0.098413542 0.23218314 0.90811747 4290950044
0.10020962 0.23218639 0.90810144 4290884253
0.10183747 0.23195007 0.90708232 4290752667
0.10346157 0.23171376 0.9060632 4289766290
0.10490994 0.23123786 0.90404111 4288713860
0.10669853 0.23124109 0.90402508 4288516482
0.10848711 0.23124431 0.9040091 4287990654
nan nan nan 4287925116
nan nan nan 4279178507
nan nan nan 4278717185
-0.24251013 0.22637162 0.88206202 4278716928
-0.24057293 0.22613399 0.8810401 4278979330
-0.23922031 0.22661868 0.88303727 4279966222
-0.23786019 0.22710338 0.88503438 4285359963
-0.23611285 0.22710654 0.88501877 4287136890
-0.23474148 0.22759126 0.88701576 4287005302
-0.2331765 0.22783521 0.88800639 4287136373
-0.23160778 0.22807917 0.88899702 4287004787
-0.23003531 0.22832313 0.88998759 4287135856
-0.22845908 0.22856709 0.89097816 4287725172
-0.22670048 0.22857027 0.89096242 4287724661
-0.22476517 0.22833264 0.8899405 4287462254
-0.22318332 0.22857662 0.89093101 4287792752
-0.22159772 0.22882061 0.89192146 4287859576
-0.22017948 0.22930542 0.8939181 4287728770
-0.21858451 0.22954941 0.89490843 4288978323
-0.2164837 0.22907095 0.89288044 4289175960
-0.21472135 0.22907414 0.8928647 4289964962
-0.21312264 0.22931814 0.89385504 4290359465
-0.2116819 0.229803 0.89585143 4290031531
-0.20975406 0.22956534 0.89482957 4290228910
-0.20783 0.22932769 0.89380771 4290361010
-0.20590967 0.22909002 0.89278597 4290295988
-0.2039931 0.22885236 0.89176422 4290493880
-0.20223263 0.22885554 0.89174849 4290559933
-0.20032169 0.22861785 0.89072675 4290560191
-0.19841447 0.22838017 0.88970512 4290626240
-0.19665776 0.22838333 0.88968939 4290955210
-0.19504592 0.22862737 0.89067966 4290560448
-0.19343032 0.22887141 0.89166981 4290560706
-0.19166987 0.22887458 0.89165413 4290692037
-0.1899094 0.22887775 0.8916384 4290757831
-0.1882863 0.22912182 0.89262849 4290757832
-0.18652396 0.22912499 0.89261276 4290823624
-0.18476163 0.22912817 0.89259702 4290955210
-0.1829993 0.22913136 0.89258128 4291283919
-0.18123695 0.22913453 0.89256555 4291152077
-0.17960261 0.2293786 0.89355558 4291086540
-0.1778384 0.22938178 0.89353979 4291086540
-0.17594995 0.22914407 0.89251828 4291020746
-0.17418762 0.22914724 0.89250255 4290823367
-0.17242527 0.22915043 0.89248681 4291678674
-0.17066294 0.2291536 0.89247108 4288257951
-0.16890059 0.22915678 0.89245534 4282073409
-0.16702339 0.22891904 0.89143389 4280428328
-0.16514994 0.2286813 0.89041257 4281020719
-0.16339135 0.22868447 0.89039683 4281744442
-0.16163276 0.22868764 0.8903811 4285034092
-0.15976681 0.22844988 0.88935983 4287402642
-0.1581156 0.22869398 0.89034969 4289639604
-0.15646063 0.22893809 0.89133954 4290955464
-0.15480191 0.22918221 0.89232934 4291218636
-0.15303956 0.22918539 0.8923136 4291481808
-0.15127723 0.22918858 0.89229786 4291152843
-0.1495149 0.22919175 0.89228213 4290494659
-0.14775255 0.22919492 0.89226639 4290428866
-0.14599022 0.22919811 0.89225066 4290363073
-0.14431837 0.22944225 0.89324033 4290494659
-0.14255416 0.22944543 0.89322454 4290428866
-0.14078996 0.22944862 0.8932088 4290297280
-0.13902575 0.22945179 0.89319307 4290363073
-0.13726152 0.22945498 0.89317727 4290363073
-0.13549732 0.22945815 0.89316154 4290363073
-0.13373311 0.22946134 0.89314574 4290297280
-0.1319689 0.22946453 0.89313 4290231487
-0.13020468 0.2294677 0.89311421 4290626245
-0.12836686 0.2292299 0.89209318 4289836729
-0.12653276 0.22899207 0.89107215 4285034094
-0.12484217 0.22923626 0.89206171 4281020720
-0.12307984 0.22923943 0.89204597 4280954926
-0.12138362 0.22948362 0.89303541 4281152303
-0.11955517 0.2292458 0.89201444 4280954924
-0.11766808 0.22876695 0.88998836 4281086510
-0.115849 0.2285291 0.88896745 4281086512
-0.11409229 0.22853227 0.88895178 4280954925
-0.11227883 0.22829442 0.88793093 4280889132
-0.11052399 0.22829758 0.88791525 4281020460
-0.10871615 0.22805971 0.88689446 4281086253
-0.10701431 0.22830391 0.8878839 4280954667
-0.10530873 0.22854811 0.88887328 4280954667
-0.10355201 0.22855128 0.8888576 4281086253
-0.1017953 0.22855444 0.88884193 4280757288
-0.10003859 0.22855762 0.88882619 4280954667
-0.098281875 0.22856079 0.88881052 4281152301
-0.096604913 0.22904606 0.89080477 4281678645
-0.094920449 0.22953135 0.89279902 4282994248
-0.093156241 0.22953454 0.89278322 4283652178
-0.091357775 0.22929665 0.89176255 4282270525
-0.089368813 0.22761236 0.8847124 4280954665
-0.087406099 0.22592802 0.87766242 4280296222
-0.085498258 0.22448471 0.87161762 4280559137
-0.083693162 0.22376458 0.86858761 4280559137
-0.081924193 0.22328553 0.86656255 4281677618
-0.080162726 0.22280645 0.86453754 4282269498
-0.078408755 0.22232737 0.86251265 4281414189
-0.076700792 0.22233045 0.86249739 4280624673
-0.074975446 0.22209243 0.86147732 4280756259
-0.073253855 0.2218544 0.8604573 4280690465
-0.071549639 0.22185749 0.8604421 4280756258
-0.069833666 0.22161946 0.85942215 4280887844
-0.068131328 0.22162253 0.85940695 4281151016
-0.06642098 0.22138448 0.85838705 4281414188
-0.064726643 0.22162867 0.85937649 4281808946
-0.063024297 0.22163174 0.85936129 4282203704
-0.061324336 0.22187592 0.86035073 4282532669
-0.059620116 0.22187901 0.86033553 4282861634
-0.057914529 0.22212321 0.86132491 4282993220
-0.056208435 0.22212628 0.86130965 4283322185
-0.054492101 0.22261164 0.8633036 4283453771
-0.052775264 0.22285585 0.86429286 4283717199
-0.051045805 0.22334123 0.8662867 4283849042
-0.049319591 0.22358546 0.86727589 4283914579
-0.047564391 0.22431201 0.87027413 4283848787
-0.045783442 0.22527972 0.8742767 4283782738
-0.043971125 0.22648862 0.87928367 4283519312
-0.042176552 0.22721523 0.88228148 4283321934
-0.040310368 0.22866535 0.88829261 4284966506
nan nan nan 4291348429
nan nan nan 4292730082
nan nan nan 4292598496
nan nan nan 4293059047
nan nan nan 4292927461
-0.029174086 0.23326683 0.90728104 4291216843
-0.027348507 0.23351125 0.90826935 4289243053
-0.025519179 0.23375568 0.90925765 4286677126
nan nan nan 4284703336
nan nan nan 4282729546
nan nan nan 4281808443
nan nan nan 4281742650
nan nan nan 4281676857
nan nan nan 4281940027
nan nan nan 4282071614
nan nan nan 4285821816
0.0012955937 0.2333218 0.90700883 4293059047
0.0030228118 0.23308378 0.90598875 4293190633
0.0046792901 0.23260452 0.9039647 4292993767
0.0065348651 0.23284899 0.90495276 4292796645
0.0083234496 0.23285222 0.90493679 4292665316
0.010112034 0.23285544 0.90492082 4292731109
0.011826129 0.23261741 0.90390086 4292796902
0.013612838 0.23262064 0.90388489 4292796902
0.015321308 0.2323826 0.90286499 4292665829
0.017186256 0.23262708 0.903853 4292599779
0.019136945 0.23311286 0.90584481 4292665316
0.020927405 0.23311608 0.90582877 4292665316
0.022803603 0.23336059 0.90681666 4292730595
0.024595937 0.23336382 0.90680063 4292730595
0.026298782 0.23312578 0.90578079 4292796388
0.028089242 0.23312899 0.90576482 4292796132
0.0298797 0.23313223 0.90574884 4292993767
0.031765271 0.23337676 0.90673661 4293191146
0.033654593 0.23362128 0.90772438 4292927717
0.035349939 0.23338322 0.9067046 4292335836
0.036940798 0.23290384 0.90468109 4290625218
0.038524158 0.23242444 0.90265769 4287796119
0.040204506 0.23218635 0.90163809 4284967532
0.042093828 0.23243089 0.9026258 4288848805
0.044203375 0.23315807 0.90562087 4292928485
0.046324167 0.23388527 0.90861577 4293586671
0.048120253 0.23388851 0.90859973 4293257708
0.049916334 0.23389176 0.9085837 4292665828
0.051596683 0.23365365 0.90756404 4292534242
0.053273283 0.23341556 0.90654445 4292600036
0.054946128 0.23317744 0.90552485 4292534243
0.056736588 0.23318067 0.90550888 4292402657
0.058403812 0.23294255 0.90448934 4292139485
0.060192399 0.23294578 0.90447336 4292007898
0.061853997 0.23270765 0.90345389 4292205277
0.063640706 0.23271087 0.90343797 4292007898
0.06529668 0.23247273 0.90241849 4290955464
0.066948906 0.2322346 0.90139914 4287863194
0.068731867 0.2322378 0.90138322 4284178785
0.070514828 0.23224102 0.90136725 4285033840
0.07257425 0.23272699 0.90335816 4291613140
0.074501075 0.23297159 0.90434557 4292468450
0.076431639 0.2332162 0.90533292 4292336864
0.078222096 0.23321943 0.90531695 4292402657
0.080158293 0.23346405 0.90630424 4292402144
0.081950627 0.23346728 0.90628827 4292402143
0.083742961 0.23347051 0.90627223 4292598495
0.085535295 0.23347375 0.9062562 4292860897
0.087327629 0.23347698 0.90624022 4293057760
0.08927507 0.23372161 0.90722746 4293189083
0.091226265 0.23396626 0.90821463 4293188818
0.0931812 0.23421091 0.9092018 4292004283
0.09497916 0.23421416 0.90918571 4290687900
0.096777119 0.23421741 0.90916967 4291016610
0.098410599 0.23397923 0.90815043 4291082403
0.10004032 0.23374103 0.90713125 4291082659
0.1016663 0.23350285 0.90611213 4291148196
0.10311842 0.23302321 0.90408987 4291213734
0.10473502 0.232785 0.90307081 4291082149
0.10600017 0.2320639 0.90004563 4290687648
0.10778125 0.23206712 0.90002972 4289240203
0.10973994 0.23231179 0.90101683 4288056700
0.11170238 0.23255645 0.90200394 4287924858
nan nan nan 4287793530
nan nan nan 4287793276
nan nan nan 4287071348
-0.24365698 0.22738226 0.87909019 4287269238
-0.24192089 0.22738539 0.87907469 4287005288
-0.24038029 0.22763117 0.88006562 4287465069
-0.23902956 0.22811961 0.88206285 4287466612
-0.23767132 0.22860806 0.88406008 4287466104
-0.23592585 0.22861122 0.88404447 4287728512
-0.23455636 0.22909968 0.88604152 4287791475
-0.23299326 0.2293455 0.88703227 4287725421
-0.23142642 0.22959132 0.8880229 4287659884
-0.22967346 0.22959448 0.88800722 4287792502
-0.22810099 0.22984032 0.88899785 4287860097
-0.22652476 0.23008618 0.88998842 4288056964
-0.22476804 0.23008934 0.88997275 4289109653
-0.22318619 0.23033519 0.89096326 4289964965
-0.22177359 0.23082374 0.89296001 4290491314
-0.22018237 0.23106961 0.89395046 4291083197
-0.21807967 0.23058741 0.8919223 4290886843
-0.21598448 0.23010518 0.88989431 4280689446
-0.2138968 0.22962295 0.88786632 4280096793
-0.21263468 0.23035422 0.89086902 4290096815
-0.21136132 0.23108552 0.89387161 4290492340
-0.20943724 0.23084599 0.8928498 4290097841
-0.20735891 0.23036374 0.89082187 4290559167
-0.20513198 0.22963876 0.887788 4290888391
-0.20307054 0.22915648 0.88576025 4291020491
-0.20132132 0.22915962 0.88574463 4291152590
-0.19942161 0.22892006 0.88472301 4291349969
-0.1978229 0.22916594 0.8857134 4291481555
-0.19607368 0.2291691 0.88569772 4291415762
-0.19432446 0.22917224 0.88568211 4291481554
-0.19271825 0.22941814 0.88667244 4291415761
-0.19110827 0.22966406 0.88766271 4291481555
-0.18921606 0.22942446 0.88664114 4291547091
-0.18760236 0.22967038 0.88763142 4291415506
-0.18584938 0.22967353 0.88761574 4291415249
-0.18409643 0.22967671 0.88760006 4291415249
-0.18247521 0.22992262 0.88859022 4291480528
-0.18072037 0.2299258 0.88857454 4291480528
-0.17909352 0.23017173 0.88956469 4291546321
-0.17746294 0.23041767 0.89055479 4291546321
-0.1755801 0.23017806 0.88953328 4291678676
-0.17394575 0.23042402 0.89052337 4291678676
-0.17218716 0.23042719 0.89050764 4291415504
-0.1705472 0.23067315 0.89149767 4291415504
-0.16878675 0.23067632 0.89148194 4286415234
-0.16679654 0.23019391 0.88945484 4285888890
-0.16492683 0.22995429 0.88843346 4292139223
-0.16306087 0.22971465 0.88741213 4292205016
-0.16119866 0.22947501 0.88639081 4291678930
-0.1593402 0.22923535 0.88536954 4291350222
-0.15759099 0.22923851 0.88535392 4290823624
-0.15584178 0.22924167 0.88533831 4290955210
-0.15429606 0.22973046 0.88733381 4290823624
-0.1525431 0.22973362 0.88731819 4290757831
-0.15079014 0.22973678 0.88730252 4290757831
-0.14903717 0.22973993 0.88728684 4290757831
-0.14718996 0.22950028 0.8862657 4290626245
-0.14543888 0.22950344 0.88625002 4290626246
-0.14377828 0.22974943 0.88723987 4290560452
-0.14202532 0.22975259 0.8872242 4290560453
-0.14027236 0.22975574 0.88720852 4290428867
-0.13860427 0.23000176 0.88819832 4290297281
-0.13676643 0.22976208 0.88717723 4290297281
-0.13501348 0.22976524 0.88716155 4290363073
-0.1332605 0.2297684 0.88714588 4290297280
-0.13158491 0.23001443 0.88813561 4290231487
-0.12983008 0.23001759 0.88811994 4290231487
-0.12807524 0.23002075 0.88810426 4290231487
-0.12632041 0.23002392 0.88808852 4290494913
-0.12463544 0.23026995 0.88907814 4288323744
-0.12287873 0.23027313 0.88906246 4282533958
-0.12112202 0.2302763 0.88904679 4280691754
-0.11930106 0.23003659 0.88802582 4280823340
-0.11742146 0.22955397 0.88599974 4281086511
-0.11560988 0.22931424 0.88497889 4281086512
-0.11386067 0.2293174 0.88496327 4281086512
-0.11211145 0.22932054 0.8849476 4280889133
-0.11036224 0.2293237 0.88493198 4280560168
-0.10861303 0.22932686 0.88491637 4280428582
-0.10686381 0.22933002 0.88490075 4280362788
-0.10516385 0.22957608 0.88589019 4281414963
-0.10341276 0.22957924 0.88587457 4282468164
-0.10170718 0.22982532 0.88686401 4283981403
-0.099954218 0.22982848 0.88684833 4285165676
-0.098201253 0.22983164 0.88683265 4286152825
-0.09648817 0.23007773 0.88782203 4286810755
-0.094733328 0.2300809 0.88780636 4287205513
-0.092978492 0.23008406 0.88779068 4286678656
-0.091223657 0.23008722 0.887775 4281941560
-0.089306928 0.22887568 0.88273454 4282336318
-0.087378442 0.22742115 0.87668937 4281415216
-0.085529715 0.22645248 0.8726542 4280493344
-0.083749488 0.2259697 0.87062895 4280361758
-0.081951886 0.22524394 0.86759889 4280361758
-0.080211543 0.22500408 0.8665787 4280558880
-0.078432687 0.22427829 0.86354882 4280493087
-0.076722845 0.22428137 0.86353356 4280361501
-0.074995622 0.22404148 0.86251348 4280624673
-0.073272154 0.2238016 0.86149341 4280624672
-0.071552433 0.22356169 0.86047339 4280690465
-0.069848217 0.22356477 0.86045814 4281019430
-0.068134114 0.22332485 0.85943818 4281085223
-0.066431776 0.22332793 0.85942298 4281414188
-0.06472943 0.223331 0.85940772 4281743153
-0.063027091 0.22333407 0.85939252 4282072118
-0.061324749 0.22333714 0.85937732 4282401083
-0.05962291 0.22358321 0.86036676 4282861634
-0.057917327 0.22382928 0.8613562 4282993220
-0.056207988 0.22407538 0.86234558 4283256392
-0.054494906 0.22432147 0.86333495 4283388491
-0.052778069 0.22456756 0.86432427 4283914835
-0.051048618 0.22505668 0.86631817 4283980628
-0.049322408 0.2253028 0.86730742 4283980372
-0.047567215 0.22603497 0.87030572 4283848530
-0.04578628 0.22701018 0.87430847 4283914068
-0.043957613 0.22847149 0.88032007 4283716690
-0.042179413 0.22896069 0.88231355 4283453519
-0.040333368 0.23017903 0.88732034 4282400835
-0.038556539 0.23042522 0.88830912 4289703859
-0.036799826 0.2304284 0.88829345 4291480528
-0.035017371 0.23067461 0.88928217 4289375152
nan nan nan 4287730327
nan nan nan 4285493365
nan nan nan 4283585112
nan nan nan 4281808444
nan nan nan 4281742651
nan nan nan 4282466373
nan nan nan 4282335042
nan nan nan 4282203455
nan nan nan 4282203455
-0.014252 0.22901106 0.88206404 4282203710
-0.012556651 0.22877112 0.88104421 4282203966
-0.010761073 0.22901736 0.88203281 4282203966
-0.0089617455 0.2292636 0.88302141 4282269759
nan nan nan 4282269246
-0.0053518424 0.22975612 0.8849985 4282532419
nan nan nan 4291348429
nan nan nan 4293125353
nan nan nan 4293125353
nan nan nan 4292796902
nan nan nan 4292796902
nan nan nan 4292796902
nan nan nan 4292862695
0.016702659 0.2329549 0.89786208 4292731109
0.018724078 0.23368756 0.90085799 4292730852
0.020589024 0.23393393 0.90184599 4292927718
0.022457721 0.2341803 0.90283394 4293059047
0.024330165 0.23442668 0.90382189 4293453805
0.026027389 0.23418674 0.90280205 4293585391
0.027720863 0.23394679 0.90178227 4293124839
0.029410589 0.23370683 0.9007625 4292532190
0.031286784 0.23395322 0.90175045 4291018951
0.033069745 0.23395644 0.90173447 4288255900
0.034753844 0.23371647 0.90071476 4284703335
nan nan nan 4282795337
0.045880787 0.23470855 0.904634 4288585633
0.047557391 0.23446856 0.9036144 4292335836
0.049457956 0.234715 0.90460205 4293519853
0.051246542 0.23471822 0.90458608 4292927974
0.052917518 0.23447824 0.90356648 4292467937
0.054584745 0.23423825 0.90254694 4292599523
0.056248222 0.23399824 0.9015274 4292599523
0.05790795 0.23375824 0.90050793 4292402657
0.059563927 0.23351823 0.89948845 4292468450
0.061216157 0.2332782 0.89846903 4292402656
0.062993489 0.2332814 0.89845318 4292468449
0.064770825 0.23328462 0.89843726 4292205277
0.066548161 0.23328783 0.89842141 4292600035
0.068325497 0.23329103 0.89840555 4292007898
0.070102833 0.23329423 0.89838964 4290034108
0.0720184 0.23354068 0.89937723 4292271071
0.073937714 0.23378715 0.9003647 4292402657
0.075860783 0.23403363 0.90135217 4292534243
0.0777876 0.23428009 0.90233964 4292468450
0.079718165 0.23452657 0.90332705 4292599523
0.081652477 0.23477307 0.90431446 4292599523
0.083441064 0.2347763 0.90429848 4292861668
0.085078292 0.23453625 0.90327919 4292927203
0.086711772 0.2342962 0.90225989 4293255396
0.088651709 0.2345427 0.90324724 4293452775
0.090752378 0.23503248 0.90523779 4293847274
0.092701688 0.23527901 0.90622503 4293847013
0.094654754 0.23552553 0.90721226 4293780958
0.096286356 0.23528548 0.90619302 4292004288
0.097585261 0.23455881 0.90316743 4291017645
0.099205613 0.23431873 0.90214831 4290886057
0.10065399 0.23383534 0.90012604 4291149227
0.10209487 0.23335195 0.89810383 4291214248
0.10370023 0.23311184 0.89708483 4291082918
0.10547569 0.23311503 0.89706898 4291345321
0.10742688 0.23336156 0.89805621 4291213735
0.10938182 0.23360808 0.89904338 4290753184
0.1113405 0.23385462 0.90003055 4289569424
0.11312159 0.23385784 0.90001464 4288582273
nan nan nan 4288253309
nan nan nan 4287792490
nan nan nan 4287859054
-0.24479257 0.22838168 0.87611812 4288187763
-0.24286287 0.22814028 0.87509614 4288385404
-0.24133164 0.22838791 0.87608719 4289109907
-0.23999216 0.22888008 0.8780846 4289900197
-0.23883879 0.22961679 0.88108838 4290688943
-0.2372907 0.22986446 0.88207924 4291083701
-0.23592871 0.23035666 0.88407648 4291346874
-0.23474723 0.23109342 0.88708001 4290820789
-0.23318225 0.23134112 0.88807076 4288715416
-0.23124506 0.23109974 0.88704872 4286149236
-0.22967634 0.23134744 0.88803941 4283649107
-0.22792336 0.2313506 0.88802373 4281544243
-0.22617041 0.23135377 0.88800812 4280623140
-0.22477093 0.23184605 0.89000499 4279768600
-0.22283934 0.23160465 0.88898301 4279505427
-0.22160348 0.23234151 0.89198607 4280360990
-0.21984303 0.23234469 0.89197034 4280163357
-0.21706711 0.23088044 0.88591737 4280163870
nan nan nan 4280558628
nan nan nan 4280953130
nan nan nan 4280952875
-0.21039374 0.23138222 0.88786715 4281084461
-0.20848091 0.23114081 0.88684535 4280952362
nan nan nan 4284965994
nan nan nan 4292137688
nan nan nan 4292138201
nan nan nan 4291809493
-0.198672 0.22944437 0.87972486 4291678421
-0.19708265 0.2296921 0.88071531 4291678678
-0.19548957 0.22993986 0.88170582 4291678677
-0.19389272 0.23018761 0.88269621 4291612628
-0.19229212 0.23043537 0.8836866 4291612628
-0.19068779 0.23068315 0.88467699 4291678164
-0.18894045 0.23068629 0.88466138 4291743700
-0.18733048 0.23093408 0.88565171 4291612114
-0.18558127 0.23093723 0.88563609 4292006872
-0.18396568 0.23118502 0.8866263 4291875286
-0.18247809 0.23167746 0.88862246 4292138201
-0.18072325 0.23168062 0.88860679 4292137945
-0.1790964 0.23192844 0.88959694 4291085256
-0.17733969 0.2319316 0.8895812 4290098361
-0.17533448 0.23144546 0.88755393 4288059291
-0.17358153 0.23144862 0.88753825 4283453779
-0.17170806 0.23120713 0.88651681 4281019438
-0.16995697 0.23121029 0.88650119 4281019438
-0.16808914 0.23096879 0.88547981 4280953645
-0.16622505 0.23072727 0.88445842 4281150767
-0.16447771 0.23073043 0.88444281 4286085242
-0.16273038 0.23073357 0.88442725 4291414475
-0.16087379 0.23049204 0.88340592 4291348684
-0.15902095 0.23025051 0.88238472 4291217355
-0.15717186 0.23000897 0.88136345 4291283148
-0.15532653 0.22976743 0.8803423 4291152332
-0.15368843 0.23001526 0.88133234 4290889417
-0.15204659 0.2302631 0.88232237 4290955211
-0.15030301 0.23026624 0.88230681 4290889418
-0.14855942 0.23026939 0.8822912 4290757834
-0.14672159 0.23002782 0.88127011 4290692041
-0.14497986 0.23003097 0.88125455 4290692039
-0.14323816 0.23003411 0.881239 4290692039
-0.14149643 0.23003726 0.88122344 4290692039
-0.13984148 0.23028511 0.88221335 4290757832
-0.13818276 0.23053297 0.88320321 4290692039
-0.1364373 0.23053613 0.88318759 4290560453
-0.13469183 0.23053928 0.88317204 4290626246
-0.13294637 0.23054242 0.88315642 4290560195
-0.13127829 0.2307903 0.88414621 4290363073
-0.12960646 0.2310382 0.88513601 4290231487
-0.12785724 0.23104136 0.88512033 4290165694
-0.12617978 0.23128925 0.88611007 4290231741
-0.12442869 0.23129241 0.88609445 4290231741
-0.1226776 0.23129557 0.88607877 4290297534
-0.12092651 0.23129873 0.88606316 4288192157
-0.11904692 0.23081237 0.88403696 4282073152
-0.11717483 0.230326 0.88201082 4280559657
-0.11531023 0.22983961 0.8799848 4280559655
-0.11362902 0.23008752 0.88097447 4280757034
-0.11194406 0.23033543 0.88196409 4281480758
-0.11025535 0.23058335 0.8829537 4283520855
-0.10850988 0.2305865 0.88293809 4285560437
-0.10671329 0.23034486 0.88191736 4287534227
-0.10501896 0.2305928 0.88290691 4288192158
-0.1032735 0.23059595 0.88289136 4288652709
-0.10152803 0.23059909 0.88287574 4288389536
-0.099782571 0.23060225 0.88286012 4287402639
-0.098037109 0.23060539 0.88284457 4287139465
-0.096291639 0.23060854 0.88282895 4286876550
-0.094546176 0.2306117 0.88281333 4286613119
-0.092764586 0.23037003 0.88179272 4286086519
-0.091020994 0.23037317 0.88177717 4280888359
-0.089180261 0.22964187 0.87874663 4281152044
-0.087350778 0.22891054 0.87571621 4281744181
-0.085532546 0.22817919 0.87268585 4282072376
-0.083752319 0.22769265 0.87066054 4282730306
-0.082004465 0.22745094 0.86964023 4282795842
-0.080237366 0.22696437 0.8676151 4282795842
-0.078477755 0.22647779 0.86558998 4281151017
-0.076744907 0.22623605 0.86456978 4280361500
-0.075015806 0.22599429 0.86354965 4280493086
-0.07329046 0.22575252 0.86252952 4280493086
-0.071555227 0.22526591 0.86050463 4280493086
-0.069851011 0.22526897 0.86048943 4280887844
-0.068136908 0.22502719 0.85946941 4280887844
-0.066442572 0.22527513 0.86045897 4281282602
-0.064738356 0.2252782 0.86044371 4281677360
-0.063029885 0.2250364 0.85942376 4282006325
-0.061327539 0.22503947 0.85940856 4282466876
-0.059625197 0.22504255 0.85939336 4282861634
-0.057920124 0.22553538 0.86138749 4283059013
-0.056214031 0.22553845 0.86137229 4283322441
-0.054502822 0.22578642 0.86236167 4283388491
-0.052787866 0.22603437 0.86335105 4283980628
-0.051060297 0.22652724 0.865345 4283980628
-0.049325224 0.22702013 0.8673389 4284046422
-0.047570042 0.22775792 0.87033731 4283980373
-0.045803607 0.22849573 0.8733356 4284177495
-0.044025924 0.22923356 0.87633383 4284111447
-0.042255234 0.22972651 0.87832743 4283716691
-0.040456928 0.23046438 0.88132542 4283519314
-0.038691349 0.23071244 0.88231438 4283059021
-0.036945887 0.23071559 0.88229877 4290691010
-0.035174686 0.23096366 0.88328761 4285756537
-0.033427346 0.23096681 0.88327205 4282006336
-0.031621031 0.23145983 0.88526529 4280953648
-0.029807219 0.23195285 0.88725847 4281348663
-0.028085619 0.23171107 0.8862384 4282072129
-0.026367769 0.2314693 0.88521832 4282203459
-0.024653668 0.23122752 0.88419831 4282269251
-0.022904456 0.23123066 0.88418269 4282203201
-0.021155242 0.23123382 0.88416708 4282335043
-0.019320805 0.23172688 0.88616008 4282269505
-0.017567843 0.23173004 0.8861444 4282269504
-0.015861241 0.23148824 0.8851245 4282072637
-0.014254862 0.23075652 0.88209605 4282072893
-0.01255951 0.23051471 0.88107622 4282007355
-0.010815921 0.23051785 0.8810606 4281941562
-0.0090723326 0.23052099 0.88104504 4282073148
-0.007328744 0.23052414 0.88102949 4282138685
-0.0056427657 0.23028231 0.88000971 4282203966
-0.0038415669 0.23053043 0.88099831 4282269502
-0.0020979785 0.23053357 0.88098276 4282335042
-0.0002279202 0.23102669 0.8829754 4282466373
0.0016496372 0.23151983 0.88496804 4282071615
nan nan nan 4281940030
nan nan nan 4284440677
nan nan nan 4290493633
0.0089444248 0.23251249 0.88892168 4292731109
0.010703011 0.23251566 0.88890594 4292862695
0.012537957 0.23276386 0.88989425 4292862695
nan nan nan 4292928488
nan nan nan 4293256939
nan nan nan 4293256939
nan nan nan 4292927461
nan nan nan 4292269531
nan nan nan 4290295740
nan nan nan 4287400848
nan nan nan 4284769384
nan nan nan 4282926667
nan nan nan 4282400322
nan nan nan 4282202944
nan nan nan 4282202943
nan nan nan 4282795592
0.036158364 0.23035771 0.87963623 4282861384
nan nan nan 4282927433
nan nan nan 4283058762
nan nan nan 4283059019
nan nan nan 4282597702
nan nan nan 4286677125
0.050664958 0.23528138 0.89960057 4291743187
0.052444171 0.23528458 0.89958471 4293125353
0.053984422 0.23479761 0.89756155 4292927974
0.055638526 0.23455572 0.89654207 4292796388
0.057288881 0.23431383 0.89552259 4292665059
0.059060596 0.23431702 0.8955068 4292599523
0.060705326 0.23407511 0.89448738 4292665572
0.062346309 0.23383319 0.89346802 4292534242
0.064114273 0.23383638 0.89345223 4292534242
0.066014834 0.2340847 0.89443994 4292468449
0.067784674 0.23408788 0.89442414 4292402656
0.069690861 0.2343362 0.89541185 4292402400
0.071600802 0.23458451 0.89639944 4292402657
0.073514484 0.23483284 0.89738703 4292599779
0.075431928 0.23508118 0.89837462 4292862438
0.077353112 0.23532952 0.89936215 4292731109
0.079423778 0.23582301 0.90135306 4292927717
0.081354342 0.23607136 0.90234047 4293059304
0.083139174 0.23607458 0.90232456 4293256938
0.084772661 0.23583266 0.90130526 4292861669
0.086095937 0.23510042 0.89827937 4292005845
0.087873273 0.23510362 0.89826345 4290756288
0.089964561 0.23559715 0.90025419 4288321178
0.091904499 0.23584552 0.90124154 4287005315
0.094008908 0.23633906 0.90323216 4290492083
0.095633015 0.23609711 0.90221292 4292860886
0.097088903 0.23560999 0.90019053 4293124053
0.098703638 0.23536803 0.89917141 4292268230
0.099978171 0.23463571 0.89614594 4291478967
nan nan nan 4290952365
0.10318139 0.23415174 0.89410794 4290952105
0.10495123 0.23415492 0.89409208 4291017126
0.10689679 0.23440331 0.89507943 4291082149
0.1086685 0.2344065 0.89506358 4291279014
0.11061969 0.2346549 0.89605087 4291213477
0.11239327 0.23465809 0.89603502 4290950305
0.11435008 0.23490651 0.89702225 4290423962
nan nan nan 4289239947
nan nan nan 4288384894
nan nan nan 4287858552
nan nan nan 4287726967
nan nan nan 4288056175
nan nan nan 4288516475
nan nan nan 4290358429
nan nan nan 4290358429
-0.24338758 0.22838742 0.86910415 4290754218
-0.24167024 0.22839051 0.86908883 4291215807
-0.24015026 0.22864 0.87007993 4291412930
-0.23823555 0.22839671 0.86905813 4291281599
-0.23787355 0.23012461 0.87608802 4290426294
-0.23633483 0.23037414 0.87707901 4287661710
-0.23536196 0.23136289 0.88108921 4284832355
-0.23437411 0.23235168 0.88509929 4280097819
-0.2328129 0.23260124 0.8860901 4279505681
-0.23051094 0.23186515 0.88305533 4279373841
-0.22876735 0.2318683 0.88303977 4280032028
nan nan nan 4280888106
nan nan nan 4280426533
nan nan nan 4284374371
nan nan nan 4291677650
nan nan nan 4292072922
nan nan nan 4291744214
nan nan nan 4291810007
-0.19475868 0.23044914 0.87670755 4291678421
-0.19302633 0.23045225 0.87669206 4291810007
-0.19158 0.23094837 0.87868863 4292138715
-0.19012615 0.23144449 0.88068509 4292401630
-0.18866481 0.23194063 0.88268149 4292269788
-0.18719597 0.23243678 0.88467783 4291611858
-0.18571964 0.23293294 0.88667411 4290361790
-0.1842358 0.23342912 0.88867033 4288717222
-0.18261272 0.2336788 0.88966054 4285624437
-0.180856 0.23368196 0.88964486 4283848026
-0.17897129 0.23343861 0.8886233 4281479477
nan nan nan 4281282610
nan nan nan 4281479989
-0.16715799 0.23074567 0.87746567 4281545525
-0.16530891 0.23050226 0.87644446 4281545525
-0.16380256 0.23099847 0.87844044 4281611061
-0.16239986 0.23174125 0.88144213 4282005563
-0.16065815 0.23174439 0.88142657 4290558655
-0.15880905 0.23150098 0.88040531 4292006101
-0.15675271 0.23076443 0.87737274 4291611343
-0.15491487 0.23052101 0.87635159 4291349198
-0.15328428 0.23077069 0.87734175 4291349456
-0.15155007 0.23077382 0.87732625 4291217870
-0.14981584 0.23077695 0.87731075 4291152590
-0.14808163 0.23078008 0.87729526 4291086797
-0.14625317 0.23053662 0.87627417 4291086797
-0.14452083 0.23053975 0.87625873 4291152590
-0.14278848 0.23054288 0.87624323 4291021004
-0.14114478 0.2307926 0.87723327 4291021004
-0.13958406 0.23128891 0.87922883 4290955211
-0.13784611 0.23129204 0.87921327 4290888905
-0.13610815 0.23129518 0.87919778 4290757319
-0.13437018 0.23129831 0.87918222 4290757319
-0.13271147 0.23154806 0.88017213 4290888391
-0.13104901 0.2317978 0.88116199 4290756804
-0.1293828 0.23204756 0.88215184 4290625218
-0.12771285 0.23229732 0.8831417 4290625218
-0.12596738 0.23230048 0.88312608 4290362816
-0.1242918 0.23255025 0.88411582 4290889158
-0.12247646 0.23230676 0.88309491 4291086537
-0.12059873 0.23181665 0.88106865 4291349709
-0.1187285 0.23132654 0.87904251 4289507505
-0.11686578 0.23083639 0.87701637 4284046686
-0.11507105 0.23059288 0.87599564 4287599508
-0.11345598 0.23108929 0.87799066 4289836470
-0.1118334 0.23158571 0.87998563 4289902263
-0.11014844 0.2318355 0.88097531 4290297534
-0.10835373 0.231592 0.87995452 4290231486
-0.10661389 0.23159513 0.87993896 4289968315
-0.10487404 0.23159827 0.87992346 4289639349
-0.10308683 0.23135474 0.87890273 4289508018
-0.10134886 0.23135787 0.87888724 4289047467
-0.099610895 0.23136102 0.87887168 4288455330
-0.097872935 0.23136415 0.87885618 4287731606
-0.096095085 0.2311206 0.87783551 4287139467
-0.094358996 0.23112373 0.87782001 4286678916
-0.092622906 0.23112687 0.87780452 4285494384
-0.090886816 0.23113 0.87778902 4281415217
-0.089085959 0.23063974 0.87576348 4280691494
-0.087292604 0.23014948 0.87373799 4280559908
-0.085506745 0.2296592 0.87171257 4280822309
-0.083755143 0.22941561 0.87069219 4282072376
-0.082007289 0.22917201 0.86967182 4282861634
-0.080240183 0.2286817 0.86764657 4282861634
-0.078480564 0.22819138 0.86562139 4281479982
-0.076766975 0.22819446 0.86560607 4280295707
-0.075035997 0.22795084 0.86458588 4280427293
-0.073293261 0.22746047 0.86256087 4280493086
-0.071571656 0.22721684 0.86154073 4280624672
-0.069853805 0.22697319 0.86052066 4280756258
-0.068159476 0.22722299 0.86151028 4280887844
