# .PCD v0.7 - Point Cloud Data file format
VERSION 0.7
FIELDS x y z rgba
SIZE 4 4 4 4
TYPE F F F U
COUNT 1 1 1 1
WIDTH 1097
HEIGHT 1
VIEWPOINT 0 0 0 1 0 0 0
POINTS 1097
DATA ascii
-0.17329766 0.23709053 0.7946198 4281152558
-0.1714517 0.23653662 0.79259264 4281152558
-0.16987684 0.23653945 0.79257858 4281152303
-0.16856185 0.23709908 0.79457748 4281152304
-0.1673674 0.23793709 0.79758275 4281217843
-0.16603553 0.23849675 0.79958147 4281349173
-0.16444755 0.23849961 0.79956728 4281678139
-0.16285957 0.23850247 0.7995531 4292073177
-0.16139215 0.23878375 0.80054528 4292270043
-0.15992098 0.23906502 0.80153745 4292204251
-0.15844604 0.2393463 0.80252963 4292138715
-0.15685245 0.23934917 0.80251539 4292138972
-0.1553719 0.23963046 0.80350745 4292204508
-0.15377642 0.23963335 0.8034932 4292138972
-0.15229025 0.23991466 0.80448526 4292138715
-0.15058547 0.2396391 0.80346471 4292138458
-0.14898999 0.23964198 0.80345047 4292138458
-0.14739451 0.23964486 0.80343616 4292138458
-0.14579904 0.23964773 0.80342191 4292072665
-0.14430349 0.23992905 0.80441391 4292204251
-0.14270614 0.23993194 0.80439961 4292270044
-0.14120497 0.24021326 0.80539155 4292204251
-0.13970004 0.24049461 0.80638337 4292138458
-0.1382838 0.2410544 0.80838138 4292270044
-0.1367695 0.24133575 0.80937314 4292203738
-0.13516279 0.24133866 0.80935878 4292138202
-0.13355605 0.24134155 0.80934447 4292335837
-0.1318644 0.24106598 0.80832404 4292664802
-0.13025954 0.24106887 0.80830967 4293125868
-0.12849233 0.24051481 0.80628324 4289902010
-0.12681192 0.24023923 0.80526292 4279440923
-0.12513526 0.23996364 0.80424261 4280165158
-0.12346236 0.23968802 0.80322236 4280099364
-0.12186687 0.2396909 0.80320811 4280165413
-0.12019959 0.23941529 0.80218792 4280494892
-0.11860599 0.23941816 0.80217367 4280758320
-0.11694433 0.23914254 0.80115354 4281349943
-0.1153526 0.23914541 0.8011393 4281547835
-0.11376087 0.23914829 0.80112505 4281811264
-0.11216915 0.23915115 0.80111086 4282469194
-0.11057742 0.23915403 0.80109662 4282732366
-0.108927 0.23887838 0.80007654 4282798159
-0.10739397 0.23915976 0.80106819 4283850336
-0.10585717 0.23944116 0.80205977 4284310887
-0.10431663 0.23972256 0.80305135 4286087298
-0.10282352 0.24028251 0.80504864 4286876814
-0.1012243 0.24028538 0.80503434 4287666330
-0.099625066 0.24028827 0.80502003 4288061089
-0.098071396 0.2405697 0.8060115 4288784812
-0.096470296 0.24057259 0.80599719 4289376179
-0.094911009 0.24085401 0.80698854 4290099902
-0.093347967 0.24113546 0.80797994 4290297281
-0.091819234 0.24169546 0.80997688 4290363074
-0.090319194 0.24253403 0.8129794 4285098607
-0.088807903 0.24337262 0.81598186 4284900715
-0.087350234 0.24476837 0.82099545 4283979100
-0.085782133 0.24532844 0.82299203 4283386963
-0.084149159 0.24533139 0.82297748 4282860105
-0.082516186 0.24533433 0.82296288 4281675831
-0.080883212 0.24533728 0.82294828 4281149487
-0.079273306 0.24561881 0.8239392 4280688936
-0.077659644 0.24590033 0.82493013 4280557350
-0.076022923 0.24590328 0.82491547 4280425764
-0.074403636 0.24618483 0.82590634 4280359970
-0.072765037 0.24618779 0.82589167 4280293664
-0.071140125 0.24646933 0.82688248 4280162079
-0.069499649 0.2464723 0.82686782 4280095772
-0.067879058 0.24703246 0.82886398 4280293665
-0.066250965 0.24759264 0.83086008 4280162335
-0.064602993 0.24759562 0.83084536 4280293665
-0.062955014 0.24759859 0.83083063 4280491043
-0.061307047 0.24760157 0.83081591 4281281072
-0.059658509 0.24732591 0.8297959 4281477682
-0.058013722 0.24705026 0.82877588 4281543218
-0.056372683 0.2467746 0.82775587 4280360740
-0.054755636 0.24538441 0.82271487 4289966519
-0.053157333 0.24399418 0.81767398 4293519341
-0.051542543 0.24371846 0.81665426 4292599266
-0.049931504 0.24344274 0.81563455 4292599523
-0.048299093 0.24372432 0.8166253 4292731366
-0.04667737 0.24372724 0.81661081 4292862696
-0.045071952 0.24345152 0.81559116 4292797415
-0.043452103 0.24345444 0.81557667 4292797414
-0.04185231 0.2431787 0.81455708 4292862950
-0.040256269 0.24290296 0.81353748 4292862950
-0.038640168 0.24290587 0.81352305 4292731364
-0.037049752 0.24263012 0.81250352 4292862950
-0.035435528 0.24263303 0.81248909 4292863208
-0.033850733 0.24235727 0.81146961 4292797416
-0.032238383 0.24236017 0.81145519 4292731622
-0.030626031 0.24236308 0.81144083 4292797415
-0.028978623 0.24264468 0.8124314 4292731622
-0.027364397 0.24264759 0.81241697 4292731621
-0.025750173 0.24265051 0.81240255 4292731621
-0.024176629 0.24237472 0.81138319 4292797414
-0.022564277 0.24237762 0.81136876 4292797414
-0.020996358 0.24210183 0.81034946 4292862950
-0.019385882 0.24210474 0.8103351 4293191658
-0.017775407 0.24210764 0.81032068 4291019976
-0.016164931 0.24211055 0.81030631 4281875261
-0.01408708 0.2446219 0.81933558 4282336067
-0.012459731 0.24462484 0.81932104 4282270016
-0.010888061 0.24434905 0.81830168 4282270271
-0.0093201417 0.24407326 0.81728238 4282336320
-0.0076965424 0.24407618 0.81726784 4282402114
-0.0060729426 0.24407911 0.81725335 4282402370
-0.0045125228 0.24380331 0.81623411 4282468163
-0.0028907978 0.24380623 0.81621963 4282731078
-0.0011352147 0.24436663 0.81821454 4282928458
0.00069667166 0.2452058 0.82121414 4283060044
nan nan nan 4282994249
nan nan nan 4283191629
nan nan nan 4283257423
nan nan nan 4283389009
0.015957035 0.24188986 0.80901402 4283651413
0.017744491 0.24245034 0.81100869 4283059533
0.01926554 0.24217446 0.80998975 4293257706
0.020782838 0.24189857 0.80897087 4292731364
0.022391438 0.24190147 0.8089565 4292665316
0.024000041 0.24190438 0.80894214 4292599523
0.025608642 0.24190728 0.80892777 4292796645
0.027317919 0.24218898 0.80991781 4292665571
0.028928393 0.24219188 0.80990344 4292665571
0.03053887 0.24219479 0.80988902 4292599778
0.032149345 0.24219769 0.80987465 4292599778
0.033759821 0.2422006 0.80986029 4292731109
0.035260249 0.24192469 0.80884153 4292731109
0.036868848 0.24192759 0.80882716 4292599779
0.03836365 0.24165167 0.80780852 4292730851
0.04008605 0.24193339 0.80879843 4292730851
0.0418122 0.24221513 0.80978835 4292665315
0.043422677 0.24221803 0.80977392 4292600035
0.045033153 0.24222094 0.80975956 4292665828
0.04664363 0.24222384 0.80974519 4292533727
0.048129056 0.2419479 0.80872661 4292665313
0.049229965 0.2408354 0.80469549 4292665313
0.050831065 0.24083829 0.80468118 4292730592
0.052301493 0.24056232 0.80366272 4292599005
0.053768173 0.24028634 0.80264431 4292533723
0.055365525 0.24028923 0.80263001 4283783253
0.057099175 0.24057096 0.80361986 4282862149
0.05856023 0.24029498 0.80260152 4283586385
0.060157582 0.24029787 0.80258721 4283652435
0.061754934 0.24030074 0.80257297 4283520849
0.063208491 0.24002475 0.80155468 4283651921
0.064949639 0.24030651 0.80254441 4283191370
0.066694535 0.24058828 0.80353415 4283519822
0.068144344 0.24031226 0.80251586 4283388747
0.069741696 0.24031515 0.80250162 4283455566
0.071185872 0.24003914 0.80148339 4283915090
0.072781354 0.24004202 0.80146915 4284375128
0.074376829 0.24004489 0.8014549 4284572762
0.075972304 0.24004777 0.8014406 4284244310
0.077407114 0.23977174 0.80042249 4283718736
0.079000719 0.23977461 0.80040824 4283718736
0.080594316 0.23977748 0.800394 4284967520
0.082354218 0.24005927 0.80138361 4285032544
0.08411786 0.24034108 0.80237317 4285756010
0.086055301 0.24090183 0.80436647 4286217076
0.088000245 0.24146257 0.80635977 4286742908
0.089778893 0.2417444 0.80734915 4286939773
0.091561288 0.24202624 0.80833858 4289242012
0.093169883 0.24202915 0.80832416 4292662224
0.094778486 0.24203205 0.80830979 4292989906
0.096387088 0.24203494 0.80829543 4293384399
0.097812518 0.2417589 0.80727738 4291870635
0.099234201 0.24148284 0.80625939 4291015576
0.10083906 0.24148573 0.80624503 4291211927
0.1024439 0.24148862 0.80623072 4291080341
0.10423943 0.24177049 0.80721998 4291080598
0.10584615 0.24177338 0.80720562 4290949527
0.10725846 0.24149731 0.80618769 4290555285
0.1090596 0.24177918 0.80717689 4290357911
nan nan nan 4290884771
nan nan nan 4288384127
nan nan nan 4288384127
nan nan nan 4290824133
nan nan nan 4282731849
nan nan nan 4279770654
nan nan nan 4279836446
-0.19208544 0.23835474 0.7938112 4279968031
-0.19035253 0.23807737 0.79279035 4280033824
-0.18877769 0.23808022 0.79277629 4279573273
-0.18720283 0.23808306 0.79276222 4279573271
-0.18577853 0.23836613 0.79375488 4281086512
-0.18435048 0.23864919 0.79474747 4281415734
-0.18277188 0.23865205 0.79473335 4280889134
-0.18119326 0.2386549 0.79471922 4280954927
-0.17961466 0.23865774 0.79470515 4281020976
-0.17803606 0.23866059 0.79469103 4280955183
-0.17645745 0.23866343 0.79467696 4281021487
-0.17487885 0.23866628 0.79466283 4281153073
-0.1731647 0.23838888 0.79364216 4280955694
-0.1713206 0.23783121 0.79161501 4280889901
-0.16974762 0.23783405 0.79160094 4280889901
-0.16830458 0.23811714 0.79259342 4280823854
-0.16698582 0.23868051 0.79459232 4281020721
-0.16578577 0.23952417 0.79759765 4279901984
-0.16420154 0.23952703 0.79758346 4281743933
-0.16273974 0.23981017 0.79857576 4292730851
-0.16127419 0.24009331 0.79956806 4292664802
-0.1598049 0.24037646 0.80056024 4292203995
-0.15833186 0.24065961 0.80155247 4292204251
-0.15685506 0.24094278 0.80254459 4292664545
-0.15537451 0.24122594 0.80353671 4292927461
-0.15377904 0.24122882 0.80352247 4292861668
-0.15218356 0.24123169 0.80350822 4292993254
-0.15058808 0.24123457 0.80349398 4292993254
-0.14899261 0.24123745 0.80347973 4292795875
-0.14729345 0.24096002 0.80245918 4292795875
-0.14569984 0.24096289 0.80244493 4292598496
-0.14410624 0.24096577 0.80243069 4292730082
-0.14251263 0.24096864 0.80241644 4292927461
-0.14101522 0.24125184 0.80340844 4292730339
-0.13951406 0.24153504 0.80440038 4292401117
-0.13800913 0.24181825 0.80539227 4292006359
-0.13650046 0.24210148 0.80638415 4291545808
-0.13489936 0.24210437 0.80636984 4290558913
-0.13329826 0.24210724 0.80635554 4290098362
-0.13169716 0.24211013 0.80634123 4289572018
-0.130013 0.24183267 0.80532086 4288914601
-0.1282514 0.24127486 0.80329442 4288849322
-0.1264973 0.24071704 0.80126804 4289507252
-0.12482814 0.24043955 0.80024779 4289770937
-0.12316272 0.24016206 0.79922754 4290034622
-0.12157475 0.24016492 0.79921335 4290298050
-0.11991496 0.23988742 0.79819316 4290627016
-0.11832885 0.23989028 0.79817903 4291153359
-0.11667469 0.23961276 0.7971589 4291680216
-0.11515665 0.239896 0.79815066 4292074718
-0.11363486 0.24017924 0.79914242 4292338146
-0.11210932 0.24046248 0.80013412 4292338146
-0.11051947 0.24046536 0.80011994 4292272353
-0.10892961 0.24046822 0.80010575 4292272353
-0.10733976 0.24047109 0.80009151 4292206048
-0.10574991 0.24047396 0.80007732 4292074462
-0.10421312 0.24075723 0.80106896 4292140255
-0.10267258 0.2410405 0.80206054 4292469220
-0.10107897 0.24104337 0.8020463 4292469220
-0.099532813 0.24132666 0.80303782 4292469220
-0.09789177 0.24104913 0.80201781 4292469220
-0.096298166 0.241052 0.80200356 4292535013
-0.094746381 0.2413353 0.80299509 4291942876
-0.093190841 0.2416186 0.80398655 4292139485
-0.091669619 0.24218234 0.80598366 4292994794
-0.090213276 0.24330695 0.80999202 4285559672
-0.088707618 0.24415116 0.8129946 4281150514
-0.087288029 0.2458367 0.81901401 4280557864
-0.085907072 0.24808317 0.82704449 4281149487
-0.084295288 0.24836658 0.82803547 4281017900
-0.082652941 0.24836954 0.82802075 4280952107
-0.081035532 0.24865295 0.82901168 4280886314
-0.079368249 0.24837546 0.82799143 4281215023
-0.07781066 0.24950026 0.83199888 4281214766
-0.076160818 0.24950324 0.83198416 4281083180
-0.074528411 0.24978667 0.83297491 4281017387
-0.072892256 0.25007012 0.83396566 4281017387
-0.071238659 0.25007311 0.83395088 4281083180
-0.069596879 0.25035655 0.83494157 4281476911
-0.061324403 0.25093248 0.83687836 4282068533
-0.059664614 0.250655 0.83585823 4282332220
-0.058015108 0.24897498 0.82981133 4281608754
-0.05636901 0.24897794 0.82979667 4285688690
-0.054763369 0.24673687 0.82173949 4285688690
-0.053159997 0.24561776 0.81770378 4293519597
-0.051554009 0.24505967 0.81567872 4292730851
-0.04994484 0.24478208 0.814659 4292927460
-0.048326865 0.244785 0.81464458 4292861667
-0.046708889 0.24478792 0.81463009 4292928487
-0.045090914 0.24479084 0.81461567 4292993254
-0.043491121 0.24451321 0.81359601 4292993254
-0.04187502 0.24451613 0.81358159 4293059046
-0.040258918 0.24451905 0.8135671 4292993253
-0.038666625 0.24424143 0.81254756 4293059046
-0.037078079 0.24396379 0.81152803 4292993510
-0.035493281 0.24368615 0.81050849 4292993767
-0.033912238 0.24340852 0.80948901 4292928231
-0.032334939 0.24313086 0.80846959 4292928488
-0.030728213 0.24313375 0.80845523 4292862695
-0.029121486 0.24313666 0.80844086 4292862695
-0.027514761 0.24313955 0.8084265 4292928488
-0.02586923 0.24342301 0.80941719 4292862951
-0.024301307 0.24314535 0.80839783 4292994536
-0.022694582 0.24314825 0.80838346 4292862950
-0.021132283 0.24287057 0.80736417 4292797414
-0.019573735 0.24259289 0.80634487 4292797413
-0.017970759 0.24259578 0.80633056 4293126377
-0.016367782 0.24259867 0.80631626 4284573286
-0.014816733 0.24232097 0.80529702 4282467652
-0.013269434 0.24204326 0.80427784 4282928459
nan nan nan 4283191629
nan nan nan 4283191884
nan nan nan 4283126347
nan nan nan 4283389521
nan nan nan 4283520851
nan nan nan 4283520851
nan nan nan 4283520852
nan nan nan 4283718230
nan nan nan 4283586643
nan nan nan 4283520851
nan nan nan 4283455058
nan nan nan 4283652438
nan nan nan 4283784278
nan nan nan 4283718484
nan nan nan 4283718485
nan nan nan 4283652692
0.013660401 0.24125035 0.80102122 4283323471
0.015341553 0.24153388 0.80201155 4283125838
0.017115878 0.24209806 0.8040064 4283191633
0.018806404 0.24238162 0.80499661 4283651671
0.020500679 0.24266517 0.80598682 4289572786
0.022103656 0.24266806 0.80597252 4292401629
0.023706632 0.24267095 0.80595821 4292599006
0.025309609 0.24267384 0.80594391 4292598750
0.026912585 0.24267673 0.80592954 4292598493
0.028515562 0.24267963 0.80591524 4292532955
0.030118538 0.24268252 0.80590093 4292532954
0.031827811 0.2429661 0.80689102 4292467162
0.033324491 0.2426883 0.80587226 4292533468
0.034927469 0.24269119 0.80585796 4292533469
0.036418524 0.24241339 0.80483931 4292599004
0.037905827 0.24213557 0.80382067 4292598746
0.039505057 0.24213846 0.80380636 4292532953
0.041221827 0.24242204 0.8047964 4292467416
0.042822931 0.24242494 0.80478209 4292467416
0.04454533 0.24270853 0.80577201 4292598745
0.046148304 0.24271144 0.8057577 4292664026
0.047626235 0.24243361 0.80473918 4292532441
0.049100418 0.24215576 0.80372065 4292663515
0.050699644 0.24215865 0.80370635 4292466390
0.052168202 0.2418808 0.80268788 4292531930
0.053633008 0.24160294 0.80166942 4292861660
0.055228487 0.24160582 0.80165517 4290690488
0.056823961 0.24160869 0.80164093 4285032287
0.05841944 0.24161159 0.80162668 4285822057
0.060014918 0.24161446 0.80161244 4286348916
0.061468475 0.24133658 0.80059409 4286678137
0.063062079 0.24133946 0.80057985 4286875515
0.06480135 0.24162309 0.80156964 4287599751
0.066544369 0.24190673 0.80255944 4288322706
0.068141721 0.24190961 0.80254519 4288979870
0.069739074 0.2419125 0.80253088 4289505955
0.071183257 0.24163461 0.80151266 4289965734
0.072778739 0.24163748 0.80149841 4290163364
0.074374214 0.24164036 0.80148417 4290163363
0.075969689 0.24164324 0.80146986 4290360999
0.077404499 0.24136533 0.8004517 4290624941
0.078998104 0.2413682 0.80043751 4290952879
0.080591708 0.24137108 0.80042326 4291413430
0.082351603 0.24165475 0.80141288 4291413174
0.084115244 0.24193843 0.80240244 4291676089
0.085882634 0.24222212 0.80339205 4291215794
0.087825693 0.24278662 0.80538535 4291412662
0.089428671 0.24278951 0.80537105 4291281332
0.09138298 0.24335402 0.80736428 4291478195
0.092989706 0.24335691 0.80734992 4291674547
0.094596431 0.24335982 0.80733556 4291870899
0.096203163 0.24336271 0.80732125 4291541931
0.097626723 0.24308479 0.80630314 4291541411
0.099231571 0.24308768 0.80628884 4291015576
0.10083643 0.24309057 0.80627447 4291080341
0.10225248 0.24281263 0.80525649 4291211927
0.10404613 0.24309637 0.8062458 4291475099
0.10565098 0.24309926 0.80623144 4291607457
0.10725583 0.24310216 0.80621713 4291607717
0.10886068 0.24310505 0.80620277 4291147425
nan nan nan 4291740080
nan nan nan 4288646267
nan nan nan 4288515720
nan nan nan 4290624183
nan nan nan 4290363582
-0.19485405 0.23653802 0.78180021 4278850065
-0.19362342 0.23710498 0.78380001 4279376153
-0.1923853 0.23767196 0.78579974 4279442202
-0.19082357 0.23767477 0.78578573 4279573788
-0.18926184 0.23767759 0.78577179 4280297255
-0.18770011 0.23768041 0.78575784 4281021491
-0.18629082 0.23796532 0.78675067 4283455831
-0.18502833 0.23853235 0.78875011 4284376932
-0.18360965 0.23881727 0.78974283 4283982176
-0.18189362 0.238538 0.78872216 4283521625
-0.18032625 0.23854083 0.78870815 4283390040
-0.1787589 0.23854364 0.78869414 4283653212
-0.17733273 0.2388286 0.7896868 4283192660
-0.1757635 0.23883143 0.78967273 4283455831
-0.17433171 0.23911639 0.79066533 4283324244
-0.17262505 0.23883709 0.78964472 4283653209
-0.17078845 0.23827566 0.78761756 4283455831
-0.16909117 0.23799634 0.78659701 4283916383
-0.16752756 0.23799917 0.78658301 4284574313
-0.16622007 0.23856626 0.78858209 4284837486
-0.16503127 0.23941553 0.79158765 4286086528
-0.16358259 0.23970051 0.79258007 4287007630
-0.1622526 0.24026766 0.79457897 4289704886
-0.16103569 0.24111697 0.79758424 4290625731
-0.15968883 0.24168414 0.79958296 4290230204
-0.15810084 0.241687 0.79956877 4289703603
-0.1566278 0.24197203 0.80056101 4289045673
-0.15515101 0.24225707 0.80155319 4287466641
-0.15355928 0.24225993 0.801539 4286742918
-0.15196756 0.24226281 0.80152476 4286084988
-0.15026839 0.2419835 0.80050421 4285361265
-0.14857298 0.2417042 0.79948366 4284440163
-0.14698499 0.24170706 0.79946947 4283913819
-0.14529522 0.24142773 0.79844898 4283124303
-0.14380905 0.24171278 0.7994411 4282268994
-0.14231913 0.24199784 0.80043316 4281676857
-0.14082547 0.24228291 0.80142522 4282005822
-0.13932805 0.24256799 0.80241722 4281611064
-0.13782689 0.24285306 0.80340922 4281347635
-0.13623141 0.24285594 0.80339497 4281150256
-0.13463593 0.24285881 0.80338067 4280886829
-0.13304046 0.2428617 0.80336642 4280755243
-0.13144498 0.24286458 0.80335218 4280689450
-0.12968338 0.24230301 0.80132568 4279966240
-0.12792927 0.24174143 0.79929924 4279966240
-0.12626198 0.24146207 0.79827899 4284243298
-0.12452099 0.24090046 0.79625261 4293125867
-0.12293864 0.24090332 0.79623848 4292139485
-0.1212826 0.24062394 0.79521835 4291942619
-0.11970212 0.24062678 0.79520422 4291745497
-0.1180517 0.24034739 0.79418409 4291811290
-0.11647309 0.24035023 0.79416996 4291811547
-0.11502687 0.24091759 0.79616779 4291811547
-0.11350884 0.2412027 0.79715961 4291943132
-0.11198705 0.24148782 0.79815143 4291877339
-0.11040094 0.24149068 0.79813725 4291811547
-0.10887353 0.2417758 0.79912901 4291745497
-0.10728555 0.24177867 0.79911482 4291942363
-0.10564263 0.24149926 0.79809475 4291876826
-0.10410959 0.24178439 0.79908645 4291942363
-0.10252162 0.24178725 0.79907227 4292008412
-0.10093364 0.24179013 0.79905808 4292073692
-0.099345662 0.24179299 0.79904389 4292139998
-0.097757682 0.24179585 0.79902971 4292139998
-0.096169703 0.24179871 0.79901552 4292074206
-0.094623543 0.24208388 0.80000705 4292008412
-0.093033694 0.24208675 0.79999286 4292139485
-0.091519974 0.24265422 0.80199009 4292665829
-0.090107337 0.24406862 0.80700439 4288520870
nan nan nan 4281151027
-0.086001471 0.2505706 0.83009154 4281215535
-0.084441453 0.25142053 0.83309376 4281018156
-0.082789727 0.25142351 0.83307904 4281149486
-0.081138007 0.25142649 0.83306426 4281149484
-0.079532422 0.2519941 0.83506072 4281346606
-0.077919334 0.25256178 0.83705705 4280951848
-0.07626012 0.25256476 0.83704221 4281017641
-0.074600898 0.25256777 0.83702743 4281280813
-0.072941676 0.25257075 0.83701259 4281149227
-0.071296148 0.25285608 0.83800328 4281280813
-0.069635049 0.25285909 0.83798844 4281740080
nan nan nan 4281674286
nan nan nan 4282002224
nan nan nan 4282002224
nan nan nan 4282199603
nan nan nan 4282462518
nan nan nan 4282396982
-0.058017809 0.25062105 0.82984155 4282595131
-0.056371711 0.25062403 0.82982683 4282990661
-0.054760989 0.24865034 0.82277477 4282990661
-0.053155731 0.24752374 0.81873888 4293321189
-0.051565468 0.24639712 0.81470317 4292532702
-0.049958173 0.24611765 0.81368339 4292795874
-0.048354626 0.24583818 0.81266367 4292861155
-0.046740398 0.24584109 0.81264925 4292729825
-0.045126174 0.24584399 0.81263483 4292795105
-0.043530125 0.24556451 0.81161523 4292794848
-0.041917775 0.24556741 0.8116008 4292794848
-0.040305424 0.24557032 0.81158638 4292794848
-0.038740676 0.24500839 0.80956167 4292795105
-0.037132077 0.2450113 0.80954731 4292663776
-0.035578579 0.24444936 0.80752265 4292992741
-0.03403258 0.24388741 0.80549806 4293124840
-0.032462779 0.24360786 0.80447865 4293125353
-0.030896729 0.24332832 0.80345929 4292928231
-0.029334428 0.24304876 0.80243993 4292665316
-0.027738949 0.24305163 0.80242568 4292862695
-0.026104672 0.24333696 0.80341643 4292928487
-0.02450732 0.24333984 0.80340219 4292599778
-0.022909967 0.24334273 0.80338794 4292468192
-0.021312615 0.2433456 0.80337363 4292336606
-0.019761564 0.24306603 0.8023544 4292271069
-0.018166086 0.2430689 0.80234015 4292534496
-0.016620658 0.24278933 0.80132097 4289376430
-0.015130905 0.24222727 0.79929686 4282928715
-0.013594851 0.24194767 0.7982778 4283126093
-0.012062547 0.24166806 0.79725868 4283191885
-0.010591541 0.24110597 0.7952348 4283389521
-0.008890341 0.24167378 0.79723036 4283521107
-0.0074881334 0.2408292 0.79420167 4283784023
-0.0057813078 0.24139702 0.79619718 4283849814
-0.0040669832 0.24196485 0.79819262 4283784277
-0.0024790054 0.24196772 0.79817843 4283718485
-0.00089102727 0.24197058 0.79816425 4283521105
0.00076762331 0.24225594 0.79915482 4283915863
0.0023574762 0.24225882 0.79914063 4283915862
0.0038729066 0.24197918 0.79812169 4283718484
0.0054608844 0.24198204 0.7981075 4283652946
0.0069706906 0.24170239 0.79708868 4283718481
0.0084767472 0.24142273 0.7960698 4283783764
0.0099790534 0.24114308 0.79505098 4283652178
0.011477611 0.2408634 0.79403222 4283717970
0.012972418 0.24058373 0.79301351 4283322442
0.014551022 0.24058658 0.79299939 4282993221
0.016219048 0.24087195 0.7939899 4283124806
0.017708231 0.24059227 0.79297119 4283716942
0.019845856 0.24229036 0.79898441 4284439897
0.021530755 0.24257576 0.79997474 4291742666
0.023219403 0.24286118 0.80096501 4292466391
0.024714211 0.24258152 0.79994631 4292597722
0.026305938 0.24258438 0.79993206 4292531673
0.027897665 0.24258725 0.79991782 4292597466
0.029489392 0.24259013 0.79990363 4292466136
0.031187415 0.24287556 0.80089384 4292531669
0.032781016 0.24287844 0.8008796 4292597462
0.034374621 0.24288131 0.80086535 4292597461
0.035968222 0.24288419 0.80085111 4292597718
0.03744803 0.24260448 0.79983252 4292663510
0.039039761 0.24260736 0.79981828 4292531924
0.040631488 0.24261022 0.79980409 4292794326
0.042342633 0.24289568 0.80079418 4292662996
0.043936234 0.24289855 0.80077994 4292662995
0.045653004 0.24318403 0.80176997 4292728530
0.047248483 0.24318691 0.80175573 4292728014
0.048590124 0.24262458 0.79973298 4292596940
0.050181851 0.24262746 0.79971874 4292531146
0.051642913 0.24234772 0.79870033 4292465354
0.053100225 0.24206798 0.79768193 4292399303
0.05482262 0.24235345 0.7986719 4292728776
0.05641247 0.24235632 0.79865772 4292399558
0.058002323 0.24235919 0.79864353 4291741881
0.059452135 0.24207942 0.79762518 4291216305
0.061040115 0.2420823 0.797611 4291282097
0.06262809 0.24208516 0.79759681 4291281327
0.064361736 0.24237065 0.79858667 4291215791
0.06609913 0.24265616 0.79957652 4291347121
0.067690857 0.24265903 0.79956234 4291280558
0.069282584 0.24266191 0.79954809 4291148202
0.070874311 0.24266477 0.7995339 4291279272
0.072466038 0.24266765 0.79951966 4291082149
0.074057765 0.24267052 0.79950547 4290951331
0.075649492 0.24267338 0.79949123 4290885279
0.07724122 0.24267626 0.79947698 4290819999
0.078670412 0.24239646 0.79845887 4290422671
0.080260262 0.24239933 0.79844463 4290357135
0.082016408 0.24268487 0.79943436 4291343777
0.083776295 0.24297042 0.80042398 4291082145
0.0853699 0.2429733 0.80040979 4290884766
0.087135412 0.24325885 0.80139935 4290950305
0.088904679 0.24354441 0.80238897 4291016099
0.090502031 0.24354729 0.80237466 4290950303
0.092276923 0.24383287 0.80336422 4291015838
0.093876146 0.24383575 0.80334991 4291015582
0.095475376 0.24383864 0.80333567 4291344031
0.097074606 0.24384153 0.80332136 4291212699
0.098673828 0.2438444 0.80330706 4291146136
0.10027306 0.2438473 0.80329275 4291211929
0.10187228 0.24385017 0.80327851 4291145623
0.10366217 0.24413578 0.80426788 4291738273
0.10526327 0.24413867 0.80425358 4291673250
0.10705879 0.24442428 0.8052429 4291805096
nan nan nan 4288515447
nan nan nan 4288582797
-0.1996886 0.23836777 0.78287733 4289967283
-0.19763018 0.23751874 0.77984267 4289245359
-0.19591415 0.23723759 0.77882195 4285231474
-0.19436555 0.23724039 0.77880812 4286021760
-0.19297874 0.23752713 0.77980113 4287139985
-0.19158819 0.23781389 0.78079414 4288785066
-0.19003583 0.23781669 0.78078026 4289311410
-0.18848349 0.23781949 0.78076637 4289969596
-0.18693113 0.23782229 0.78075254 4290956748
-0.18568364 0.23839304 0.78275222 4291483092
-0.18442866 0.23896378 0.78475183 4291877337
-0.18301749 0.23925059 0.78574467 4292272352
-0.18145576 0.2392534 0.78573072 4293061356
-0.17989403 0.23925622 0.78571677 4292929770
-0.1783323 0.23925903 0.78570276 4292929771
-0.17677057 0.23926185 0.78568882 4292929771
-0.17534815 0.23954867 0.78668153 4292864233
-0.17378454 0.23955148 0.78666759 4292798182
-0.17208537 0.2392703 0.78564698 4292929255
-0.17038995 0.23898911 0.78462642 4292798182
-0.1688301 0.23899193 0.78461248 4292600805
-0.16714031 0.23871073 0.78359199 4292666598
-0.16571039 0.23899755 0.78458458 4292666598
-0.1644029 0.23956841 0.78658378 4292535012
-0.16283931 0.23957123 0.78656977 4292863464
-0.16176544 0.24071015 0.79058188 4281217846
-0.16079715 0.24213313 0.7956003 4280164644
-0.15969142 0.24327211 0.7996121 4280427046
-0.15810345 0.24327497 0.79959792 4280426790
-0.15663041 0.24356188 0.80059016 4280426790
-0.15504056 0.24356475 0.80057597 4280623912
-0.15322833 0.24299952 0.79854894 4280623912
-0.15153292 0.24271834 0.79752839 4281676600
-0.14962636 0.24186903 0.79449511 4281413428
-0.14783664 0.24130377 0.79246825 4281347634
-0.14615808 0.24102254 0.79144788 4281347633
-0.14458512 0.24102539 0.79143381 4281281840
-0.14331195 0.24188042 0.79443866 4281216304
-0.14212561 0.24301955 0.79844975 4281479476
-0.14082807 0.24387462 0.80145442 4281348145
-0.13933066 0.24416158 0.80244648 4281282353
-0.1378295 0.24444853 0.80343848 4281479219
-0.13614346 0.24416733 0.80241799 4281545012
-0.13446116 0.24388611 0.80139756 4281610037
-0.13269581 0.24332081 0.79937094 4281675830
-0.13102289 0.24303958 0.79835057 4281610038
-0.12935372 0.24275835 0.79733026 4281741624
-0.12752591 0.24190889 0.79429764 4280952622
-0.12594731 0.24191174 0.79428357 4283584855
-0.12421382 0.24134637 0.79225725 4292993767
-0.12263897 0.24134922 0.79224318 4292073179
-0.12106411 0.24135207 0.79222906 4292007899
-0.11948926 0.2413549 0.79221499 4291942363
-0.11784446 0.24107362 0.79119492 4292008412
-0.11627148 0.24107645 0.79118085 4292139742
-0.1147647 0.24136342 0.79217279 4292205278
-0.11325416 0.24165039 0.79316473 4292007899
-0.11180232 0.2422215 0.79516262 4292007899
-0.11022184 0.24222435 0.79514849 4292007899
-0.10870005 0.24251135 0.79614031 4292007899
-0.1071177 0.24251421 0.79612619 4292007899
-0.1054804 0.2422329 0.79510611 4292007899
-0.10389993 0.24223576 0.79509199 4292073692
-0.10231944 0.24223861 0.79507786 4292139485
-0.10068965 0.24195731 0.79405791 4292139485
-0.099111043 0.24196015 0.79404378 4292139485
-0.097578011 0.24224716 0.79503554 4292139485
-0.096041225 0.24253419 0.79602718 4292073692
-0.094458871 0.24253704 0.79601306 4291876313
-0.092916466 0.24282406 0.7970047 4292007899
-0.091370307 0.2431111 0.79799628 4292139485
-0.089856595 0.24368232 0.79999363 4290494660
-0.08833538 0.24425356 0.80199087 4280888881
-0.084358074 0.25221965 0.83010703 4280953387
-0.082711972 0.25222263 0.83009237 4280953129
-0.081040926 0.25194138 0.829072 4281018409
-0.079373635 0.25166014 0.82805169 4281149738
-0.077816077 0.25279993 0.83205944 4281215018
-0.076166227 0.25280291 0.83204472 4281215018
-0.074516378 0.25280589 0.83202994 4281215018
-0.072866529 0.25280887 0.83201522 4281280811
-0.071216688 0.25281185 0.83200049 4281476907
-0.069566838 0.25281483 0.83198577 4281542443
-0.067916989 0.25281781 0.83197099 4281674029
-0.066259071 0.25253654 0.8309508 4281804843
-0.0646111 0.25253952 0.83093607 4281804330
-0.062963128 0.2525425 0.83092135 4281870379
-0.061312705 0.25226122 0.82990116 4282001711
-0.058033518 0.24942467 0.81981766 4282854710
-0.056396641 0.25028035 0.82281929 4283380541
-0.054788921 0.24886203 0.81777787 4282658616
-0.053179171 0.24829644 0.81575263 4291279553
-0.051594522 0.2471623 0.81171679 4292859100
-0.049992848 0.24688095 0.81069708 4292727771
-0.048407473 0.24631532 0.80867207 4292597212
-0.046815172 0.24603394 0.80765241 4292596956
-0.045194019 0.24632111 0.8086434 4292531676
-0.043605465 0.24603973 0.80762374 4292597469
-0.042000614 0.24604262 0.80760944 4292531676
-0.04041769 0.24576123 0.80658984 4292465883
-0.038838509 0.24547984 0.80557036 4292531675
-0.037263084 0.24519843 0.80455083 4292531931
-0.0357465 0.24434842 0.80152106 4292729824
-0.034211747 0.2437827 0.79949647 4293124838
-0.03268449 0.24321696 0.797472 4293190886
-0.031131558 0.24293551 0.7964527 4293059301
-0.029582379 0.24265406 0.79543346 4292664801
-0.028000025 0.24265692 0.79541934 4292335835
-0.026378874 0.24294409 0.79641026 4292270041
-0.024794646 0.24294695 0.79639608 4292138455
-0.023167871 0.24323413 0.797387 4292138454
-0.021581767 0.24323699 0.79737282 4292006611
-0.019995663 0.24323985 0.79735863 4291941075
-0.018409561 0.24324271 0.79734445 4291941073
-0.016923551 0.2426769 0.79532039 4291941073
-0.015496961 0.24182673 0.79229134 4291349960
-0.014027824 0.24126089 0.79026741 4282337088
-0.012510516 0.24097937 0.78924841 4280692262
-0.010939411 0.2409822 0.7892344 4280954664
-0.0093088858 0.24126939 0.79022527 4282599230
-0.0077359066 0.24127224 0.7902112 4283256904
-0.0062260977 0.24099071 0.78919226 4283454282
-0.0046549928 0.24099354 0.78917825 4283454283
-0.0030838884 0.24099638 0.78916419 4283454542
-0.0014439892 0.24128358 0.79015499 4283389007
0.00034099881 0.24213955 0.79315531 4283652438
0.0019196026 0.24214239 0.79314119 4283587414
0.0034982066 0.24214524 0.79312706 4283851096
0.0050768103 0.24214809 0.79311299 4283982680
0.0065772454 0.24186654 0.79209417 4284574300
0.0079938872 0.24130061 0.79007065 4285560938
0.0095668668 0.24130344 0.79005659 4286087025
0.011056053 0.24102189 0.78903788 4291872946
0.012541489 0.24074031 0.78801918 4291674801
0.014110719 0.24074315 0.78800517 4291872437
0.015858784 0.2413148 0.79000038 4291214507
0.017523056 0.24160205 0.79099095 4289637280
0.019284245 0.24217372 0.79298604 4289242008
0.020957891 0.24246098 0.79397649 4291610043
0.022635287 0.24274825 0.79496694 4292530890
0.024217641 0.24275111 0.79495281 4292596429
0.025799993 0.24275397 0.79493868 4292595913
0.027382348 0.24275681 0.79492456 4292464327
0.0289647 0.24275967 0.79491037 4292464329
0.030547054 0.24276252 0.79489625 4292331972
0.032237574 0.24304982 0.79588658 4292266433
0.033931844 0.24333712 0.79687685 4292134844
0.035517946 0.24333999 0.79686266 4292069053
0.037104048 0.24334285 0.79684854 4291937466
0.038574487 0.24306124 0.79582995 4291806134
0.040158715 0.24306411 0.79581583 4291674548
0.041862357 0.24335143 0.79680598 4291739827
0.043448463 0.24335429 0.79679185 4291739824
0.045157731 0.24364161 0.797782 4291608238
0.046745706 0.24364448 0.79776782 4291607724
0.048206773 0.24336287 0.79674929 4291410346
0.049792875 0.24336573 0.79673517 4290751636
0.051248316 0.24308412 0.7957167 4290554510
0.052700002 0.24280249 0.79469836 4290291084
0.054416772 0.24308982 0.79568845 4290356877
0.056137286 0.24337718 0.79667848 4290225290
0.057723392 0.24338004 0.7966643 4290093705
0.059169456 0.24309839 0.79564595 4289896841
0.06061177 0.24281676 0.79462767 4290093706
0.062194124 0.24281961 0.79461354 4290027913
0.063922137 0.24310698 0.79560351 4289962119
0.065653905 0.24339435 0.79659343 4289830277
0.067389421 0.24368171 0.79758334 4289764228
0.068977401 0.24368459 0.79756916 4289632640
0.07056538 0.24368745 0.79755497 4289566847
0.072308391 0.24397483 0.79854482 4289763969
0.073898248 0.24397771 0.79853064 4289895298
0.075488098 0.24398057 0.79851645 4289632384
nan nan nan 4288319093
-0.20056251 0.23877782 0.77889186 4288319093
-0.1990139 0.2387806 0.77887803 4289440941
-0.19713043 0.23821175 0.77685028 4289440941
-0.19542 0.23792872 0.77582955 4289508019
-0.1940407 0.23821732 0.77682269 4289903292
-0.19265766 0.23850594 0.77781576 4290298050
-0.19127087 0.23879457 0.77880883 4290627528
-0.18972225 0.23879737 0.778795 4290890700
-0.18801747 0.23851432 0.77777433 4291351251
-0.18647073 0.23851711 0.77776051 4291746010
-0.18507645 0.23880574 0.77875352 4291746009
-0.18382896 0.23938024 0.78075325 4291811546
-0.18257397 0.23995474 0.78275293 4291614423
-0.18101788 0.23995756 0.78273904 4292008925
-0.17931683 0.23967449 0.78171837 4292403426
-0.1777626 0.2396773 0.78170455 4292271841
-0.17634955 0.23996598 0.78269732 4292271841
-0.17479345 0.23996878 0.78268343 4292140255
-0.17337479 0.24025746 0.78367621 4292140255
-0.17181681 0.24026027 0.78366232 4292074461
-0.17012513 0.2399772 0.78264171 4291942875
-0.16870084 0.24026589 0.78363448 4291877082
-0.16701292 0.23998281 0.78261393 4291877082
-0.16532876 0.23969974 0.78159344 4291877082
-0.1639007 0.23998843 0.7825861 4291811033
-0.16246893 0.24027713 0.78357881 4291942105
-0.16127826 0.24113764 0.7865845 4291415761
-0.15957534 0.24457417 0.79863471 4281348918
-0.15810606 0.24486294 0.79962707 4281348148
-0.15663302 0.24515173 0.80061936 4281348147
-0.15481703 0.24458276 0.79859221 4281413939
-0.15289736 0.24372785 0.79555869 4281479732
-0.15120757 0.24344479 0.79453814 4281413683
nan nan nan 4281479219
nan nan nan 4281347633
nan nan nan 4281479219
nan nan nan 4281479219
nan nan nan 4281347888
nan nan nan 4281282864
-0.14092688 0.2457523 0.80248994 4281348144
-0.13952191 0.24632707 0.8044883 4281282864
-0.13792455 0.24632996 0.804474 4281414450
-0.13623664 0.24604689 0.80345351 4281413937
-0.13437508 0.24519187 0.80042052 4281545525
-0.13261159 0.24462281 0.79839385 4281348146
-0.13085559 0.24405374 0.79636723 4281610807
-0.12919018 0.24377061 0.79534692 4281610807
-0.12744731 0.24320152 0.79332042 4281281840
-0.12579125 0.24291839 0.79230016 4282926924
-0.12413896 0.24263525 0.79127997 4292993767
-0.12256598 0.24263808 0.7912659 4292007385
-0.120993 0.24264091 0.79125184 4291942106
-0.1193482 0.24235776 0.7902317 4291942107
-0.11784704 0.24264659 0.79122376 4292007900
-0.11627406 0.24264944 0.7912097 4292007900
-0.11470108 0.24265227 0.79119563 4291744727
-0.11319242 0.24294111 0.79218763 4291678936
-0.11168002 0.24322996 0.79317957 4291613143
-0.11016386 0.24351881 0.79417145 4291678934
-0.10864395 0.24380767 0.79516333 4291547348
-0.10706347 0.24381053 0.79514921 4291613140
-0.10542805 0.24352735 0.79412919 4291613142
-0.10384944 0.2435302 0.79411507 4291613141
-0.10221964 0.24324702 0.79309505 4291613140
-0.10064291 0.24324986 0.79308099 4291613141
-0.099066183 0.24325271 0.79306686 4291547347
-0.097535029 0.2435416 0.79405862 4291481555
-0.09600012 0.24383049 0.79505038 4291481555
-0.094419643 0.24383333 0.79503626 4291415763
-0.092839167 0.24383619 0.79502213 4291481557
-0.091334835 0.24441114 0.7970196 4291349970
-0.089859203 0.24527217 0.80002278 4291086796
-0.08837232 0.24613322 0.80302584 4282599756
-0.084217273 0.25243539 0.82510871 4281085742
-0.082553722 0.25215226 0.82408839 4281151020
-0.080943823 0.25244129 0.82507944 4281019691
-0.079284027 0.25215816 0.82405919 4281018409
-0.077712782 0.25301936 0.82706147 4281149224
-0.076072305 0.25302231 0.82704687 4280886564
-0.074449286 0.25331137 0.8280378 4281017894
-0.072806932 0.25331435 0.82802314 4281280036
-0.071150884 0.25303119 0.82700288 4281279527
-0.069522239 0.25332025 0.82799381 4281738793
-0.067879893 0.25332323 0.82797909 4282197289
-0.06622947 0.25304008 0.82695889 4282131240
-0.064588994 0.25304303 0.82694423 4282000683
-0.062944196 0.25275987 0.8259241 4282000680
-0.061303146 0.25247672 0.82490396 4281804329
nan nan nan 4282264880
-0.056415182 0.25048268 0.81782216 4282790198
-0.05480168 0.24991335 0.81579685 4282001195
-0.053195674 0.24934401 0.81377161 4287593345
-0.051614761 0.24820237 0.80973566 4293120729
-0.050016832 0.24791913 0.80871594 4292463827
-0.0484352 0.24734974 0.80669087 4292530389
-0.046846647 0.24706648 0.80567122 4292465109
-0.045229249 0.24735552 0.80666226 4292334035
-0.043644443 0.24707226 0.8056426 4292596436
-0.042043339 0.24707516 0.8056283 4292859353
-0.040464159 0.24679188 0.80460876 4292859611
-0.038936321 0.24593627 0.80157876 4292926172
-0.037342716 0.24593915 0.80156451 4293123549
-0.035804205 0.24536967 0.79953986 4293123293
-0.034302615 0.24451402 0.7965101 4293517793
-0.032749679 0.2442307 0.79549074 4293452769
-0.031200496 0.24394737 0.79447144 4293452514
-0.029655064 0.24366404 0.7934522 4293123549
-0.028076459 0.24366689 0.79343808 4292597206
-0.026497856 0.24366973 0.79342401 4292399830
-0.024878582 0.24395877 0.794415 4292268242
-0.023298103 0.24396163 0.79440087 4292333777
-0.021717625 0.24396448 0.79438674 4292464594
-0.020090852 0.24425353 0.79537767 4292595924
-0.018508499 0.24425639 0.79536355 4292530901
-0.017026233 0.24368683 0.79333937 4292663255
-0.015603383 0.24283102 0.79031032 4292730073
-0.014084197 0.24254765 0.78929126 4290625722
-0.01256876 0.24226426 0.78827232 4291674288
-0.010999531 0.24226709 0.78825825 4292266679
-0.009370883 0.24255614 0.78924918 4290166446
-0.0077997786 0.24255897 0.78923512 4291279270
-0.0062918412 0.24227557 0.78821623 4291279783
-0.0047876532 0.24199216 0.78719735 4291147938
-0.0031533816 0.24228123 0.78818816 4291212702
-0.0015153603 0.24257031 0.78917897 4291343002
0.00019707713 0.24314564 0.79117459 4291612606
0.0018444726 0.24343474 0.79216534 4291808445
0.0034212016 0.24343757 0.79215127 4291874238
0.0049216398 0.24315417 0.79113239 4291211410
0.0064183283 0.24287075 0.79011357 4291080084
0.0079112668 0.24258731 0.78909475 4291013782
0.0094823716 0.24259014 0.78908074 4291013271
0.010969685 0.24230671 0.78806198 4291078805
0.012538916 0.24230954 0.78804797 4291078548
0.014108145 0.24231237 0.78803396 4290881682
0.015856205 0.24288777 0.79002923 4290488208
0.017520472 0.24317689 0.79101986 4290291343
0.019188492 0.24346602 0.79201037 4290489235
0.0209553 0.24404146 0.79400551 4290423442
0.022535779 0.2440443 0.79399139 4290554515
0.024116257 0.24404715 0.79397726 4290422930
0.025596071 0.2437637 0.79295862 4290422418
0.027174676 0.24376655 0.79294449 4290422160
0.028857693 0.2440557 0.79393488 4290356876
0.030438172 0.24405855 0.79392076 4290553742
0.032126814 0.24434772 0.79491115 4290421900
0.033819206 0.24463689 0.79590148 4290290568
0.035179608 0.2440671 0.79387844 4290092935
0.036873873 0.24435629 0.79486877 4290092938
0.038456228 0.24435914 0.79485458 4290027145
0.039921042 0.24407566 0.79383606 4289830020
nan nan nan 4288581755
-0.20005149 0.23946334 0.77589923 4287725942
-0.1985085 0.23946613 0.7758854 4289241760
-0.19679807 0.23918122 0.77486467 4290690754
-0.1950914 0.2388963 0.77384394 4290625731
-0.19371586 0.23918678 0.77483714 4290955723
-0.19233657 0.23947726 0.77583027 4291745497
-0.19095352 0.23976776 0.7768234 4291877340
-0.18940867 0.23977055 0.77680963 4292008926
-0.18770762 0.23948561 0.7757889 4292140512
-0.18616465 0.23948839 0.77577513 4292337634
-0.1847741 0.23977891 0.77676821 4292403170
-0.18353038 0.24035713 0.77876806 4292403170
-0.18213046 0.24064766 0.77976108 4292468963
-0.18057998 0.24065046 0.77974719 4292534756
-0.17902949 0.24065325 0.77973336 4292468964
-0.17747901 0.24065605 0.77971947 4292205792
-0.17592853 0.24065885 0.77970564 4292205792
-0.17437805 0.24066164 0.77969182 4292206048
-0.17296502 0.24095219 0.78068465 4292140255
-0.17141266 0.24095498 0.78067076 4292074462
-0.1698603 0.24095778 0.78065693 4291942876
-0.16830795 0.24096058 0.78064305 4291942619
-0.16675559 0.24096338 0.78062916 4291942106
-0.16507517 0.24067843 0.77960867 4291942106
-0.16352469 0.24068122 0.77959484 4292073691
-0.16209851 0.24097179 0.78058755 4292205277
-0.16079105 0.24155013 0.78258687 4291218125
-0.15922186 0.24529693 0.79564416 4281283380
-0.15764138 0.24529977 0.79563004 4281217586
-0.15640573 0.24616599 0.79863548 4281283378
-0.15470657 0.24588107 0.79761481 4281217585
-0.15267755 0.24473274 0.79357475 4281349169
-0.15099151 0.24444778 0.7925542 4281283120
nan nan nan 4281217071
nan nan nan 4281217071
nan nan nan 4281282863
nan nan nan 4281282862
nan nan nan 4281480241
nan nan nan 4281612340
nan nan nan 4281808697
-0.12827897 0.24218477 0.78430736 4281742648
-0.12688151 0.2427633 0.78630584 4281677111
-0.1253179 0.24276611 0.7862919 4282137409
-0.1237543 0.24276893 0.78627795 4292335836
-0.12226627 0.24305961 0.78727013 4291481043
-0.12070078 0.24306244 0.78725612 4291481555
-0.11913531 0.24306525 0.78724217 4291349970
-0.11756983 0.24306808 0.78722817 4291415763
-0.11600435 0.2430709 0.78721416 4291415762
-0.11443887 0.24307373 0.78720021 4291284433
-0.11287339 0.24307655 0.78718621 4291284433
-0.11137035 0.24336727 0.78817827 4291349713
-0.10986358 0.24365798 0.78917027 4291415505
-0.10829435 0.24366081 0.78915626 4291415505
-0.10672512 0.24366364 0.78914225 4291284176
-0.10510094 0.24337856 0.78812224 4291284433
-0.10353358 0.2433814 0.78810823 4291349969
-0.10191502 0.24309632 0.78708833 4291349969
-0.10034955 0.24309914 0.78707433 4291415762
-0.098784067 0.24310197 0.78706032 4291415761
-0.097264163 0.24339271 0.78805226 4291284175
-0.095740505 0.24368346 0.78904414 4291415761
-0.094213106 0.24397421 0.79003596 4291349968
-0.092681952 0.24426496 0.79102778 4291415761
-0.09114705 0.24455573 0.79201955 4291415760
-0.089644596 0.24513443 0.79401708 4291416273
-0.088100322 0.24542521 0.79500878 4283455320
nan nan nan 4284040525
nan nan nan 4292135116
nan nan nan 4292201679
nan nan nan 4292268756
nan nan nan 4292400600
-0.043792412 0.24636912 0.79762942 4293123297
-0.04220631 0.24637198 0.79761523 4293254882
-0.040729798 0.24493466 0.79257458 4293254882
-0.039153069 0.24493751 0.79256052 4293583332
-0.03757634 0.24494036 0.79254645 4293517280
-0.036109779 0.24379101 0.7885114 4293517280
-0.034540549 0.24379385 0.78849733 4293582814
-0.033002611 0.24350862 0.78747815 4292594364
-0.031435255 0.24351145 0.78746414 4292199863
-0.029867902 0.24351427 0.78745013 4291607725
-0.028300548 0.2435171 0.78743613 4290949538
-0.026733192 0.24351993 0.78742212 4290883744
-0.025125172 0.24381083 0.78841323 4291015324
-0.023555942 0.24381366 0.78839922 4290818197
-0.021986712 0.24381649 0.78838521 4290752658
-0.020417482 0.24381933 0.78837121 4290818450
-0.018800087 0.24411023 0.78936219 4290949523
-0.017279023 0.24382497 0.78834313 4290948496
-0.015761709 0.24353972 0.78732407 4290947726
-0.014248143 0.24325445 0.78630507 4291014031
-0.012682663 0.24325728 0.78629112 4291145615
-0.011117183 0.2432601 0.78627712 4291079309
-0.009551703 0.24326293 0.78626311 4290815366
-0.0079862224 0.24326575 0.78624916 4290683783
-0.0064839069 0.24298047 0.78523022 4290750093
-0.0049853404 0.24269517 0.78421134 4290684306
-0.0033566963 0.2429861 0.78520226 4290619787
-0.0017243025 0.24327704 0.78619319 4290357126
-1.7495671e-05 0.24385612 0.78818893 4290487175
0.0016242723 0.24414708 0.78917974 4290683018
0.0031953768 0.24414991 0.78916574 4290748553
0.0047664815 0.24415274 0.78915167 4290419845
0.0061812606 0.2435793 0.78712803 4290157702
0.0076685781 0.24329399 0.78610927 4290158472
0.0092340577 0.24329682 0.78609532 4290224263
0.010799538 0.24329963 0.78608131 4289961346
0.01245068 0.24359061 0.78707206 4289764482
0.014018035 0.24359344 0.78705806 4290092678
0.01558539 0.24359627 0.78704405 4289829763
0.017152745 0.24359909 0.78703004 4289764483
0.018906422 0.24417825 0.78902537 4289501826
0.020572564 0.24446926 0.79001594 4289567619
0.022048632 0.24418391 0.78899729 4289435519
0.023619736 0.24418674 0.78898323 4289369983
0.02509018 0.2439014 0.78796458 4289369726
0.026761945 0.24419242 0.78895515 4289501312
0.02843746 0.24448344 0.78994566 4289303935
0.030010439 0.24448627 0.78993165 4289238141
0.031691577 0.24477731 0.79092211 4289303933
0.033376466 0.24506834 0.79191256 4289369213
0.034953196 0.24507119 0.79189843 4289237629
0.03664371 0.24536222 0.79288882 4289303422
0.038222313 0.24536508 0.79287469 4289566851
0.039800916 0.24536793 0.79286063 4289304447
-0.20159699 0.24100354 0.77594131 4287857524
-0.19936924 0.23984808 0.77189934 4286937717
-0.19783376 0.23985083 0.77188557 4292005331
-0.19629827 0.23985361 0.77187186 4292138201
-0.19492836 0.24014595 0.77286518 4292072921
-0.1935547 0.2404383 0.77385843 4292204766
-0.19217728 0.24073066 0.77485162 4292337121
-0.19079612 0.24102302 0.77584481 4292468963
-0.18909506 0.24073622 0.77482408 4292534499
-0.18739776 0.24044941 0.77380341 4292600036
-0.18585853 0.24045219 0.77378964 4292534243
-0.1843193 0.24045496 0.77377588 4292534243
-0.18293063 0.24074733 0.77476901 4292402657
-0.18138953 0.24075012 0.77475524 4292468450
-0.17999524 0.24104251 0.77574831 4292402657
-0.17845225 0.24104528 0.77573454 4292468450
-0.17705235 0.24133769 0.77672756 4292271071
-0.17550749 0.24134047 0.77671373 4292205278
-0.17396264 0.24134326 0.77669996 4292205278
-0.17241777 0.24134605 0.77668613 4292073692
-0.1710085 0.24163845 0.77767909 4292007899
-0.16946176 0.24164124 0.77766526 4291810520
-0.1677832 0.24135441 0.77664471 4291876313
-0.16636829 0.24164683 0.7776376 4291810520
-0.16469349 0.24135998 0.77661711 4291744727
-0.16302244 0.24107312 0.77559668 4291744726
-0.16160378 0.24136555 0.77658951 4291876312
-0.16005892 0.24136834 0.77657574 4290428865
-0.15863463 0.24166077 0.77756852 4280889135
nan nan nan 4281283632
nan nan nan 4281415475
-0.14481775 0.24197558 0.77845061 4281349425
-0.14326914 0.24197836 0.77843678 4281744181
-0.14182049 0.24227084 0.77942932 4282138939
-0.14027001 0.24227364 0.77941549 4282205245
-0.13881572 0.24256614 0.78040802 4282139452
nan nan nan 4282073659
nan nan nan 4282139452
nan nan nan 4282007866
nan nan nan 4281942073
-0.1308803 0.24200071 0.77832609 4282007612
-0.12933168 0.2420035 0.77831227 4281875769
-0.12778307 0.2420063 0.77829844 4281875515
-0.12631567 0.24229881 0.7792908 4282072124
-0.12484451 0.24259134 0.78028321 4282072126
-0.12336961 0.24288388 0.78127557 4291809492
-0.12189095 0.24317642 0.78226787 4291349199
-0.12040855 0.24346896 0.78326011 4291349456
-0.11885057 0.24347177 0.78324622 4291349456
-0.11729259 0.24347457 0.78323227 4291349711
-0.11566653 0.24318764 0.78221226 4291415504
-0.11404422 0.2429007 0.78119224 4291349968
-0.11255432 0.24319325 0.78218442 4291283917
-0.11106066 0.24348582 0.7831766 4291283917
-0.10956326 0.24377839 0.78416878 4291283917
-0.1079447 0.24349144 0.78314877 4291415247
-0.1063299 0.24320447 0.78212881 4291481040
-0.10477379 0.24320729 0.78211492 4291415504
-0.10316461 0.24292032 0.78109503 4291415503
-0.10161037 0.24292313 0.78108114 4291480782
-0.10005614 0.24292593 0.78106725 4291480780
-0.098501913 0.24292873 0.78105336 4291546572
-0.09699326 0.24322133 0.78204542 4291546315
-0.095480859 0.24351393 0.78303742 4291546316
-0.093922876 0.24351673 0.78302354 4291414986
-0.092444807 0.24409914 0.78502136 4291546572
-0.090921156 0.24439175 0.78601325 4291611850
-0.089466162 0.24526399 0.78901684 4291612106
-0.087965593 0.24584645 0.79101449 4284638305
-0.086489975 0.24671872 0.79401785 4281283118
-0.084880792 0.24643175 0.79299796 4281480752
-0.083304062 0.2464346 0.79298389 4282271038
nan nan nan 4282533696
nan nan nan 4282729795
-0.078573875 0.24644312 0.79294163 4282794305
nan nan nan 4283123783
-0.075420424 0.24644881 0.79291344 4282861380
nan nan nan 4283519565
nan nan nan 4284375131
-0.069125339 0.24675004 0.7938627 4284637789
nan nan nan 4286545529
