# .PCD v0.7 - Point Cloud Data file format
VERSION 0.7
FIELDS x y z rgba
SIZE 4 4 4 4
TYPE F F F U
COUNT 1 1 1 1
WIDTH 1058
HEIGHT 1
VIEWPOINT 0 0 0 1 0 0 0
POINTS 1058
DATA ascii
-0.046071298 0.24964948 0.75670141 4289047214
-0.044580199 0.24934542 0.75568229 4292336864
-0.043072838 0.24934815 0.75566882 4292665829
-0.041565478 0.24935086 0.75565535 4292731622
-0.040034357 0.24966037 0.75664747 4291218383
-0.038525119 0.2496631 0.756634 4289310385
-0.037043396 0.24935903 0.75561494 4287336851
-0.035565425 0.24905494 0.75459588 4285231986
-0.034091201 0.24875087 0.75357687 4283784540
-0.032554451 0.24906038 0.75456899 4283192660
-0.031048967 0.24906309 0.75455558 4283324244
-0.02946971 0.24967943 0.75655311 4283061071
nan nan nan 4283521622
-0.026491875 0.24937806 0.75552064 4283982171
-0.016262906 0.24755605 0.7493943 4283586390
-0.014655527 0.24817243 0.75139159 4283322705
-0.013155665 0.24817513 0.75137818 4285954681
-0.011596421 0.24848469 0.75237012 4292991951
-0.0099721681 0.2491011 0.75436723 4291740075
-0.0084666824 0.24910383 0.75435382 4291212695
-0.0068961885 0.2494134 0.75534558 4290949520
-0.0053219451 0.24972299 0.75633734 4290949776
-0.0036064361 0.25064632 0.75933951 4291081363
-0.0018796785 0.25156966 0.76234162 4290357393
7.5850687e-05 0.25341365 0.76835912 4290357135
0.0019794954 0.25495082 0.77337128 4289962639
-0.1509154 0.24880926 0.75062472 4282069283
-0.14919308 0.24819513 0.74859762 4282594855
-0.14747825 0.24758099 0.74657053 4282594855
-0.1458803 0.24727525 0.74555039 4282792234
-0.14428607 0.24696951 0.74453032 4282068778
-0.14269561 0.24666375 0.74351025 4282200358
-0.14110889 0.24635799 0.74249017 4282660649
-0.13962778 0.24636066 0.74247694 4283449903
-0.13814667 0.24636334 0.74246371 4284107319
-0.13656744 0.24605757 0.74144375 4284895807
-0.13508821 0.24606024 0.74143052 4285750858
-0.13360897 0.2460629 0.74141729 4285817162
-0.13203725 0.24575712 0.74039739 4286079051
-0.13055989 0.24575979 0.74038422 4286209354
-0.12899379 0.24545398 0.73936433 4285880645
-0.12734459 0.24483973 0.73733789 4286210376
-0.12587285 0.24484238 0.73732471 4286736207
-0.12440111 0.24484503 0.7373116 4287197271
-0.12292938 0.24484769 0.73729843 4287855973
-0.121537 0.24515882 0.73829186 4288382579
-0.12006338 0.24516147 0.73827869 4289172356
-0.11866537 0.24547262 0.73927206 4289304715
-0.11718989 0.24547528 0.73925889 4289633682
-0.1157144 0.24547794 0.73924571 4290226590
-0.11430889 0.2457891 0.74023902 4290621609
-0.11283153 0.24579176 0.74022579 4291545542
-0.1114204 0.24610293 0.7412191 4291480522
-0.10994116 0.2461056 0.74120587 4291414477
-0.1085244 0.24641678 0.74219906 4291545549
-0.1071039 0.24672796 0.74319226 4291677390
-0.10567965 0.24703914 0.74418539 4291874513
-0.10419478 0.24704182 0.7441721 4291940819
-0.10270993 0.2470445 0.74415886 4291875540
-0.10117195 0.24673866 0.74313927 4291678677
-0.099688962 0.24674132 0.74312598 4291547091
-0.098255336 0.24705254 0.74411905 4291481554
-0.096817955 0.24736375 0.74511206 4291481297
-0.095422439 0.2479835 0.74711132 4291481297
-0.094150625 0.2495289 0.75212932 4291415249
-0.092776343 0.25045723 0.75513464 4291546321
-0.091550753 0.25261977 0.76216471 4292203480
nan nan nan 4281479728
-0.084077068 0.27022457 0.81943226 4281610803
-0.082478449 0.27053607 0.82042384 4281611315
-0.080826119 0.27023044 0.81940323 4281808693
-0.079223752 0.27054194 0.82039481 4281808693
-0.077638879 0.27116203 0.82239234 4281742900
-0.076007776 0.27116498 0.8223778 4282137401
-0.074394166 0.27147651 0.82336926 4282400319
-0.072761193 0.27147946 0.82335466 4282729284
-0.071100742 0.2708652 0.8213281 4282794823
-0.069471516 0.27086815 0.8213135 4283254860
-0.067832306 0.2705625 0.82029301 4283715922
-0.066204958 0.27056542 0.82027847 4283912788
-0.064577609 0.27056837 0.82026392 4283978838
-0.062950261 0.27057129 0.82024938 4284242523
-0.061322909 0.27057424 0.82023484 4284637025
-0.05969556 0.27057716 0.82022035 4284768869
nan nan nan 4284966764
-0.047597393 0.25084734 0.75573689 4291284176
-0.046122551 0.25023276 0.75371194 4293060587
-0.044618942 0.25023547 0.75369853 4292731622
-0.043135338 0.24992953 0.75267941 4292665829
-0.041633602 0.24993224 0.752666 4292666343
-0.040131867 0.24993496 0.75265259 4292863208
-0.038630132 0.24993765 0.75263917 4293060844
-0.037155904 0.2496317 0.75162011 4292929514
-0.035656042 0.2496344 0.7516067 4292535012
-0.03418744 0.24932843 0.7505877 4291021772
-0.032656319 0.24963981 0.75157994 4289179824
-0.031121451 0.2499512 0.75257206 4286482309
-0.029582832 0.25026259 0.75356418 4284574312
-0.028040463 0.25057399 0.7545563 4283784796
-0.026616244 0.24995933 0.75253183 4283587416
-0.025242029 0.24903595 0.74950194 4283455829
-0.0237903 0.24872994 0.74848312 4283652950
-0.022388576 0.24811524 0.74645883 4283718230
-0.020946221 0.24780922 0.74544013 4283718230
-0.019457608 0.24781191 0.74542683 4283915865
-0.017917115 0.2481233 0.74641889 4283718486
-0.016480384 0.24781728 0.74540019 4283520596
-0.014936141 0.24812868 0.74639225 4286942088
-0.013445654 0.24813136 0.74637896 4292401361
-0.011895787 0.24844278 0.74737096 4292728776
-0.010280914 0.24906294 0.74936831 4291277203
-0.008721672 0.24937437 0.75036019 4291211408
-0.0071586808 0.24968581 0.75135213 4291146641
-0.0054581799 0.25061473 0.75435454 4291015316
-0.003677675 0.25185242 0.75836205 4290423440
-0.0019528015 0.25278139 0.76136428 4290094478
7.3338801e-05 0.2549454 0.7683872 4289766296
-0.15091784 0.25030535 0.75065213 4281741864
-0.14930862 0.24999778 0.74963188 4281872938
-0.14759193 0.24937989 0.74760473 4282069547
-0.14599209 0.24907227 0.74658453 4281676075
-0.14439599 0.24876466 0.7455644 4281807144
-0.14280364 0.24845703 0.74454427 4281741348
-0.14131878 0.24845971 0.74453098 4281872676
-0.13973206 0.24815208 0.7435109 4282003491
-0.13824907 0.24815476 0.74349767 4281805854
-0.13666798 0.24784711 0.74247766 4280752652
-0.13509063 0.24753946 0.74145764 4280554758
-0.1336114 0.24754213 0.74144447 4281475859
-0.13203968 0.24723448 0.74042451 4283053864
-0.13047171 0.24692681 0.73940462 4284697147
-0.12890749 0.24661914 0.73838472 4285421638
-0.12734701 0.24631146 0.73736489 4285816908
-0.12579028 0.24600378 0.73634505 4286210895
-0.12432043 0.24600643 0.73633194 4286408272
-0.12293179 0.24631943 0.73732543 4286079564
-0.12146005 0.24632208 0.73731232 4286210890
-0.11998831 0.24632473 0.73729914 4286539599
-0.11851658 0.24632739 0.73728597 4286736466
-0.11711857 0.2466404 0.7382794 4287591777
-0.11564496 0.24664307 0.73826623 4288315501
-0.11417135 0.24664572 0.73825306 4288447603
-0.11276584 0.24695875 0.73924643 4288908928
-0.11129035 0.24696141 0.73923326 4290291610
-0.10981487 0.24696407 0.73922002 4290622121
-0.10840186 0.24727711 0.74021333 4290951863
-0.10698511 0.24759017 0.74120659 4291610051
-0.10550588 0.24759284 0.74119335 4292135629
-0.1040835 0.2479059 0.74218655 4292004814
-0.10260238 0.24790856 0.74217331 4291939794
-0.10112127 0.24791123 0.74216008 4291677392
-0.099640161 0.24791391 0.74214685 4291612112
-0.098159045 0.24791658 0.74213362 4291612111
-0.096772909 0.24854007 0.74413306 4291415502
-0.095424883 0.24947397 0.74713868 4291547090
-0.094153084 0.25102875 0.75215679 4291744469
-0.092778817 0.25196272 0.75516224 4290362046
-0.091473266 0.25351754 0.76018006 4287466384
nan nan nan 4281480239
-0.084108472 0.27216047 0.82046825 4281611825
-0.08253485 0.27278429 0.82246602 4281611569
-0.080903746 0.27278724 0.82245141 4281743155
-0.07927265 0.27279019 0.82243687 4281611825
-0.077662788 0.27310359 0.82342839 4281874486
-0.076010451 0.27279606 0.82240772 4282006072
-0.074396841 0.27310947 0.82339919 4282466623
-0.072763868 0.27311242 0.82338458 4282861125
-0.071117155 0.27280489 0.82236397 4282861381
-0.069486059 0.27280784 0.82234943 4283124553
-0.067844965 0.27250031 0.82132888 4283519311
-0.066215746 0.27250326 0.82131433 4283650897
-0.064592756 0.27281666 0.82230568 4283848276
-0.062966026 0.27313009 0.82329708 4284243034
-0.061335545 0.27344352 0.82428843 4284375135
-0.059700698 0.27344647 0.82427382 4284506464
-0.05806962 0.27251795 0.82124156 4284770151
nan nan nan 4285033324
-0.049132239 0.25173095 0.75376642 4292600035
-0.047657389 0.25111261 0.75174141 4292863721
-0.046190042 0.25049427 0.74971652 4292666599
-0.044693932 0.25049698 0.74970317 4292666599
-0.043197818 0.25049967 0.74968976 4292732392
-0.041701708 0.25050238 0.74967641 4292600806
-0.040205598 0.25050506 0.74966305 4292732392
-0.038735118 0.25019723 0.74864399 4292600807
-0.037240878 0.25019991 0.74863064 4292666600
-0.035776023 0.24989207 0.7476117 4292600806
-0.03428366 0.24989477 0.74759835 4292601063
-0.032758169 0.25020802 0.74859059 4292798698
-0.031263933 0.2502107 0.7485773 4292929770
-0.029732816 0.25052395 0.74956948 4292403681
-0.028236706 0.25052667 0.74955612 4291285199
-0.026740594 0.25052935 0.74954277 4289837753
-0.025286986 0.25022149 0.74852389 4288258719
-0.023837129 0.2499136 0.74750501 4286219135
-0.022437274 0.24929515 0.74548072 4284113501
-0.020948661 0.24929783 0.74546742 4283389265
-0.019510053 0.24898992 0.74444866 4283455057
-0.018023316 0.24899261 0.74443537 4283586643
-0.016536579 0.24899529 0.74442208 4288389789
-0.015049841 0.24899797 0.74440879 4292796377
-0.013505601 0.24931125 0.74540091 4292596420
-0.011957611 0.24962454 0.74639297 4291607970
-0.01034462 0.25024843 0.74839038 4291277971
-0.0087872557 0.25056174 0.74938238 4291146389
-0.0071611404 0.25118566 0.75137961 4291146649
-0.0054606488 0.25212023 0.75438213 4290554257
-0.0036114044 0.25367603 0.75939512 4290028431
-0.0018846653 0.25461063 0.76239741 4289569170
0.00014332825 0.25678775 0.76942056 4289438106
-0.13805154 0.24901336 0.74151123 4281413412
-0.1365723 0.24901603 0.74149799 4280294418
-0.13509306 0.2490187 0.74148482 4279833095
-0.13370818 0.24933356 0.74247837 4279635460
-0.13213459 0.24902403 0.74145836 4279503105
-0.13047412 0.2484023 0.73943168 4279699456
-0.12882116 0.24778053 0.737405 4280422918
-0.12726256 0.24747097 0.73638517 4281607702
-0.12562272 0.24684919 0.73435867 4283449390
-0.12415661 0.24685185 0.73434556 4284698686
-0.12260926 0.24654226 0.73332578 4285553737
-0.12114502 0.2465449 0.73331273 4286211409
-0.11975826 0.24685977 0.73430628 4286473555
-0.11829215 0.24686243 0.73429316 4286473811
-0.11682604 0.24686506 0.73428005 4286276176
-0.11535992 0.2468677 0.73426694 4285881159
-0.1139638 0.24718259 0.73526043 4286143558
-0.11249581 0.24718525 0.73524731 4286800463
-0.11102781 0.2471879 0.7352342 4287129682
-0.10955983 0.24719054 0.73522109 4288183652
-0.10809184 0.24719319 0.73520797 4289238402
-0.10662385 0.24719584 0.73519486 4289633163
-0.1052146 0.24751075 0.73618817 4289831576
-0.10374474 0.2475134 0.73617506 4290227365
-0.10227487 0.24751605 0.73616195 4291018937
-0.10080501 0.2475187 0.73614877 4291151039
-0.099335149 0.24752136 0.73613566 4291481030
-0.097914644 0.24783628 0.73712891 4291612364
-0.096537888 0.24846351 0.73912847 4291480781
-0.095108017 0.24877845 0.74012166 4291481295
-0.077559255 0.27317488 0.81842774 4281940790
-0.075955026 0.27349016 0.81941932 4282072376
-0.074364536 0.27411777 0.82141697 4282335291
-0.07276655 0.27474537 0.82341456 4282466877
-0.071133576 0.27474833 0.82339996 4282729795
-0.069500603 0.27475128 0.82338536 4283058760
-0.067857631 0.27444187 0.82236475 4283387979
-0.066226535 0.27444482 0.8223502 4283782737
-0.064601682 0.27476013 0.82334161 4284111448
-0.062968709 0.27476305 0.823327 4284309340
-0.061338227 0.27507836 0.82431841 4284243549
nan nan nan 4284572771
-0.049209725 0.25136021 0.74775904 4292666598
-0.047746122 0.25073808 0.7457341 4292732392
-0.046273764 0.25042838 0.74471503 4292732392
-0.044787027 0.25043106 0.74470174 4292732392
-0.043280285 0.25074616 0.74569422 4292798185
-0.041791674 0.25074884 0.74568093 4292797415
-0.040326815 0.25043911 0.74466187 4292863208
-0.038840078 0.25044179 0.74464864 4292863208
-0.037380841 0.25013205 0.74362963 4292797672
-0.035895981 0.25013474 0.74361634 4292666599
-0.034379866 0.25044984 0.74460876 4292600806
-0.032893129 0.25045252 0.74459547 4292666599
-0.031371389 0.25076765 0.74558783 4292600805
-0.029882776 0.25077033 0.74557453 4292469218
-0.028432915 0.25046057 0.74455565 4292403427
-0.026946178 0.25046325 0.74454236 4292469473
-0.02545944 0.25046593 0.74452907 4292403680
-0.024017079 0.25015616 0.74351025 4292140762
-0.022578467 0.24984638 0.74249148 4291746004
-0.021095479 0.24984907 0.74247819 4290824648
-0.019712493 0.24922682 0.74045396 4289114027
-0.018285129 0.24891703 0.73943532 4289836977
-0.016754016 0.24923216 0.74042755 4292992984
-0.015274779 0.24923483 0.74041432 4292267454
-0.013738041 0.24954997 0.74140656 4291148445
-0.01213818 0.25017759 0.74340409 4291081615
-0.010469569 0.25111771 0.74640703 4291277710
-0.0089159571 0.25143287 0.74739909 4291277457
-0.0072285989 0.25237304 0.75040179 4290488463
-0.0054631173 0.25362569 0.75440973 4289831050
-0.0036138888 0.25519088 0.7594229 4289765776
-0.0020284057 0.2555061 0.76041466 4289634965
-0.12554014 0.24800122 0.73337883 4279503617
-0.12399278 0.24768975 0.73235905 4279634432
-0.12244917 0.2473783 0.73133928 4280226309
-0.12098869 0.24738094 0.73132622 4281540883
-0.11960569 0.24769767 0.73231983 4283250986
-0.11814332 0.2477003 0.73230678 4284566843
-0.11660722 0.24738884 0.73128706 4285356104
-0.11521859 0.24770559 0.73228061 4285947728
-0.11375623 0.24770823 0.73226756 4286473555
-0.11236198 0.24802499 0.73326111 4286275661
-0.11089774 0.24802762 0.733248 4285946439
-0.1094335 0.24803026 0.73323494 4285684032
-0.10790677 0.24771878 0.73221534 4286276423
-0.1064444 0.24772142 0.73220223 4286934872
-0.10498204 0.24772406 0.73218918 4287198300
-0.10351968 0.24772669 0.73217613 4287724386
-0.10205732 0.24772933 0.73216307 4288515184
-0.10059495 0.24773197 0.73215002 4289501576
-0.099132583 0.24773461 0.73213691 4290159769
-0.09767022 0.24773724 0.73212385 4290488997
-0.096255347 0.24805404 0.73311716 4290622383
-0.094927967 0.24899916 0.73612326 4291150527
-0.093545586 0.24963014 0.73812282 4291743435
-0.092113845 0.24994697 0.73911601 4291283653
-0.067830317 0.27513027 0.81937653 4283585104
-0.066212967 0.27544746 0.82036805 4283782483
-0.064598113 0.27607885 0.82236558 4284046168
-0.062971383 0.27639604 0.82335699 4284309340
-0.061333414 0.27577049 0.82133043 4284441442
nan nan nan 4292731875
-0.050704535 0.25284985 0.74779975 4292731621
-0.049249675 0.25190976 0.74476886 4292797414
-0.047806066 0.25096962 0.74173808 4292797414
-0.046357453 0.25034374 0.73971319 4292863208
-0.044880092 0.25034642 0.73969996 4292929001
-0.043402728 0.25034907 0.73968679 4292929001
-0.041925363 0.25035176 0.73967355 4292863208
-0.040448003 0.25035441 0.73966038 4292863208
-0.038970638 0.25035706 0.73964721 4292863208
-0.037520774 0.25004545 0.73862827 4292929001
-0.036045287 0.2500481 0.7386151 4292797415
-0.034507301 0.25067937 0.74061328 4292731622
-0.033028062 0.25068203 0.74060005 4292863208
-0.031513825 0.250999 0.74159253 4292863208
-0.030032711 0.25100169 0.74157929 4292665829
-0.028551599 0.25100437 0.74156606 4292534242
-0.027111109 0.2506927 0.74054718 4292271070
-0.025631871 0.25069538 0.74053401 4292271070
-0.024197005 0.25038373 0.73951519 4292139483
-0.022719642 0.25038639 0.73950201 4292073689
-0.021290401 0.25007471 0.73848325 4292402653
-0.019864911 0.24976304 0.73746455 4292730849
-0.018443169 0.24945137 0.7364459 4293190627
-0.016917683 0.24976836 0.7374382 4292004025
-0.015444069 0.24977103 0.73742509 4291410078
-0.013855463 0.25040239 0.7394228 4291277202
-0.012259357 0.25103375 0.74142051 4291145871
-0.010655751 0.25166512 0.7434181 4291343250
-0.0090446472 0.25229651 0.74541563 4291014547
-0.0072960514 0.25355664 0.74942386 4289962895
-0.005532457 0.2548168 0.75343198 4289634191
-0.11368863 0.24885459 0.73128778 4282460701
-0.11222814 0.24885723 0.73127472 4284237366
-0.11076766 0.24885985 0.73126167 4285158470
-0.10937154 0.2491785 0.73225522 4285487689
-0.10778417 0.24854912 0.73022902 4285815111
-0.10632556 0.24855176 0.73021597 4286275920
-0.10486694 0.24855438 0.73020297 4286342736
-0.10340833 0.24855702 0.73018992 4286605646
-0.10194972 0.24855964 0.73017687 4286605391
-0.10049111 0.24856228 0.73016387 4286473292
-0.099032491 0.24856491 0.73015082 4287130192
-0.097573876 0.24856754 0.73013783 4288511591
-0.096115261 0.24857017 0.73012477 4288776049
-0.094747886 0.24920487 0.73212457 4289435523
-0.093329273 0.24952355 0.73311788 4290028177
-0.091823161 0.24921015 0.7320984 4290357403
-0.090520784 0.25047699 0.73611081 4290753706
-0.052234337 0.25307497 0.74381679 4292600289
-0.050760098 0.25276151 0.74279761 4292797414
-0.049302105 0.25213191 0.74077255 4292863207
-0.047880355 0.25087002 0.73673588 4292929000
-0.046424866 0.2505565 0.73571688 4292929001
-0.044955 0.25055915 0.73570371 4293060587
-0.043485139 0.2505618 0.73569059 4292929001
-0.042015273 0.25056446 0.73567748 4292797415
-0.040545411 0.25056711 0.73566431 4292929001
-0.039101169 0.25025362 0.73464543 4292863208
-0.037660673 0.24994008 0.73362654 4292863208
-0.036165189 0.25025889 0.7346192 4292731622
-0.034634709 0.25089389 0.73661751 4292929001
-0.03316297 0.25089654 0.73660439 4292929001
-0.031691231 0.2508992 0.73659122 4292797416
-0.030182622 0.25121805 0.73758376 4292600036
-0.028709007 0.2512207 0.73757058 4292468449
-0.027235394 0.25122336 0.73755741 4292271070
-0.025761781 0.25122604 0.73754424 4292205020
-0.024332536 0.25091249 0.73652548 4292139227
-0.022907043 0.25059894 0.73550671 4292467678
-0.021437179 0.25060159 0.7354936 4292730333
-0.019967316 0.25060424 0.73548049 4292992730
-0.018497452 0.25060689 0.73546737 4292530631
-0.017027587 0.25060955 0.7354542 4291739822
-0.015502105 0.2509284 0.73644656 4291146129
-0.013972873 0.25124729 0.73743892 4291211923
-0.012380523 0.2518824 0.73943669 4291211670
-0.01071943 0.25283375 0.74243987 4291014550
-0.0091102058 0.2534689 0.74443752 4290094222
-0.0072985049 0.25505275 0.74945134 4289766034
-0.11355103 0.24967934 0.72930121 4279963909
-0.11223054 0.25031769 0.73130155 4280292103
-0.11077005 0.25032035 0.73128849 4280883725
-0.10930956 0.25032297 0.73127544 4281738776
-0.10772407 0.24968985 0.72924918 4282724901
-0.10626733 0.24969247 0.72923619 4283776304
-0.10481059 0.24969511 0.72922313 4285026882
-0.10329698 0.24937984 0.72820359 4285948237
-0.10184211 0.24938247 0.7281906 4286605140
-0.10038725 0.24938509 0.72817761 4286670674
-0.098932378 0.24938771 0.72816461 4286735695
-0.097477518 0.24939033 0.72815162 4286210374
-0.096070148 0.24971087 0.72914505 4286539079
-0.094659038 0.25003141 0.73013848 4287064652
-0.093244173 0.25035197 0.73113191 4288117086
-0.091741808 0.25003666 0.73011243 4288380777
-0.090403192 0.25099307 0.73311859 4289235579
-0.052254263 0.25392383 0.74183208 4292665828
-0.050783768 0.25360847 0.7408129 4293060586
-0.049342014 0.25265709 0.73778194 4293126379
-0.04791151 0.25170571 0.73475105 4292929000
-0.04647601 0.25107229 0.73272616 4292929001
-0.04501177 0.25107494 0.73271304 4293126380
-0.04354753 0.25107759 0.73269999 4293126380
-0.042083289 0.25108021 0.73268688 4292929001
-0.040619053 0.25108287 0.73267382 4293060587
-0.039180432 0.25076747 0.73165494 4292929001
-0.037718065 0.25077009 0.73164183 4292994794
-0.036226332 0.25109079 0.73263454 4293060587
-0.034730852 0.25141147 0.73362726 4293060587
-0.033264738 0.25141412 0.73361415 4292994794
-0.031763628 0.25173482 0.73460674 4292797415
-0.030258773 0.25205553 0.73559934 4292534243
-0.02882765 0.25174013 0.73458052 4292336862
-0.027359663 0.25174278 0.7345674 4292271070
-0.025891673 0.25174543 0.73455429 4292205020
-0.024423685 0.25174806 0.73454118 4292401627
-0.023001937 0.25143263 0.73352247 4292795615
-0.021583939 0.2511172 0.73250377 4292992477
-0.020119699 0.25111985 0.73249066 4292662733
-0.018603593 0.25144058 0.73348314 4291411880
-0.017137479 0.25144321 0.73347008 4291082389
-0.015615749 0.25176394 0.7344625 4290884494
-0.014032779 0.25240278 0.73646045 4291344023
-0.012382945 0.25335976 0.73946381 4290949010
-0.010783101 0.25399864 0.74146158 4290094474
-0.0091757588 0.25463751 0.74345928 4289568651
-0.007300958 0.25654885 0.74947876 4289371795
-0.10766396 0.25082684 0.72826928 4280359439
-0.1018445 0.25083733 0.7282173 4282068253
-0.10033651 0.25052017 0.72719777 4283711793
-0.098883517 0.25052279 0.72718477 4285157953
-0.097430527 0.25052541 0.72717178 4285816908
-0.09597753 0.25052804 0.72715878 4286145102
-0.09452454 0.25053066 0.72714579 4286145610
-0.093159057 0.25117287 0.72914577 4286407243
-0.09170232 0.25117549 0.72913277 4286340935
-0.090285584 0.25149789 0.73012614 4286473037
-0.088826969 0.25150055 0.73011315 4286670416
-0.087368354 0.25150317 0.7301001 4287262294
-0.085909739 0.25150579 0.73008704 4287986022
-0.084451124 0.25150844 0.73007405 4288775799
-0.082992509 0.25151107 0.73006099 4289301888
-0.053765271 0.25412273 0.73784846 4292008152
-0.052317884 0.25316575 0.73481733 4292206047
-0.050860513 0.25284851 0.73379821 4292797414
-0.049419381 0.25221136 0.7317732 4292994281
-0.047985747 0.25157422 0.72974825 4292994794
-0.046543375 0.25125694 0.72872931 4292929001
-0.045086633 0.25125957 0.72871625 4292995564
-0.043629896 0.25126219 0.72870326 4293192173
-0.042173155 0.25126484 0.72869027 4293192173
-0.040692672 0.25158736 0.7296831 4293192173
-0.039259676 0.25127009 0.72866422 4293192173
-0.037802935 0.25127271 0.72865123 4293126380
-0.036316831 0.25159526 0.729644 4293060587
-0.034858216 0.25159788 0.72963095 4293192173
-0.033399601 0.25160053 0.72961795 4292797415
-0.031905994 0.25192308 0.73061067 4292797415
-0.030408641 0.25224566 0.73160338 4292599522
-0.028946277 0.25224829 0.73159027 4292336604
-0.027483912 0.25225094 0.73157722 4292336092
-0.026064035 0.25193363 0.73055845 4292728796
-0.024647908 0.2516163 0.72953975 4293122522
-0.023189295 0.25161895 0.7295267 4292201154
-0.021778792 0.25130162 0.72850806 4291016864
-0.020272065 0.2516242 0.72950065 4290950546
-0.018761586 0.25194681 0.73049325 4291015567
-0.017139884 0.25290933 0.73349696 4290884241
-0.015618157 0.25323194 0.73448944 4291015569
-0.013977706 0.2541945 0.73749298 4290752147
-0.012326006 0.25515708 0.74049646 4290094478
-0.010663057 0.2561197 0.74349982 4289831310
-0.0091150822 0.25644234 0.74449205 4289503120
-0.10023262 0.25132987 0.72521126 4280292876
-0.098834641 0.25165412 0.72620487 4280949265
-0.097383529 0.25165674 0.72619188 4281081105
-0.095884904 0.25133771 0.7251724 4282331424
-0.094481297 0.25166199 0.72616595 4283909685
-0.093073934 0.25198627 0.7271595 4285947980
-0.091620944 0.25198889 0.72714651 4286473809
-0.090167955 0.25199151 0.72713351 4286408274
-0.088676833 0.25167245 0.72611409 4286474063
-0.087153204 0.25103173 0.72408825 4286474056
-0.085705839 0.25103432 0.72407538 4286276421
-0.08422596 0.25071526 0.72305602 4286277454
-0.082811102 0.25103953 0.72404951 4286276943
-0.081392497 0.25136384 0.72504294 4286802006
-0.079943255 0.25136647 0.72502995 4287920994
-0.07856904 0.25233418 0.72803599 4288709485
-0.077229843 0.25394529 0.73305458 4289830799
-0.075765602 0.25394794 0.73304147 4290555294
-0.074281976 0.25362888 0.73202211 4290293410
-0.055266246 0.25398493 0.73285836 4291547601
-0.05380201 0.25398755 0.73284525 4291811289
-0.052390203 0.25205964 0.72679603 4292007123
-0.050926596 0.25238404 0.72778904 4292598747
-0.04949671 0.25174314 0.72576404 4292598747
-0.048088685 0.25078043 0.72273314 4292730592
-0.046643194 0.25078303 0.72272027 4292862950
-0.045179587 0.25110742 0.72371328 4293060074
-0.043712236 0.25143182 0.72470629 4293125867
-0.04224113 0.25175622 0.72569925 4293060587
-0.040766276 0.25208062 0.7266922 4293192172
-0.039313287 0.25208324 0.72667921 4293257966
-0.037887786 0.25176406 0.72566032 4293126380
-0.03643667 0.25176668 0.72564739 4292797415
-0.034954317 0.25209111 0.72664022 4292665829
-0.033501327 0.25209373 0.72662729 4292599779
-0.032013349 0.25241816 0.72762007 4292533986
-0.030558484 0.25242078 0.72760707 4292796899
-0.029142354 0.25210157 0.72658831 4292796898
-0.027689364 0.25210419 0.72657531 4292664544
-0.026278859 0.25178501 0.72555661 4292794579
-0.024872104 0.2514658 0.72453797 4292201151
-0.023422863 0.25146842 0.72452503 4291081117
-0.021973621 0.25147101 0.72451204 4291146129
-0.020474397 0.25179547 0.72550476 4291277712
-0.018867701 0.2527636 0.72850877 4291278482
-0.017196022 0.25405359 0.73251826 4291147157
-0.015676174 0.25437808 0.73351073 4290489232
-0.013980122 0.2556681 0.73752004 4289897098
-0.012209713 0.25728002 0.74253476 4289699982
-0.095839769 0.2524634 0.72419244 4280491799
-0.094438039 0.25278956 0.72518605 4280492312
-0.093032561 0.25311571 0.7261796 4281016083
-0.091581441 0.25311834 0.72616667 4282594083
-0.09009032 0.25279739 0.72514719 4280819218
-0.088602945 0.25247645 0.72412777 4281345305
-0.087046795 0.25150841 0.72109544 4281345305
-0.085570671 0.25118744 0.72007608 4281345559
-0.084130801 0.25119007 0.72006327 4283252271
-0.082690932 0.25119266 0.72005039 4284830272
-0.081308588 0.25184238 0.72205031 4285552453
-0.07989186 0.25216857 0.7230438 4286605396
-0.078496389 0.25281832 0.72504359 4286276943
-0.077070288 0.2531445 0.72603703 4286211661
-0.075661696 0.25379428 0.7280367 4286210630
-0.074226215 0.25412047 0.72903001 4288776051
-0.072769478 0.25412312 0.72901702 4286473036
-0.071328372 0.25444934 0.73001027 4289831310
-0.069883518 0.25477555 0.73100352 4290160793
-0.068423033 0.25477818 0.73099047 4290556582
-0.06696254 0.25478083 0.73097742 4291346873
-0.065510191 0.25510705 0.73197055 4291678149
-0.064047821 0.2551097 0.7319575 4291613642
-0.062585458 0.25511232 0.73194444 4291746004
-0.061123092 0.25511497 0.73193139 4291614418
-0.059659451 0.25447038 0.72990602 4291083955
-0.058202073 0.25414938 0.72888684 4291281339
-0.056748446 0.25382838 0.72786772 4291150016
-0.055298567 0.25350738 0.72684866 4291150531
-0.053852435 0.25318637 0.7258296 4291677129
-0.052418791 0.25254172 0.72380447 4292268237
-0.050982036 0.25222069 0.72278553 4292926166
-0.049586486 0.25092876 0.71874851 4292795865
-0.048177216 0.25028405 0.71672362 4292993503
-0.046742972 0.25028664 0.71671081 4292994018
-0.045290619 0.25061288 0.71770394 4293191143
-0.043814532 0.25126278 0.71970308 4293191145
-0.042352807 0.25158903 0.72069615 4293126122
-0.040887333 0.25191531 0.72168916 4293389551
-0.039443716 0.2519179 0.72167629 4293257966
-0.038000099 0.25192049 0.72166342 4293126380
-0.036556482 0.25192311 0.72165048 4292863208
-0.035112865 0.25192571 0.72163761 4292600036
-0.033636142 0.25225198 0.72263056 4292599778
-0.032190651 0.25225461 0.72261763 4292730594
-0.03074516 0.2522572 0.72260469 4292664543
-0.029338401 0.25193614 0.72158599 4292926946
-0.027935393 0.25161505 0.72056735 4292991966
-0.026578616 0.25097024 0.71854293 4292728013
-0.025140624 0.25097284 0.71853006 4291740337
-0.0236564 0.25129914 0.71952295 4291082401
-0.022216534 0.25130174 0.71951008 4290950295
-0.020676704 0.25195175 0.72150862 4291146899
-0.019025661 0.2532492 0.72551841 4291014805
-0.017359618 0.25454667 0.72952813 4290225805
-0.01578979 0.25519675 0.73152637 4289633926
-0.013982539 0.25714171 0.73754704 4289371790
-0.095794633 0.25358537 0.72321236 4279900949
-0.094394781 0.25391337 0.72420603 4280164378
-0.093034938 0.25456682 0.72620624 4280230168
-0.091625713 0.25489485 0.72719979 4280427033
-0.090132706 0.25457206 0.72618032 4280558363
-0.088643454 0.25424924 0.72516084 4280886301
-0.087085426 0.25327557 0.72212839 4280886042
-0.085607417 0.25295275 0.72110903 4280557331
-0.084133163 0.25262991 0.72008967 4280491023
-0.082723938 0.25295794 0.72108322 4281279510
-0.081310958 0.253286 0.72207677 4281870618
-0.07989423 0.25361404 0.72307032 4282790437
-0.078498766 0.25426754 0.72507018 4283777072
-0.077072665 0.25459561 0.72606361 4284830782
-0.075642817 0.25492367 0.72705704 4285423170
-0.074209213 0.25525177 0.72805041 4286211657
-0.072754346 0.25525439 0.72803742 4286408522
-0.071299486 0.25525701 0.72802442 4286276676
-0.069844618 0.25525963 0.72801143 4286276164
-0.068401642 0.25558773 0.72900468 4286407241
-0.066944905 0.25559035 0.72899169 4286407240
-0.06548816 0.25559297 0.72897863 4286735952
-0.064025156 0.25527012 0.72795939 4287524702
-0.062570289 0.25527275 0.7279464 4288380270
-0.061112911 0.2549499 0.72692722 4289302141
-0.05965928 0.25462702 0.72590804 4290355859
-0.058209397 0.25430414 0.72488892 4290817181
-0.056760155 0.25430676 0.72487599 4290620315
-0.055315897 0.25398386 0.72385693 4290160285
-0.05387539 0.25366098 0.72283787 4289173652
-0.052447364 0.25301257 0.72081274 4288976527
-0.05101623 0.25268966 0.7197938 4289042838
-0.049601328 0.25204122 0.71776879 4289503906
-0.048208281 0.25106725 0.71473783 4291674566
-0.046777789 0.25106984 0.71472508 4292859608
-0.045329191 0.25139794 0.71571827 4293847534
-0.043856859 0.25205159 0.71771747 4293717487
-0.042398885 0.25237972 0.7187106 4293127403
-0.040937163 0.25270784 0.71970373 4293455344
-0.039497297 0.25271043 0.71969086 4293192426
-0.038029946 0.25303856 0.72068393 4293127149
-0.036588207 0.25304118 0.72067106 4292666599
-0.035146464 0.25304377 0.72065818 4292731622
-0.033704724 0.25304636 0.72064531 4292665571
-0.032228 0.25337452 0.72163826 4292665314
-0.030784385 0.25337714 0.72162539 4292795617
-0.029418228 0.25272861 0.71960086 4293057501
-0.027978363 0.2527312 0.71958798 4292661962
-0.026623454 0.25208268 0.71756351 4291542957
-0.025187338 0.25208527 0.71755069 4291147418
-0.023704991 0.25241342 0.71854359 4291015828
-0.022266999 0.25241601 0.71853077 4291146899
-0.020679072 0.25339535 0.72153509 4290751378
-0.01902804 0.2547003 0.72554505 4290290828
-0.01736201 0.25600529 0.72955489 4289765514
-0.015792189 0.25665909 0.7315532 4289503117
-0.013984956 0.25861531 0.7375741 4289240979
-0.088569544 0.25504386 0.72317433 4280492829
-0.087160319 0.25537378 0.72416794 4280624669
-0.085678563 0.25504908 0.72314847 4280493339
-0.08426559 0.25537902 0.72414207 4280492826
-0.082879506 0.25603625 0.72614211 4280755482
-0.08145716 0.25636619 0.7271356 4280951833
-0.080004171 0.25636879 0.7271226 4280886042
-0.078576192 0.25669876 0.7281161 4280820504
-0.077121332 0.25670138 0.7281031 4281214490
-0.075666465 0.256704 0.72809011 4281607705
-0.074211597 0.25670663 0.72807711 4281805853
-0.072756737 0.25670925 0.72806406 4283581483
-0.071286224 0.25638452 0.72704476 4285093435
-0.069833234 0.25638714 0.72703177 4286013768
-0.068380244 0.25638977 0.72701877 4286539857
-0.066927254 0.25639239 0.72700578 4286538574
-0.065466121 0.25606766 0.72598654 4286604367
-0.064008735 0.25574291 0.7249673 4286473806
-0.062555097 0.25541818 0.72394812 4286604624
-0.061102696 0.25476605 0.7219227 4286670419
-0.059658434 0.25444129 0.72090358 4287131224
-0.058219153 0.25378916 0.71887833 4287525977
-0.056784268 0.25346437 0.71785933 4288119141
-0.055353131 0.25313959 0.71684033 4289171836
-0.053918887 0.25314218 0.71682751 4289961871
-0.052493375 0.25281739 0.71580857 4289961869
-0.05107161 0.25249258 0.71478963 4289829771
-0.049666077 0.25184038 0.71276468 4289304453
-0.048268043 0.25118816 0.71073973 4288515197
-0.046845049 0.25119072 0.71072704 4287660663
-0.045403954 0.25152069 0.71172035 4287858308
-0.043959107 0.25185066 0.71271366 4289306529
-0.042510509 0.25218067 0.71370697 4293123806
-0.041081894 0.25218323 0.71369416 4293978857
-0.039653275 0.25218579 0.7136814 4293716197
-0.038224656 0.25218838 0.71366864 4293387750
-0.036766686 0.25251839 0.71466184 4293125350
-0.035304967 0.25284839 0.71565497 4292731364
-0.033872601 0.25285098 0.71564221 4292927973
-0.032405253 0.25318098 0.71663529 4293255650
-0.030971013 0.25318357 0.71662247 4293122776
-0.029575497 0.25285873 0.71560377 4292267974
-0.02814313 0.25286129 0.71559101 4291346347
-0.026795715 0.25220901 0.71356654 4290819221
-0.025367098 0.25221157 0.71355379 4290687628
-0.023846028 0.25286904 0.71555263 4291213203
-0.02241366 0.25287163 0.71553981 4291343766
-0.020831365 0.2538566 0.7185443 4290817426
-0.019134121 0.2554965 0.72356021 4289831309
-0.017471854 0.25680897 0.72757018 4289503119
-0.015905788 0.25746652 0.7295686 4289175183
-0.061107587 0.2565389 0.72295547 4286341712
-0.059659503 0.25522456 0.71891755 4286604881
-0.058222741 0.25489789 0.71789849 4286802769
-0.056792825 0.254242 0.71587324 4286671433
-0.055370413 0.25358608 0.71384799 4286671433
-0.053948648 0.25325939 0.71282905 4286407750
-0.052530631 0.2529327 0.71181017 4286604879
-0.051105764 0.25293529 0.71179742 4288315750
-0.049705844 0.25227931 0.70977247 4288315750
-0.048299078 0.25195262 0.70875365 4289368948
-0.046912286 0.25129664 0.70672876 4289894263
-0.04547869 0.25162846 0.70772219 4290026374
-0.044061322 0.25163102 0.70770955 4289763982
-0.042622104 0.25196284 0.70870292 4289305487
-0.041202862 0.2519654 0.70869023 4289239699
-0.039783616 0.25196797 0.70867753 4290161833
-0.038364373 0.25197053 0.70866489 4291939271
-0.036945131 0.25197309 0.7086522 4292730589
-0.035494663 0.25230494 0.70964545 4292862693
-0.034073543 0.2523075 0.70963275 4293059046
-0.03261745 0.25263938 0.71062601 4292992737
-0.031157609 0.25297126 0.7116192 4293123802
-0.029732741 0.25297382 0.7116065 4291477159
-0.028307872 0.25297639 0.71159375 4291082392
-0.026883004 0.25297898 0.71158105 4290818449
-0.025458137 0.25298154 0.7115683 4291277715
-0.023940822 0.25364277 0.7135672 4291343253
-0.022464108 0.25397468 0.71456027 4290620044
-0.020833723 0.25529459 0.71857071 4289699201
-0.019136494 0.25694385 0.72358674 4289502349
-0.055367783 0.25534579 0.71488047 4287000147
-0.053944137 0.25501725 0.71386147 4286802770
-0.052532967 0.25435758 0.71183628 4286802770
-0.051118698 0.25402901 0.7108174 4286934097
-0.049708176 0.25370044 0.70979851 4286670669
-0.048315752 0.2530407 0.70777351 4286276424
-0.046930831 0.25238097 0.70574856 4286407239
-0.04551721 0.25238353 0.70573598 4287131215
-0.044103593 0.25238606 0.70572335 4287789152
-0.042689972 0.25238863 0.70571071 4289764484
-0.041300077 0.25206 0.70469201 4289896334
-0.039888334 0.25206256 0.70467937 4289370506
-0.038476586 0.25206509 0.70466679 4290028183
-0.037064843 0.25206766 0.70465416 4290687145
-0.035653099 0.25207019 0.70464158 4291346880
-0.034208257 0.25240391 0.70563489 4292203215
-0.032794639 0.25240648 0.70562232 4292598222
-0.031344175 0.2527402 0.70661563 4292070585
-0.02988996 0.25307393 0.70760888 4291674027
-0.028431995 0.25340769 0.70860213 4291410588
-0.027012752 0.25341025 0.70858949 4291344535
-0.025549164 0.25374401 0.70958269 4291409040
-0.024035605 0.25440899 0.71158171 4291079564
-0.022610737 0.25441155 0.71156895 4290224007
-0.055360187 0.2574423 0.71691924 4282527513
-0.05393279 0.25711188 0.71590018 4283777320
-0.052517861 0.25644845 0.71387494 4285355580
-0.051110435 0.25578499 0.71184969 4286012745
-0.049710508 0.25512153 0.70982456 4286012745
-0.048318077 0.25445807 0.70779949 4286604882
-0.046933148 0.25379458 0.70577455 4286604881
-0.045519531 0.25379714 0.70576191 4286670929
-0.044125881 0.25346667 0.70474315 4286670929
-0.042714134 0.2534692 0.70473051 4286604878
-0.041326109 0.25313872 0.70371181 4286670158
-0.039941836 0.25280821 0.7026931 4286868052
-0.03853384 0.25281075 0.70268053 4288118893
-0.037125845 0.25281331 0.70266795 4289304454
-0.035717852 0.25281584 0.70265538 4289567884
-0.034309857 0.25281838 0.7026428 4290291606
-0.032866895 0.25315398 0.70363623 4290751639
-0.031457026 0.25315651 0.70362365 4291409566
-0.030008437 0.25349212 0.70461702 4291277207
-0.028556101 0.25382772 0.70561033 4291145618
-0.027100014 0.25416335 0.70660365 4291671194
-0.025684521 0.25416589 0.70659101 4291473814
-0.02422281 0.25450152 0.70758426 4291209619
-0.022805441 0.25450408 0.70757157 4284367412
-0.04829172 0.25654522 0.70983797 4283119652
-0.046886817 0.25621289 0.70881903 4284895547
-0.045485664 0.25588053 0.70780021 4285881929
-0.044108231 0.25521329 0.7057752 4285881929
-0.042738292 0.25454602 0.70375025 4286342480
-0.041352138 0.25421366 0.70273155 4283646512
-0.039944142 0.25421619 0.70271897 4285487433
-0.038563613 0.25388384 0.70170027 4286210130
-0.037157495 0.25388637 0.70168769 4286145362
-0.035782591 0.25355399 0.70066905 4286605653
-0.034378346 0.25355652 0.70065653 4290354568
-0.032974102 0.25355905 0.70064402 4290486149
-0.031569853 0.25356159 0.70063144 4289170543
-0.030126896 0.25389904 0.70162487 4289102953
-0.028720776 0.25390157 0.70161235 4289233776
-0.027272191 0.25423905 0.70260572 4289038200
-0.025864197 0.25424162 0.70259315 4286999390
-0.085325904 0.30874753 0.86215836 4279900691
-0.083675504 0.30942398 0.86415637 4279900690
-0.081942506 0.30909038 0.8631345 4280032275
-0.080213256 0.30875677 0.8621127 4280163859
-0.078487754 0.30842313 0.8610909 4280031502
-0.076746598 0.30775279 0.85906261 4279898888
-0.075030468 0.30741912 0.85804087 4279831811
nan nan nan 4279962882
nan nan nan 4279700482
nan nan nan 4279831810
-0.041259594 0.2569688 0.70678204 4284501050
-0.039869688 0.25663456 0.70576322 4279962881
-0.038483534 0.2563003 0.70474446 4280423432
-0.037101127 0.25596607 0.70372576 4281277971
-0.035753682 0.25529501 0.70170093 4282592548
-0.03434756 0.25529754 0.70168835 4284433724
-0.033011366 0.25462648 0.6996637 4286275156
-0.031645831 0.25429219 0.69864511 4284037424
-0.030245336 0.25429472 0.6986326 4283181603
-0.028804254 0.25463405 0.69962609 4283905325
-0.027444346 0.25429979 0.69860756 4283249196
-0.085357487 0.3107903 0.86319631 4279704083
-0.083705217 0.31147051 0.86519438 4279703569
-0.081970342 0.31113502 0.86417246 4280032533
-0.080239214 0.31079954 0.8631506 4280098069
-0.07853312 0.31080261 0.86313534 4279834383
-0.076807618 0.31046712 0.86211354 4279702539
-0.075103395 0.31047019 0.86209828 4279636233
-0.073383518 0.31013468 0.86107647 4279635718
-0.071667388 0.30979916 0.86005473 4279701510
-0.06996692 0.3098022 0.86003959 4279701254
-0.068266451 0.30980527 0.86002439 4279963655
-0.066557825 0.30946976 0.85900271 4279635716
-0.064846657 0.3087956 0.8569746 4279438339
-0.063147403 0.30846006 0.85595298 4279569155
nan nan nan 4279962881
-0.032978706 0.2563675 0.70069551 4279108352
-0.031611294 0.25603136 0.69967687 4278977280
-0.030247632 0.25569522 0.69865829 4279371267
-0.028887721 0.25535905 0.6976397 4279502597
-0.0274891 0.25536156 0.69762725 4279634697
-0.085417859 0.31317726 0.86524105 4279769876
-0.083734937 0.31352079 0.86623245 4279572495
-0.081973143 0.31284299 0.86420381 4279900947
-0.080242008 0.31250563 0.86318189 4279966740
-0.078557208 0.31284916 0.86417329 4279769104
-0.076829821 0.31251177 0.86315137 4279440139
-0.075123735 0.31251484 0.86313617 4279374346
-0.073401973 0.31217748 0.86211431 4279439113
-0.071683966 0.31184009 0.86109251 4279505161
-0.069993541 0.31218362 0.86208385 4279570694
-0.068289325 0.31218669 0.86206865 4279504903
-0.066576943 0.3118493 0.86104691 4279440393
-0.064868309 0.31151187 0.86002517 4279571466
-0.063163422 0.31117445 0.85900348 4279832328
-0.061457209 0.31015608 0.85596889 4279832582
-0.032946054 0.25811231 0.70172739 4279110659
-0.031576764 0.25777429 0.70070875 4279044610
-0.030249929 0.25709569 0.69868398 4278782210
-0.028849434 0.25709823 0.69867146 4278914052
-0.027491393 0.25676018 0.69765288 4279045638
-0.085391872 0.3145448 0.86426562 4279638288
-0.083683908 0.31454787 0.86425036 4279704081
-0.081925854 0.31386632 0.86222172 4279966996
-0.080221638 0.31386939 0.86220646 4279966740
-0.07856001 0.31455711 0.86420459 4279769361
-0.076852039 0.3145602 0.86418933 4279440396
-0.075144075 0.31456327 0.86417407 4279243017
-0.073420435 0.314224 0.86315221 4279374089
-0.071700551 0.31388476 0.86213034 4279308810
-0.070008256 0.31423017 0.86312175 4279374346
-0.068302162 0.31423324 0.86310649 4279373833
-0.066596068 0.31423631 0.86309123 4279504904
-0.064877391 0.3135547 0.86106294 4279439623
-0.063170627 0.3132154 0.8600412 4279439879
-0.061465073 0.31253374 0.85801297 4279636489
-0.059767686 0.31219444 0.85699135 4279767562
-0.058072843 0.31219751 0.85697621 4279964938
-0.056377999 0.31220055 0.85696107 4280424719
-0.054678202 0.31254598 0.85795236 4280819217
-0.052974652 0.31289142 0.85894358 4281674269
-0.051284768 0.31255212 0.85792202 4281674269
nan nan nan 4280621581
-0.030020013 0.2605508 0.70474648 4278913798
-0.028648846 0.2602109 0.70372778 4278782469
-0.027281428 0.25987101 0.70270908 4278979847
-0.087133311 0.31659386 0.86531901 4280164632
-0.08542347 0.31659693 0.86530375 4279704081
-0.083686709 0.31625584 0.86428171 4279638288
-0.081953697 0.31591472 0.86325973 4279966740
-0.080247603 0.31591779 0.86324447 4280032533
-0.078584105 0.31660926 0.86524266 4279769361
-0.07689368 0.31695655 0.86623406 4279440396
-0.075181969 0.31695965 0.86621881 4279374346
-0.073454581 0.31661853 0.86519682 4279308810
-0.071730942 0.31627738 0.8641749 4279308810
-0.07002297 0.31628048 0.86415964 4279374603
-0.068315007 0.31628355 0.86414438 4279308810
-0.066607036 0.31628662 0.86412913 4279243017
-0.064892776 0.31594548 0.86310732 4279440139
-0.063182265 0.31560433 0.86208552 4279440139
-0.061472949 0.31491894 0.86005718 4279505932
-0.059771139 0.31423351 0.85802895 4279571725
-0.058073219 0.31458083 0.85902029 4279834383
-0.056371547 0.31492814 0.86001164 4280163090
-0.054661177 0.31561971 0.86200935 4280689176
-0.052943304 0.31631127 0.86400706 4281412899
-0.051235337 0.31631437 0.8639918 4281413156
-0.049527369 0.31631744 0.86397654 4280228881
-0.047819402 0.31632051 0.86396128 4279570182
-0.046125762 0.31597933 0.86293966 4279832842
-0.044435874 0.31563815 0.86191803 4279569159
-0.042731654 0.31564122 0.86190277 4279568645
-0.041027438 0.31564429 0.86188757 4279108352
-0.087320149 0.32038003 0.87139136 4279835667
-0.085512668 0.31934497 0.86835557 4279572495
-0.083743356 0.31865591 0.86632663 4279703568
-0.082031637 0.31865901 0.86631137 4279835154
-0.080343097 0.31900817 0.86730283 4279966740
-0.078650802 0.31935734 0.86829424 4279374603
-0.076935336 0.31936044 0.86827892 4279308810
-0.075237416 0.3197096 0.86927032 4279243017
-0.073504403 0.31936663 0.86824828 4279243017
-0.071747541 0.31833145 0.86521292 4279308810
-0.0700377 0.31833452 0.86519766 4279308810
-0.068317808 0.31799152 0.86417574 4279308810
-0.066609837 0.31799459 0.86416048 4279243017
-0.064901873 0.31799766 0.86414522 4279308810
-0.06319391 0.31800076 0.86412996 4279440139
-0.061480839 0.31731161 0.86210155 4279505932
-0.059775949 0.31696856 0.86107975 4279571725
-0.058073603 0.31697163 0.86106455 4279637775
-0.05637126 0.3169747 0.86104935 4279900947
-0.054663971 0.31732392 0.86204064 4280558620
-0.052946106 0.31801924 0.86403841 4281216294
-0.05122944 0.31836846 0.86502963 4281413930
-0.049509022 0.31871766 0.8660208 4280097814
-0.047797307 0.31872076 0.86600548 4279111431
-0.046085592 0.31872386 0.86599022 4279177482
-0.044373874 0.31872693 0.8659749 4279044870
-0.04268023 0.31838387 0.86495322 4278913796
nan nan nan 4279045383
nan nan nan 4279637520
-0.087322973 0.32210112 0.87142295 4279638289
-0.085544281 0.32140836 0.86939389 4279440397
-0.083773084 0.32071558 0.86736488 4279835154
-0.082034446 0.3203707 0.86634272 4279966740
-0.080345906 0.32072175 0.86733425 4280032533
-0.078653619 0.32107279 0.86832571 4279308810
-0.076957576 0.32142386 0.86931717 4279243017
-0.075240232 0.32142693 0.8693018 4279308553
-0.073491536 0.32073411 0.86727303 4279243017
-0.071750343 0.32004127 0.86524427 4279374604
-0.070028573 0.3196964 0.86422229 4279308812
-0.06832061 0.31969947 0.86420703 4279440398
-0.066612639 0.31970257 0.86419177 4279177225
-0.064904675 0.31970564 0.86417651 4279308811
-0.063196704 0.3197087 0.86416125 4279374603
-0.061483633 0.31901583 0.86213279 4279440139
-0.059778061 0.31832293 0.86010438 4279571725
-0.058078788 0.31797799 0.85908264 4279637517
-0.056380197 0.31798106 0.85906744 4280032275
-0.054671712 0.31868011 0.86106533 4280558876
-0.052962549 0.31903118 0.86205667 4281282600
-0.05124094 0.31973028 0.86405444 4281545774
-0.049522404 0.32008138 0.86504573 4280230170
-0.047800116 0.32043245 0.86603689 4278914568
-0.046088398 0.32043555 0.86602163 4278848774
-0.044392876 0.32009062 0.86499989 4278914311
-0.042701107 0.31974569 0.86397815 4278979847
-0.041013084 0.31940073 0.86295652 4278979591
-0.03932881 0.3190558 0.86193484 4279045385
-0.037671983 0.3183628 0.85990691 4278913285
nan nan nan 4279901206
nan nan nan 4279966485
nan nan nan 4279243019
-0.085633509 0.32417512 0.872446 4279243019
-0.083883613 0.32382843 0.87142378 4279703569
-0.082137465 0.32348171 0.87040156 4279900947
-0.080464609 0.32418445 0.87239981 4279703311
-0.078762949 0.3245374 0.87339127 4279308553
-0.077038109 0.3245405 0.87337583 4279242759
-0.07531327 0.3245436 0.87336046 4279242760
-0.073557071 0.32384706 0.87133151 4279439884
-0.071780756 0.32245079 0.86728913 4279308556
-0.070055239 0.32210404 0.86626709 4280756258
-0.068323411 0.32140744 0.86423838 4282466876
-0.06661544 0.32141051 0.86422312 4281019430
-0.064907476 0.32141358 0.86420786 4279374604
-0.063203938 0.32176653 0.86519927 4279374604
-0.061491542 0.32141975 0.86417735 4279374603
-0.059782892 0.32107297 0.86315548 4279571725
-0.058077995 0.32072619 0.86213362 4279769102
-0.056373779 0.32072926 0.86211836 4280098067
-0.054669559 0.32073233 0.86210316 4280558618
-0.052965343 0.32073539 0.86208797 4281413929
-0.051243741 0.32143822 0.86408579 4281808687
-0.04951464 0.32214108 0.86608362 4280756258
-0.047778036 0.32284394 0.86808133 4279045897
-0.046048254 0.32319695 0.8690725 4278782981
-0.044347104 0.32285014 0.86805069 4278849031
-0.042649705 0.32250333 0.86702889 4278979847
-0.040995941 0.32145673 0.86399424 4278782981
-0.039309788 0.32110989 0.86297256 4278651652
-0.037627388 0.32076308 0.86195093 4278848518
-0.035974301 0.3200663 0.85992289 4278782726
-0.034356158 0.31901965 0.85688859 4278782726
-0.032661315 0.31902269 0.85687345 4278848519
-0.030935282 0.31937566 0.85786462 4280953894
-0.029205497 0.31972867 0.85885578 4279637777
nan nan nan 4279110920
nan nan nan 4279111689
-0.085665144 0.32624978 0.87348455 4279571984
-0.083913371 0.32590118 0.87246221 4279835154
-0.082190402 0.32590431 0.87244684 4280032276
-0.080490619 0.32625911 0.8734383 4279769104
-0.078787088 0.32661393 0.87442976 4279374346
-0.077040941 0.32626534 0.87340748 4279308553
-0.07529854 0.32591674 0.87238526 4279308553
-0.073544212 0.32521641 0.87035626 4279440139
-0.071797378 0.32451609 0.86832738 4279439885
-0.07005804 0.32381573 0.8662985 4281216809
-0.068326212 0.32311538 0.86426973 4281874739
-0.066618241 0.32311848 0.86425447 4282269497
-0.064910278 0.32312155 0.86423922 4279374605
-0.063202307 0.32312462 0.86422396 4279374604
-0.061496902 0.32347944 0.86521536 4279374603
-0.059787061 0.32348254 0.8652001 4279637518
-0.05807722 0.32348561 0.86518478 4279834895
-0.056367375 0.32348871 0.86516953 4280163347
-0.054657534 0.32349178 0.86515427 4280887070
-0.052954506 0.32314312 0.8641324 4281742381
-0.051237851 0.32349795 0.86512369 4282203445
-0.04950688 0.32420456 0.86712158 4281479468
-0.047755972 0.32526293 0.87012589 4278914054
-0.045993812 0.32632133 0.87313008 4278782981
nan nan nan 4278848774
-0.042544134 0.32632756 0.87309927 4278848774
-0.040938925 0.32422 0.86704499 4278782981
-0.039312586 0.32281598 0.86300385 4278848774
-0.037653871 0.32211548 0.86097574 4278848774
-0.035977092 0.32176676 0.85995412 4278717188
-0.034331501 0.32106626 0.85792607 4278717188
-0.032664094 0.32071754 0.85690451 4279177739
-0.030938063 0.3210724 0.85789573 4280625185
-0.029208284 0.32142726 0.85888696 4278848518
-0.087576918 0.33009285 0.87957335 4279111946
-0.085667968 0.32797462 0.8735162 4279111946
-0.083916195 0.32762414 0.8724938 4279769363
-0.082193226 0.32762727 0.87247843 4279966740
-0.080470264 0.32763037 0.87246305 4279703311
-0.078725986 0.3272799 0.87144077 4279308553
-0.076966025 0.32657585 0.86941165 4279242760
-0.075213559 0.32587177 0.86738265 4279308553
-0.073484287 0.32552129 0.86636049 4279242505
-0.071758755 0.32517079 0.86533839 4278979591
-0.070048913 0.32517385 0.86532313 4281677360
-0.068318948 0.32446975 0.8632943 4284177494
-0.066612855 0.32447281 0.86327904 4282466876
-0.064906769 0.32447591 0.86326379 4279177226
-0.063200675 0.32447898 0.86324853 4279308812
-0.061497144 0.32483566 0.86423999 4279440139
