# .PCD v0.7 - Point Cloud Data file format
VERSION 0.7
FIELDS x y z rgba
SIZE 4 4 4 4
TYPE F F F U
COUNT 1 1 1 1
WIDTH 1072
HEIGHT 1
VIEWPOINT 0 0 0 1 0 0 0
POINTS 1072
DATA ascii
0.097872391 0.33663478 0.79301262 4292467670
0.099260516 0.33624053 0.79199278 4292599256
0.10083538 0.33624339 0.79197872 4292599256
0.10221788 0.33584914 0.79095888 4292467670
0.10359664 0.33545488 0.78993905 4292533206
0.10516774 0.33545771 0.78992504 4292533206
0.10673884 0.33546054 0.78991097 4292467413
0.10830995 0.3354634 0.78989697 4292467413
0.11008278 0.33586332 0.79088861 4292467413
0.11165576 0.33586615 0.79087454 4292533463
0.11322873 0.33586898 0.79086047 4292599256
0.11459436 0.33547473 0.78984082 4292336597
0.11616547 0.33547756 0.78982675 4292402390
0.11752548 0.33508328 0.78880715 4292402134
0.11930768 0.33548322 0.78979868 4292401877
0.12087879 0.33548605 0.78978467 4292336084
0.12244989 0.33548889 0.7897706 4292401877
0.12402099 0.33549172 0.7897566 4292336084
0.12581258 0.33589169 0.79074806 4292336084
0.12738554 0.33589453 0.79073399 4292138705
0.12918274 0.3362945 0.79172546 4292072912
0.1305315 0.33590022 0.79070592 4292072912
0.13210449 0.33590305 0.79069185 4292073167
0.13321777 0.33511159 0.78866696 4291875788
0.13478701 0.33511442 0.7886529 4291744202
0.13635623 0.33511725 0.78863889 4291678410
0.13792546 0.33512008 0.78862488 4291546568
0.13949469 0.33512291 0.78861088 4291349189
0.14106393 0.33512574 0.78859687 4291085760
0.14263315 0.33512858 0.7885828 4291085760
0.14420238 0.33513141 0.78856879 4290822588
0.14552677 0.33473706 0.7875495 4290691002
0.14709412 0.33473986 0.78753549 4290625209
0.14866148 0.3347427 0.78752148 4290493622
0.15022883 0.33474553 0.78750747 4290296500
0.15179619 0.33474836 0.78749347 4290033584
0.15336354 0.33475119 0.78747946 4289967791
0.1549309 0.33475402 0.78746545 4289967791
0.15675622 0.33515403 0.78845668 4289770412
0.1585853 0.33555406 0.78944778 4289770412
0.16041811 0.33595413 0.79043889 4289836205
0.16225469 0.33635417 0.79143 4290033584
0.16356407 0.33595979 0.79041082 4289967278
0.16513705 0.33596262 0.79039675 4290033071
0.16644081 0.33556825 0.78937763 4289967278
0.16774082 0.33517385 0.78835851 4290033327
0.16958302 0.33557391 0.78934956 4290033584
0.17115413 0.33557674 0.78933549 4289967791
0.17272523 0.33557957 0.78932148 4290033841
0.17429633 0.33558241 0.78930742 4290034098
0.17614791 0.3359825 0.79029834 4290034098
0.17772089 0.33598533 0.79028434 4290099891
0.17929387 0.33598816 0.79027027 4290099891
0.18086685 0.335991 0.7902562 4290165427
0.18215185 0.33559659 0.78923726 4290165170
0.18372296 0.33559942 0.78922319 4290296756
0.18558578 0.33599952 0.79021406 4290296756
0.18715876 0.33600235 0.7902 4290296756
0.18902721 0.33640245 0.7911908 4290296756
0.19060206 0.33640531 0.79117674 4290230963
0.19217691 0.33640814 0.79116267 4290230963
0.19375177 0.33641097 0.7911486 4290296756
0.19532663 0.33641383 0.79113448 4290230963
0.19690149 0.33641666 0.79112041 4290362549
0.19816962 0.33602223 0.79010165 4290296756
0.1997426 0.33602506 0.79008758 4290230963
0.20131558 0.33602789 0.79007351 4290362549
0.20288856 0.33603072 0.79005945 4290230963
0.20508996 0.33682817 0.79205477 4290428342
0.20729886 0.33762562 0.79404998 4290362549
0.20919731 0.33802578 0.79504049 4290296756
0.21077965 0.33802864 0.79502636 4290362549
0.21770379 0.33685091 0.79194206 4290296756
-0.49855742 0.3606537 0.85781348 4294638328
-0.49638373 0.360259 0.85678655 4294572535
-0.49469826 0.36026204 0.85677147 4294638328
-0.4925302 0.35986733 0.8557446 4294638328
-0.49132732 0.36026812 0.85674137 4294573048
-0.49012068 0.36066893 0.85773808 4294507253
-0.48891032 0.36106971 0.85873479 4294376694
-0.48769617 0.36147052 0.85973144 4294311157
-0.4864783 0.36187133 0.86072809 4293784812
-0.48431399 0.3614766 0.85970122 4288718751
-0.48262289 0.36147967 0.85968614 4287468684
-0.48186699 0.36227825 0.8616944 4287599498
-0.48296645 0.36466792 0.86774933 4287598729
-0.48357958 0.36665988 0.87279236 4287532935
-0.48694578 0.37103853 0.88390511 4287335556
-0.48935053 0.37462169 0.89299423 4287072384
-0.48851401 0.37542042 0.89500177 4287138178
-0.48858267 0.37701473 0.89903247 4287072385
-0.48863634 0.37860909 0.903063 4287138178
-0.48822242 0.37980565 0.90608186 4287006336
-0.4868958 0.38020667 0.90707749 4286874493
-0.48691195 0.38180107 0.91110772 4286808955
-0.48691314 0.38339552 0.91513777 4286808185
-0.48689932 0.38498998 0.9191677 4286611063
-0.48598403 0.38578886 0.92117459 4286413683
-0.48550263 0.38698557 0.92419279 4286348404
-0.48457047 0.38778448 0.9261995 4286348404
-0.48363084 0.38858339 0.92820615 4286085491
-0.48355514 0.39017797 0.93223554 4285756526
-0.48303059 0.39137474 0.93525338 4285822319
-0.48292679 0.39296937 0.93928254 4285624938
-0.48151767 0.39337054 0.94027746 4285558888
-0.48138949 0.3949652 0.94430637 4285624681
-0.48081994 0.39616206 0.9473238 4285493352
-0.48066363 0.39775679 0.95135248 4285559402
-0.47880194 0.39776015 0.95133585 4285230693
-0.47778165 0.39855921 0.95334178 4285428074
-0.47717276 0.39975613 0.95635885 4285493867
-0.47738653 0.40174881 0.96139836 4285493354
-0.47592118 0.40215006 0.96239275 4285428074
-0.47569177 0.40374491 0.96642077 4285428074
-0.475036 0.40494195 0.96943748 4285493867
-0.47354999 0.40534323 0.97043169 4285427817
-0.47246787 0.40614241 0.97243708 4285427561
-0.47178397 0.40733945 0.9754535 4285230182
-0.47028112 0.4077408 0.97644758 4285230183
-0.46837255 0.40774423 0.97643054 4285230182
-0.46726418 0.40854344 0.9784357 4284900961
-0.46614832 0.40934268 0.98044074 4284177236
-0.46462858 0.40974405 0.98143464 4282927169
-0.46349958 0.41054329 0.98343962 4283519049
-0.46236309 0.41134256 0.98544449 4284834653
-0.46082836 0.41174394 0.98643827 4284965469
-0.45928991 0.41214535 0.98743206 4285031263
-0.45774767 0.41254672 0.98842579 4285228643
-0.4562017 0.41294813 0.98941952 4285294436
-0.45426875 0.41295162 0.98940223 4285426022
-0.45309851 0.41375095 0.9914068 4285623401
-0.45116183 0.41375443 0.99138951 4285557608
-0.44998032 0.41455379 0.99339396 4285820780
-0.44803989 0.41455728 0.99337667 4285754989
-0.44535172 0.41376492 0.9913376 4285886574
-0.44341505 0.41376841 0.99132031 4285754989
-0.44147834 0.4137719 0.99130297 4285754989
-0.43990988 0.41417333 0.99229652 4285820525
-0.43797129 0.41417685 0.99227917 4285820526
-0.43603274 0.41418034 0.99226189 4286018161
-0.43409416 0.41418383 0.99224454 4285886319
-0.43251631 0.41458529 0.99323797 4285754733
-0.43093473 0.41498676 0.99423134 4285491561
-0.42934939 0.41538823 0.99522471 4285623147
-0.42740518 0.41539174 0.99520731 4285557354
-0.42510778 0.41499728 0.99417931 4285688940
-0.42246273 0.41420481 0.99214065 4285557354
-0.42017469 0.41381034 0.99111265 4285557356
-0.41823798 0.41381383 0.99109536 4285491561
-0.41664702 0.4142153 0.99208868 4285491561
-0.41470847 0.41421881 0.99207133 4285491561
-0.41311187 0.41462031 0.99306458 4285425768
-0.41151151 0.41502181 0.99405783 4285491561
-0.4095692 0.41502529 0.99404049 4285228391
-0.40729052 0.4146308 0.99301261 4285294184
-0.40535009 0.41463429 0.99299526 4285557356
-0.40340963 0.4146378 0.99297792 4285886321
-0.40113845 0.41424328 0.99195009 4286281079
-0.3991999 0.41424677 0.99193281 4287399560
-0.39726132 0.41425028 0.99191546 4287991697
-0.39597297 0.41504982 0.99391901 4289241764
-0.39435387 0.41545135 0.99491203 4290360246
-0.39273104 0.4158529 0.99590504 4290886591
-0.3904655 0.41545838 0.99487728 4291676363
-0.38852128 0.41546187 0.99485993 4293386723
-0.3865771 0.41546538 0.99484259 4293978860
-0.38431904 0.41507083 0.99381489 4294308081
-0.38237673 0.41507435 0.99379754 4294637047
-0.38043439 0.41507787 0.9937802 4294965755
-0.3788003 0.41547942 0.99477309 4294966269
-0.37685612 0.41548291 0.99475574 4294966269
-0.37491193 0.41548643 0.99473834 4294900732
-0.37296772 0.41548994 0.994721 4294834426
-0.37102354 0.41549343 0.99470359 4294703099
-0.36907935 0.41549695 0.99468625 4294900221
-0.36683816 0.41510236 0.99365872 4294768891
-0.36489585 0.41510588 0.99364138 4294768378
-0.36324677 0.41550747 0.99463415 4294833913
-0.36159393 0.41590905 0.99562687 4294702841
-0.35964784 0.41591257 0.99560946 4294571513
-0.35741416 0.41551799 0.994582 4294505976
-0.35518423 0.4151234 0.99355459 4294505976
-0.35295805 0.41472879 0.99252719 4294374645
-0.35101762 0.41473231 0.99250984 4294309108
-0.34907717 0.41473579 0.9924925 4294309108
-0.34741497 0.41513741 0.99348515 4294374901
-0.34547263 0.41514093 0.99346781 4294243315
-0.34380481 0.41554254 0.99446046 4294308852
-0.34186062 0.41554603 0.99444306 4294374901
-0.34018716 0.41594768 0.99543566 4294177522
-0.33824107 0.41595119 0.99541825 4294177522
-0.33602801 0.41555655 0.99439096 4294112243
-0.33355361 0.41476381 0.9923538 4294177779
-0.33134991 0.41436917 0.99132663 4294440181
-0.32941136 0.41437265 0.99130929 4294308852
-0.32747278 0.41437617 0.991292 4294177522
-0.32553422 0.41437966 0.99127465 4294177779
-0.32359564 0.41438314 0.99125731 4294243316
-0.32165706 0.41438666 0.99124002 4294111987
-0.31997049 0.41478831 0.99223244 4294046195
-0.31803003 0.41479179 0.99221516 4294111987
-0.31584135 0.41439715 0.99118805 4293980657
-0.3139028 0.41440064 0.99117076 4293980913
-0.31196421 0.41440412 0.99115342 4293980913
-0.31002563 0.41440764 0.99113613 4293849327
-0.30808708 0.41441113 0.99111879 4293915120
-0.3061485 0.41441461 0.99110144 4293980913
-0.30397296 0.41401994 0.99007452 4294046191
-0.30203626 0.41402343 0.99005723 4294046191
-0.29986632 0.41362873 0.9890303 4293915120
-0.29793149 0.41363221 0.98901302 4293915120
-0.29576719 0.41323751 0.98798615 4293783534
-0.29360661 0.41284281 0.98695934 4293915120
-0.29122406 0.41204989 0.98492306 4293980913
-0.28907287 0.41165516 0.98389632 4293849327
-0.28692544 0.41126043 0.98286963 4293849841
-0.28544211 0.41206032 0.98487139 4293849841
-0.14860073 0.34573913 0.81539387 4293520362
-0.14729251 0.34693733 0.81840467 4293520362
-0.1436598 0.34534943 0.8143422 4293520360
-0.14195107 0.34495389 0.81331939 4293520360
-0.1404351 0.34535524 0.81431335 4293454567
-0.139008 0.34615505 0.81631565 4293454567
-0.13739191 0.34615797 0.81630123 4293454567
-0.13568693 0.34576243 0.81527847 4293388774
-0.13407271 0.34576532 0.81526405 4293454569
-0.13237335 0.34536979 0.81424135 4293388776
-0.13067774 0.34497422 0.81321871 4293388776
-0.12906727 0.34497714 0.81320429 4293520362
-0.1274568 0.34498003 0.81318992 4293454569
-0.12584631 0.34498295 0.8131755 4293388776
-0.12408433 0.3441889 0.81114477 4293454569
-0.12247761 0.34419179 0.8111304 4293454569
-0.12087088 0.34419471 0.81111604 4293454568
-0.11926416 0.3441976 0.81110168 4293388774
-0.11772569 0.34459898 0.81209546 4293322981
-0.1160507 0.34420338 0.81107301 4293322981
-0.11444397 0.3442063 0.81105864 4293322981
-0.11277462 0.34381071 0.81003618 4293322981
-0.11110901 0.34341508 0.80901378 4293257188
-0.10944715 0.34301949 0.80799145 4293257188
-0.10784605 0.34302238 0.80797714 4293322981
-0.10624495 0.34302524 0.80796283 4293388774
-0.10475036 0.34382516 0.80996454 4293388774
-0.10314551 0.34382805 0.80995017 4293388774
-0.10154065 0.34383097 0.80993581 4293388774
-0.099935807 0.34383386 0.8099215 4293388774
-0.098330952 0.34383675 0.80990714 4293322981
-0.096726105 0.34383965 0.80989283 4293388774
-0.09512125 0.34384254 0.80987847 4293388774
-0.093516402 0.34384543 0.80986416 4293388774
-0.091873288 0.34344977 0.80884194 4293322981
-0.090270311 0.34345266 0.80882764 4293322981
-0.088667341 0.34345558 0.80881333 4293322983
-0.08703173 0.3430599 0.80779117 4293322983
-0.08543063 0.34306279 0.80777687 4293322983
-0.083800644 0.34266713 0.80675483 4293257190
-0.082201414 0.34267002 0.80674052 4293257190
-0.080602184 0.34267288 0.80672622 4293322983
-0.079002962 0.34267578 0.80671191 4293322983
-0.077403732 0.34267867 0.80669767 4293388776
-0.075784996 0.34228298 0.80567569 4293257190
-0.074205279 0.34268445 0.80666906 4293322983
-0.072606049 0.34268731 0.80665481 4293322981
-0.071020707 0.34308878 0.80764812 4293322981
-0.069419608 0.34309167 0.80763382 4293257188
-0.067808367 0.34269598 0.8066119 4293257188
-0.066200882 0.34230027 0.80559003 4293322981
-0.06460353 0.34230316 0.80557579 4293322468
-0.063006178 0.34230602 0.80556148 4293388261
-0.061408825 0.34230891 0.80554724 4293388261
-0.059810713 0.34191316 0.80452543 4293388261
-0.058216348 0.34151745 0.80350369 4293388261
-0.056622747 0.34152031 0.80348945 4293322468
-0.055029146 0.3415232 0.8034752 4293322468
-0.053435542 0.34152606 0.80346096 4293256675
-0.051841941 0.34152895 0.80344671 4293256675
-0.050248336 0.34153181 0.80343252 4293256675
-0.048654735 0.34153467 0.80341828 4293190882
-0.047046896 0.3419362 0.80441141 4293322211
-0.045451418 0.34193909 0.80439717 4293190882
-0.043855939 0.34194195 0.80438292 4293190882
-0.042260464 0.34194484 0.80436867 4293059809
-0.04070846 0.3411504 0.80233973 4292994016
-0.039116733 0.34115329 0.80232555 4293125089
-0.037499517 0.34155482 0.80331862 4293190882
-0.035878554 0.34195635 0.80431163 4293190882
-0.034283075 0.34195924 0.80429739 4293059296
-0.032687601 0.3419621 0.80428314 4293125089
-0.031125108 0.34156629 0.80326164 4293190882
-0.029531505 0.34156919 0.80324739 4293059809
-0.027974637 0.34117338 0.80222601 4292928223
-0.026421521 0.34077758 0.80120462 4293059809
-0.024831668 0.34078044 0.80119038 4293059809
-0.023284175 0.34038463 0.80016905 4293059809
-0.021696197 0.34038749 0.80015486 4293059553
-0.020062109 0.34078905 0.80114776 4292994016
-0.018472256 0.34079191 0.80113357 4293059809
-0.016882403 0.34079477 0.80111939 4292994016
-0.01529255 0.34079763 0.80110514 4293059809
-0.013649089 0.34119922 0.80209798 4293059809
-0.012057362 0.34120208 0.80208379 4292994016
-0.010465634 0.34120497 0.80206954 4292862430
-0.0088739069 0.34120783 0.80205536 4292993503
-0.0072821788 0.34121069 0.80204111 4292927710
-0.0057534338 0.34081486 0.80101997 4293125089
-0.0042284387 0.34041899 0.79999882 4293059552
-0.0027071931 0.34002313 0.79897773 4292927967
-0.0011210899 0.34002599 0.79896355 4292928223
0.00053549523 0.34042758 0.79995626 4292994016
0.00219583 0.34082919 0.80094892 4292928222
0.0037114511 0.3404333 0.79992789 4292994014
0.0052994289 0.34043619 0.7999137 4292928221
0.006809426 0.3400403 0.79889268 4292796635
0.0083955294 0.34004316 0.79887849 4292796637
0.0099816322 0.34004602 0.79886436 4292927966
0.011567735 0.34004888 0.79885018 4292993503
0.013068357 0.33965299 0.79782927 4292993503
0.014739942 0.3400546 0.79882181 4292861917
0.016326046 0.34005746 0.79880768 4292861917
0.018003253 0.34045911 0.79980022 4292730331
0.019591231 0.34046197 0.79978603 4292796124
0.021274064 0.34086362 0.80077851 4292730331
0.022863917 0.34086648 0.80076426 4292664537
0.024355166 0.34047055 0.79974341 4292664536
0.025943143 0.34047341 0.79972923 4292730073
0.027428767 0.34007749 0.79870844 4292664280
0.029014871 0.34008035 0.79869431 4292664280
0.030494869 0.3396844 0.79767358 4292730331
0.032079097 0.33968726 0.7976594 4292664538
0.033663325 0.33969012 0.79764527 4292664538
0.035247553 0.33969298 0.79763108 4292532952
0.036945384 0.34009466 0.79862344 4292664538
0.03853149 0.34009752 0.79860926 4292796379
0.040234946 0.34049919 0.79960155 4292796123
0.041703694 0.34010324 0.79858094 4292730331
0.043168698 0.33970726 0.79756033 4292730331
0.044752926 0.33971012 0.79754615 4292796124
0.046212301 0.33931413 0.7965256 4292796124
0.047794655 0.33931699 0.79651147 4292861917
0.04950561 0.3397187 0.79750371 4292861916
0.051220313 0.3401204 0.79849589 4292730331
0.052806418 0.34012327 0.79848176 4292664538
0.05439252 0.34012613 0.79846758 4292730331
0.055842523 0.33973011 0.79744709 4292796124
0.057426751 0.33973297 0.79743296 4292598745
0.058871128 0.33933699 0.79641253 4292664538
0.060170032 0.3385421 0.79438591 4292730331
0.061748635 0.33854493 0.79437178 4292664538
0.063327238 0.3385478 0.79435772 4292664538
0.065053195 0.33894953 0.79534978 4292730331
0.066782899 0.33935124 0.79634184 4292664793
0.068516351 0.339753 0.7973339 4292730586
0.0699476 0.33935696 0.79631358 4292730331
0.071375109 0.33896092 0.79529333 4292796124
0.072798863 0.33856487 0.79427308 4292730331
0.074377462 0.33856773 0.79425895 4292598745
0.075956069 0.33857056 0.79424489 4292598745
0.077534676 0.33857343 0.79423076 4292598745
0.079113275 0.33857626 0.79421663 4292599000
0.080691881 0.33857912 0.79420257 4292598745
0.082270488 0.33858198 0.79418844 4292664538
0.083849087 0.33858481 0.79417437 4292664538
0.085427694 0.33858767 0.79416025 4292664538
0.086832702 0.33819157 0.79314017 4292532952
0.088409431 0.33819443 0.79312611 4292598745
0.089808807 0.33779833 0.79210609 4292598745
0.091383666 0.33780119 0.79209203 4292598745
0.093139619 0.33820295 0.79308385 4292533209
0.094716348 0.33820581 0.79306972 4292533207
0.096293077 0.33820865 0.79305565 4292533206
0.098056525 0.33861044 0.79404742 4292533463
0.099446535 0.33821434 0.79302746 4292664792
0.10083279 0.33781824 0.79200757 4292598999
0.10240764 0.33782107 0.7919935 4292533206
0.10378828 0.33742493 0.79097366 4292467413
0.10516516 0.33702883 0.78995383 4292467414
0.10673627 0.33703166 0.78993982 4292467414
0.10830737 0.33703449 0.78992575 4292532952
0.1100802 0.33743629 0.79091746 4292467159
0.11165317 0.33743912 0.79090339 4292532952
0.11322615 0.33744198 0.79088932 4292532952
0.11479913 0.33744481 0.79087532 4292401878
0.1161629 0.33704865 0.7898556 4292467671
0.1175229 0.33665249 0.78883594 4292401877
0.11909214 0.33665532 0.78882194 4292336084
0.12066136 0.33665815 0.78880787 4292401878
0.12244731 0.33706 0.78979945 4292401622
0.12401842 0.33706284 0.78978539 4292335827
0.12558952 0.33706567 0.78977138 4292401620
0.12738296 0.33746749 0.79076284 4292401620
0.12918016 0.33786935 0.79175431 4292335827
0.13075502 0.33787221 0.79174024 4292336084
0.13210191 0.33747602 0.7907207 4292402133
0.13344504 0.33707982 0.78970122 4292402133
0.13478443 0.33668363 0.78868169 4292270291
0.13612007 0.33628744 0.78766227 4292336084
0.13768743 0.33629027 0.78764826 4292336084
0.13901743 0.33589405 0.78662884 4292335827
0.14058292 0.33589688 0.78661489 4292335827
0.1419073 0.33550066 0.78559554 4292467413
0.14371388 0.33590251 0.78658688 4292335827
0.14527936 0.33590534 0.78657293 4292335827
0.14684483 0.33590817 0.78655893 4292401620
0.14841032 0.33591101 0.78654498 4292270034
0.14997579 0.33591381 0.78653097 4292270547
0.15154128 0.33591664 0.78651696 4292007375
0.15285254 0.33552039 0.78549773 4292138704
0.15441614 0.33552322 0.78548378 4292073167
0.15623772 0.3359251 0.786475 4291875788
0.15780319 0.33592793 0.78646106 4291941581
0.15989211 0.33672893 0.78845739 4291875788
0.16146134 0.33673176 0.78844339 4291612616
0.16303056 0.33673459 0.78842938 4291612616
0.16433245 0.33633831 0.7874102 4291480774
0.16563059 0.33594206 0.78639108 4291283139
0.16692498 0.33554578 0.78537202 4291283652
0.16848859 0.33554861 0.78535807 4291086016
0.17032704 0.33595052 0.78634912 4290954431
0.17161581 0.33555424 0.78533012 4290822845
0.1731794 0.33555707 0.78531617 4290757307
0.17502348 0.33595899 0.78630716 4290362806
0.17658895 0.33596182 0.78629321 4290297013
0.17843865 0.33636376 0.7872842 4290099634
0.17971992 0.33596748 0.78626525 4290033584
0.18099743 0.33557117 0.78524631 4292073167
0.18256104 0.33557397 0.78523231 4291941581
0.18383293 0.33517766 0.78421342 4292007374
0.18568826 0.33557963 0.78520441 4291809995
0.18754731 0.33598158 0.78619528 4291678409
0.1891128 0.33598441 0.78618133 4291546567
0.19097748 0.33638638 0.78717214 4289901998
0.19254485 0.33638921 0.78715819 4291217858
0.1941122 0.33639205 0.78714418 4291020479
0.19537471 0.3359957 0.78612536 4290757821
0.19663349 0.33559936 0.7851066 4290888893
0.19788851 0.33520302 0.7840879 4290823100
0.19945024 0.33520582 0.78407395 4290494135
0.20101197 0.33520865 0.78406 4290230963
0.20288791 0.33561066 0.78505075 4290230963
0.20508368 0.33641183 0.78704613 4289901998
0.20696899 0.33681384 0.78803682 4289901998
0.2082184 0.3364175 0.78701812 4290033584
0.20946404 0.33602113 0.78599948 4289836205
0.21102951 0.33602396 0.78598553 4289901998
0.21226954 0.33562756 0.78496689 4289967791
0.21383315 0.33563039 0.78495294 4289836205
0.21572596 0.33603242 0.78594357 4289705133
0.21762252 0.33643445 0.78693414 4289705133
0.21918988 0.33643728 0.78692013 4289573547
0.2204224 0.33604088 0.78590161 4289573547
0.22165117 0.33564448 0.78488308 4289836719
0.22355336 0.33604655 0.78587359 4289968305
0.22511885 0.33604935 0.78585964 4290099377
0.22634199 0.33565295 0.78484118 4290164915
0.22790559 0.33565578 0.78482723 4290099122
0.22981527 0.33605784 0.78581768 4290099122
0.23172872 0.3364599 0.78680807 4290230963
0.23329607 0.33646271 0.78679407 4290165170
0.23486343 0.33646554 0.78678006 4290230961
0.2360772 0.33606914 0.78576171 4290165170
0.23764268 0.33607194 0.78574777 4290296756
0.23956549 0.33647403 0.7867381 4290296756
0.24149205 0.33687612 0.78772837 4290428342
0.24378344 0.33767748 0.78972292 4290362549
0.24571937 0.33807957 0.79071313 4290230963
0.24729423 0.3380824 0.79069906 4290230963
0.24886908 0.33808526 0.790685 4290230963
0.25044394 0.3380881 0.79067093 4290296756
0.25201878 0.33809093 0.79065686 4290230963
-0.49856016 0.36234105 0.85784441 4294638328
-0.49590012 0.36154485 0.85580558 4294638328
-0.49421653 0.36154789 0.8557905 4294638328
-0.49253294 0.36155093 0.85577548 4294638328
-0.4918108 0.36235321 0.85778409 4294573048
-0.49012345 0.36235625 0.85776901 4294507509
-0.48891309 0.36275893 0.85876578 4294376437
-0.48769894 0.36316159 0.85976249 4294311157
-0.48600787 0.36316463 0.85974735 4293850605
-0.48384541 0.36276805 0.85872048 4288652958
-0.48215622 0.36277109 0.8587054 4287402891
-0.48140219 0.36357343 0.86071378 4287665291
-0.48250353 0.36597437 0.8667689 4287664522
-0.48311856 0.36797568 0.87181216 4287532935
-0.48510075 0.371176 0.87989026 4287401603
-0.4888933 0.37597498 0.89201474 4287203970
-0.4885169 0.37717712 0.89503402 4287269763
-0.48858556 0.37877893 0.89906484 4287203713
-0.48863924 0.38038078 0.90309548 4287072127
-0.48822534 0.38158298 0.90611446 4287072127
-0.48689872 0.38198587 0.90711015 4286874748
-0.48646605 0.3831881 0.91012895 4286677369
-0.48646912 0.38479003 0.91415912 4286677369
-0.48645717 0.386392 0.91818923 4286611576
-0.48554379 0.38719463 0.92019618 4286348404
-0.48506424 0.38839695 0.92321455 4286282611
-0.48457345 0.38959929 0.92623281 4286282611
-0.48450902 0.39120135 0.93026245 4285888110
-0.48312241 0.39160433 0.93125761 4285953903
-0.48259977 0.39280674 0.93427557 4285756524
-0.48206586 0.39400914 0.93729347 4285493352
-0.4806605 0.39441219 0.93828845 4285558888
-0.48053607 0.39601433 0.94231755 4285558888
-0.48039663 0.39761654 0.94634646 4285427559
-0.47981772 0.39881903 0.94936395 4285427815
-0.47838238 0.39922211 0.95035869 4285296486
-0.477364 0.40002492 0.95236468 4285362279
-0.47675699 0.40122747 0.95538193 4285428074
-0.47655568 0.4028298 0.95941031 4285428074
-0.47550917 0.40363264 0.96141607 4285361768
-0.47528163 0.40523499 0.96544421 4285296488
-0.47462773 0.40643764 0.96846104 4285362281
-0.47355312 0.40724054 0.97046649 4285296488
-0.472471 0.40804347 0.97247195 4285296488
-0.4717871 0.40924615 0.97548848 4285164902
-0.47028425 0.40964934 0.97648263 4284835937
-0.46837568 0.4096528 0.97646558 4284638558
-0.46686721 0.41005599 0.97745961 4283914320
-0.46535498 0.41045922 0.9784537 4282796094
-0.46423537 0.41126221 0.98045874 4283914574
-0.46271378 0.41166544 0.9814527 4284703834
-0.46118844 0.41206867 0.98244667 4284638297
-0.45965934 0.41247192 0.98344052 4284835163
-0.45812649 0.41287518 0.98443437 4285164128
-0.45620292 0.41287863 0.9844172 4285229923
-0.45466447 0.41328189 0.98541099 4285295462
-0.45312223 0.41368517 0.98640478 4285361255
-0.45157626 0.41408843 0.98739851 4285361255
-0.45002654 0.41449171 0.98839223 4285427048
-0.4484731 0.414895 0.9893859 4285492841
-0.44654015 0.41489848 0.98936862 4285558635
-0.44423333 0.41450217 0.98834044 4285756013
-0.44230226 0.41450566 0.98832321 4285755756
-0.44037119 0.41450915 0.98830593 4285821292
-0.43844011 0.41451263 0.9882887 4285755500
-0.4368754 0.41491592 0.98928225 4285755244
-0.43494245 0.41491941 0.98926502 4285886830
-0.43300954 0.41492289 0.98924774 4286018159
-0.43143731 0.41532624 0.99024123 4285952366
-0.43022019 0.41612938 0.99224544 4285886573
-0.42828164 0.4161329 0.99222815 4286018159
-0.42634305 0.41613638 0.99221081 4286083952
-0.42405125 0.41574004 0.9911828 4286083952
-0.42211455 0.41574353 0.99116552 4286018159
-0.41982839 0.41534716 0.99013752 4286149745
-0.41789356 0.41535065 0.99012023 4286018159
-0.41630447 0.41575402 0.9911136 4286083952
-0.41436777 0.41575751 0.99109626 4286083954
-0.41277307 0.41616085 0.99208957 4286149490
-0.4111746 0.41656423 0.99308288 4286083698
-0.40923417 0.41656774 0.99306554 4286017905
-0.40695736 0.41617134 0.99203765 4285754733
-0.40535328 0.41657475 0.99303085 4285754733
-0.40341282 0.41657823 0.9930135 4285688940
-0.4008109 0.41578194 0.99097514 4285623147
-0.39887422 0.41578546 0.99095786 4285820526
-0.39693752 0.41578895 0.99094057 4285557354
-0.39565104 0.41659224 0.99294418 4285688940
-0.39371058 0.41659573 0.99292684 4285557354
-0.39209151 0.41699913 0.99391991 4285688940
-0.39014918 0.41700265 0.99390256 4285623147
-0.38820687 0.41700613 0.99388522 4285491561
-0.38594881 0.41660973 0.99285752 4285623146
-0.38400838 0.41661322 0.99284017 4285820781
-0.38206792 0.41661674 0.99282283 4286083954
-0.38012749 0.41662022 0.99280548 4286610042
-0.37849528 0.41702366 0.99379843 4286741628
-0.37655294 0.41702718 0.99378109 4286807421
-0.37461063 0.41703066 0.99376374 4287202181
-0.3726683 0.41703418 0.9937464 4287860111
-0.37072599 0.41703767 0.99372905 4288518041
-0.36878365 0.41704118 0.99371171 4289570729
-0.36684135 0.4170447 0.99369431 4290623416
-0.3643088 0.41624829 0.9916566 4291412932
-0.36266348 0.41665173 0.99264944 4292070862
-0.3610144 0.41705519 0.99364227 4292465621
-0.35878259 0.41665873 0.99261481 4292926172
-0.35684213 0.41666225 0.99259746 4293386980
-0.35490167 0.41666573 0.99258012 4293847531
-0.35267738 0.41626927 0.99155271 4294110702
-0.35073879 0.41627276 0.99153537 4294571253
-0.34880024 0.41627625 0.99151808 4287267973
-0.34713989 0.41667974 0.9925108 4294834426
-0.34519947 0.41668323 0.99249345 4294966012
-0.34325901 0.41668674 0.99247611 4288715419
-0.34131858 0.41669023 0.99245876 4289833901
-0.33964887 0.41709372 0.99345142 4290755003
-0.33770654 0.41709724 0.99343401 4292597206
-0.33549723 0.41670075 0.99240673 4293320929
-0.33302656 0.41590422 0.99036956 4293320929
-0.33082661 0.4155077 0.98934239 4293650151
-0.32889181 0.41551119 0.98932511 4294045165
-0.3266975 0.41511467 0.98829794 4294242545
-0.32502216 0.41551816 0.98929054 4294374388
-0.32359883 0.41632172 0.99129289 4294440183
-0.32166025 0.41632521 0.99127561 4294506233
-0.31997368 0.41672873 0.99226809 4294506233
-0.31803322 0.41673225 0.99225074 4294637818
-0.31584454 0.4163357 0.99122363 4294637818
-0.31390595 0.41633919 0.99120629 4294505975
-0.3122119 0.41674274 0.99219871 4294440438
-0.31027144 0.41674623 0.99218136 4294374645
-0.30833098 0.41674975 0.99216408 4294440438
-0.30639055 0.41675323 0.99214673 4294374645
-0.30445009 0.41675675 0.99212939 4294243059
-0.30250967 0.41676024 0.99211204 4294177779
-0.30056921 0.41676375 0.9920947 4294243572
-0.29862878 0.41676724 0.99207735 4294111986
-0.29645884 0.41637066 0.99105042 4293914607
-0.29429263 0.41597408 0.99002355 4293980400
-0.29235595 0.4159776 0.99000621 4293848814
-0.29041925 0.41598108 0.98998892 4293980400
-0.28848255 0.41598457 0.98997164 4293914607
-0.28654587 0.41598806 0.98995429 4293980400
-0.28439093 0.41559148 0.98892754 4293980400
-0.2824561 0.41559497 0.98891026 4293980400
-0.28052127 0.41559845 0.98889297 4293980656
-0.27879909 0.41600204 0.98988509 4293980400
-0.27665165 0.41560543 0.9888584 4293980400
-0.27471682 0.41560891 0.98884112 4293980400
-0.27257499 0.4152123 0.98781443 4293980400
-0.27043694 0.41481566 0.98678774 4293980400
-0.26830262 0.41441903 0.98576117 4293980657
-0.2665748 0.41482264 0.98675323 4293849327
-0.26444423 0.414426 0.98572665 4293915120
-0.26231742 0.41402933 0.98470014 4293915120
-0.26019433 0.41363269 0.98367357 4293849327
-0.25826889 0.41363615 0.98365641 4293652462
-0.25615144 0.41323948 0.98262995 4293718255
-0.25403777 0.41284281 0.9816035 4293718255
-0.25192782 0.41244614 0.98057711 4293784048
-0.24982162 0.41204944 0.97955072 4293784048
-0.24771917 0.41165274 0.97852439 4293915120
-0.11800135 0.34780902 0.81615758 4293322981
-0.11625248 0.34701121 0.81412691 4293322981
-0.11470465 0.34741449 0.81512058 4293322981
-0.11129391 0.34621918 0.81206751 4293388774
-0.1097442 0.34662247 0.81306118 4293322981
-0.10813373 0.34662536 0.81304681 4293257188
-0.10657838 0.34702867 0.81404048 4293322981
-0.10496603 0.34703156 0.81402606 4293388774
-0.10330229 0.34663409 0.81300366 4293388774
-0.10169182 0.34663698 0.81298923 4293322981
-0.10003371 0.34623951 0.8119669 4293388774
-0.098425105 0.3462424 0.81195253 4293388774
-0.096816503 0.34624529 0.81193817 4293388774
-0.095165893 0.34584779 0.81091583 4293322981
-0.093559168 0.34585068 0.81090152 4293388774
-0.091914177 0.34545317 0.80987924 4293388775
-0.090309329 0.34545606 0.80986494 4293388776
-0.088704474 0.34545895 0.80985057 4293388776
-0.087099627 0.34546185 0.80983621 4293454569
-0.085464016 0.34506431 0.80881405 4293388776
-0.083832152 0.34466678 0.80779195 4293257190
-0.082231045 0.34466967 0.80777764 4293322983
-0.080655083 0.34507298 0.80877113 4293322983
-0.079052106 0.34507588 0.80875677 4293322983
-0.077449128 0.34507877 0.80874246 4293257190
-0.075826637 0.3446812 0.80772042 4293257190
-0.074225537 0.34468409 0.80770612 4293388776
-0.072624438 0.34468699 0.80769181 4293322983
-0.071023338 0.34468988 0.80767751 4293257190
-0.069422238 0.34469277 0.8076632 4293257188
-0.06781099 0.3442952 0.80664128 4293388261
-0.066211767 0.34429806 0.80662698 4293322468
-0.064606152 0.34390047 0.80560505 4293388261
-0.0630088 0.34390336 0.80559081 4293322468
-0.061411448 0.34390625 0.80557656 4293322468
-0.059813332 0.34350863 0.8045547 4293322468
-0.058218963 0.34311104 0.8035329 4293388261
-0.056625359 0.3431139 0.80351865 4293388261
-0.055031758 0.34311679 0.80350447 4293256675
-0.053438157 0.34311965 0.80349022 4293256675
-0.051835943 0.34352303 0.80448341 4293191395
-0.050240465 0.34352592 0.80446917 4293322468
-0.04864499 0.34352878 0.80445492 4293322468
-0.047049511 0.34353167 0.80444068 4293256675
-0.045437925 0.34393507 0.80543381 4293256675
-0.043840572 0.34393793 0.80541956 4293190882
-0.042263079 0.34354031 0.80439794 4293191395
-0.040689334 0.34314266 0.80337632 4293191395
-0.03911934 0.34274501 0.80235475 4293059809
-0.037502132 0.34314841 0.80334783 4293190882
-0.035881169 0.34355181 0.8043409 4293190882
-0.034285694 0.34355471 0.80432665 4293059296
-0.032690216 0.34355757 0.80431241 4293190882
-0.031094739 0.34356046 0.80429816 4293256675
-0.029499261 0.34356332 0.80428386 4293190882
-0.027940515 0.34316567 0.80326241 4293125602
-0.026385522 0.34276798 0.80224097 4293125602
-0.024834275 0.34237027 0.80121958 4293059809
-0.023286778 0.34197259 0.8001982 4292994016
-0.021698801 0.34197545 0.80018401 4293059809
-0.020064717 0.34237888 0.80117697 4293125089
-0.018426882 0.34278232 0.80216986 4292994016
-0.016835155 0.34278521 0.80215567 4292994016
-0.015243427 0.34278807 0.80214143 4293059553
-0.0136517 0.34279093 0.80212718 4293125346
-0.012059972 0.34279382 0.802113 4292994016
-0.010468245 0.34279668 0.80209875 4292994016
-0.0088765165 0.34279954 0.80208457 4293125089
-0.0072847893 0.34280244 0.80207032 4293125089
-0.0056930617 0.3428053 0.80205607 4293125346
-0.0041661882 0.34240755 0.80103493 4292994016
-0.0025763356 0.34241045 0.80102068 4292928223
-0.00098648272 0.34241331 0.8010065 4292994016
0.00067384896 0.34281677 0.80199921 4292994016
0.0022655765 0.34281966 0.80198503 4292928222
0.0037830756 0.34242189 0.80096388 4292994016
0.005296825 0.34202415 0.79994279 4292994016
0.0068848031 0.34202701 0.79992861 4292994016
0.0084727807 0.34202987 0.79991442 4293059552
0.010060759 0.34203273 0.79990023 4292993503
0.011648737 0.34203559 0.79988605 4292927710
0.013236715 0.34203848 0.79987186 4292927710
0.014824693 0.34204134 0.79985768 4292993503
0.016501898 0.34244484 0.80085027 4292927710
0.018091751 0.34244773 0.80083609 4292796124
0.01977458 0.34285122 0.80182856 4292796124
0.021366308 0.34285411 0.80181438 4292796124
0.022958037 0.34285697 0.80180013 4292861917
0.024451163 0.34245917 0.80077922 4292861660
0.026041014 0.34246206 0.80076504 4292861660
0.027528517 0.34206426 0.79974419 4292861660
0.029116495 0.34206712 0.79973 4292861660
0.030704472 0.34206998 0.79971582 4292993246
0.032292452 0.34207284 0.79970163 4292993503
0.03377058 0.34167501 0.7986809 4292796124
0.035356682 0.34167787 0.79866672 4292730331
0.037056383 0.34208143 0.79965907 4292861917
0.038644362 0.34208429 0.79964489 4292861917
0.040232342 0.34208718 0.7996307 4292861917
0.041820318 0.34209004 0.79961652 4292861917
0.043287199 0.34169218 0.79859585 4292861917
0.044873301 0.34169504 0.79858172 4292796124
0.046334554 0.34129721 0.79756111 4292796124
0.047918782 0.34130007 0.79754692 4292861917
0.04950301 0.3413029 0.7975328 4292796123
0.051217712 0.34170648 0.79852504 4292796123
0.052803814 0.34170935 0.79851085 4292730331
0.054255698 0.34131148 0.7974903 4292796124
0.055839926 0.34131435 0.79747617 4292796124
0.057424154 0.34131721 0.79746199 4292796124
0.058868535 0.34091932 0.79644156 4292796124
0.060309164 0.34052143 0.79542112 4292796124
0.061889645 0.34052429 0.795407 4292664538
0.063470125 0.34052715 0.79539287 4292796124
0.065050602 0.34052998 0.7953788 4292730331
0.066780299 0.34093359 0.79637086 4292796124
0.068362653 0.34093645 0.79635674 4292664538
0.069945008 0.34093931 0.79634261 4292730331
0.071372516 0.34054139 0.7953223 4292796124
0.07279627 0.34014347 0.79430205 4292730331
0.074374877 0.34014633 0.79428792 4292664538
0.075953484 0.34014916 0.79427379 4292598745
0.077532083 0.34015203 0.79425973 4292664538
0.079110689 0.34015486 0.7942456 4292730331
0.080689296 0.34015772 0.79423153 4292730331
0.082267895 0.34016055 0.79421741 4292664538
0.083846502 0.34016341 0.79420328 4292664538
0.085425101 0.34016624 0.79418921 4292664538
0.086830117 0.33976829 0.79316908 4292598745
0.088406846 0.33977115 0.79315501 4292598745
0.089983575 0.33977398 0.79314095 4292664538
0.091560304 0.33977684 0.79312682 4292598745
0.093318127 0.34018049 0.7941187 4292598745
0.094896726 0.34018335 0.79410458 4292532952
0.096475333 0.34018618 0.79409045 4292598744
0.098053932 0.34018904 0.79407638 4292598744
0.099443942 0.33979106 0.79305643 4292599001
0.10102067 0.33979389 0.7930423 4292598744
0.10240506 0.33939591 0.79202241 4292532952
0.1037857 0.33899793 0.79100251 4292532952
0.10516258 0.33859992 0.78998268 4292467159
0.10673369 0.33860275 0.78996861 4292532952
0.10830479 0.33860558 0.7899546 4292532952
0.1098759 0.33860841 0.78994054 4292532952
0.11165059 0.33901212 0.79093224 4292532952
0.11342904 0.33941579 0.79192394 4292467159
0.11500389 0.33941865 0.79190987 4292532952
0.11636953 0.33902061 0.7908901 4292532952
0.11773142 0.3386226 0.78987038 4292532952
0.11930253 0.33862543 0.78985631 4292401365
0.12065879 0.33822739 0.78883666 4292335573
0.12244473 0.33863109 0.78982824 4292401366
0.12401584 0.33863392 0.78981423 4292335573
0.12558694 0.33863676 0.78980023 4292467159
0.12738039 0.33904049 0.79079175 4292467158
0.12917759 0.33944419 0.79178321 4292401620
0.13052635 0.33904615 0.79076362 4292335827
0.13209933 0.33904898 0.79074955 4292401620
0.13344246 0.33865091 0.78973001 4292335827
0.13478185 0.33825284 0.78871047 4292335827
0.13635109 0.33825567 0.78869647 4292335827
0.13768485 0.3378576 0.78767699 4292401620
0.13901487 0.33745953 0.78665757 4292401622
0.14034113 0.33706143 0.78563821 4292401365
0.14190474 0.33706424 0.78562421 4292401366
0.14346835 0.33706707 0.78561026 4292335572
0.14527678 0.33747083 0.78660166 4292401365
0.14684227 0.33747363 0.78658766 4292270034
0.14865634 0.33787739 0.787579 4292204241
0.15022369 0.33788022 0.78756499 4292270034
0.15153871 0.33748212 0.78654569 4292138705
0.15284997 0.337084 0.78552645 4292204754
0.15441358 0.3370868 0.78551245 4292204753
0.15623514 0.33749059 0.78650373 4292138960
0.15780063 0.33749342 0.78648973 4292204753
0.15962783 0.33789718 0.78748095 4292204753
0.16119517 0.33790001 0.787467 4292138960
0.16276254 0.33790284 0.787453 4292138705
0.16432989 0.33790568 0.78743899 4292138705
0.16562803 0.33750752 0.78641981 4292204498
0.16719352 0.33751035 0.78640586 4292204498
0.16848603 0.33711219 0.78538674 4292138705
0.17004964 0.33711502 0.78537279 4292072912
0.17133653 0.33671686 0.78435373 4292138705
0.17289826 0.33671966 0.78433979 4292204498
0.17474045 0.33712348 0.78533083 4292138705
0.17658639 0.3375273 0.78632194 4292072912
0.17815188 0.33753011 0.78630793 4292072912
0.17971735 0.33753294 0.78629392 4292072912
0.18099487 0.33713475 0.78527498 4292138705
0.18226865 0.33673656 0.78425604 4292138705
0.18353866 0.33633837 0.78323716 4292204498
0.18509851 0.3363412 0.78322321 4292204498
0.18695383 0.33674502 0.7842142 4292204498
0.1888129 0.33714887 0.78520513 4292072914
0.19067571 0.3375527 0.78619605 4292072912
0.19224119 0.33755553 0.78618205 4292007119
0.19380668 0.33755836 0.7861681 4291942095
0.19506732 0.33716014 0.78514928 4291942095
0.19663092 0.33716297 0.78513527 4292073681
0.19788595 0.33676475 0.78411651 4292007888
0.19913723 0.3363665 0.7830978 4291942095
0.20038475 0.33596829 0.7820791 4292138960
0.20194273 0.33597109 0.78206521 4292270546
0.20381679 0.33637497 0.78305602 4292073167
0.20601256 0.3371799 0.78505147 4292073167
0.20757616 0.3371827 0.78503752 4292007374
0.20881806 0.33678445 0.78401887 4291941581
0.21037979 0.33678728 0.78400493 4292007374
0.21161607 0.33638903 0.78298634 4291941068
0.21317592 0.33639184 0.7829724 4291481030
0.21506499 0.33679572 0.78396302 4291415237
0.21662672 0.33679855 0.78394908 4291086786
0.21818845 0.33680135 0.78393513 4291086786
0.21975018 0.33680418 0.78392118 4290955200
0.2213119 0.33680698 0.78390723 4290889407
0.22253506 0.3364087 0.78288877 4290692028
0.22409491 0.33641154 0.78287482 4290757307
0.22565477 0.33641434 0.78286088 4290493880
0.22721462 0.33641717 0.78284693 4290296503
0.22912055 0.33682108 0.7838375 4290230708
0.23068228 0.33682391 0.78382355 4290230708
0.23259385 0.33722782 0.784814 4290099378
0.23415744 0.33723065 0.78480005 4289967792
0.23536748 0.33683234 0.78378165 4290099377
0.23657376 0.33643404 0.78276336 4290099377
0.23849094 0.33683798 0.78375375 4290033584
0.24041188 0.33724195 0.78474414 4290033584
0.24269763 0.33804703 0.78673881 4289967791
0.24462794 0.338451 0.78772914 4290033584
0.24619716 0.33845383 0.78771514 4290165170
0.24813309 0.3388578 0.78870535 4290099377
0.24933563 0.33845949 0.78768706 4290099377
0.25053442 0.33806115 0.78666884 4289968305
0.25210175 0.33806399 0.78665483 4290165684
0.25404331 0.33846799 0.78764504 4290100148
0.25598863 0.33887199 0.78863519 4290100404
0.25793767 0.33927599 0.78962535 4290099891
-0.49905115 0.36442986 0.85888731 4294638328
-0.4959029 0.36322844 0.85583645 4294638328
-0.4942193 0.36323148 0.85582137 4294638328
-0.4930183 0.36363602 0.85681826 4294638328
-0.49181357 0.36404055 0.85781509 4294573048
-0.49012622 0.36404359 0.85780001 4294507510
-0.48891586 0.36444813 0.85879678 4294376693
-0.48722664 0.36445117 0.8587817 4294376949
-0.48506418 0.36405271 0.85775477 4293784812
-0.48337683 0.36405575 0.85773969 4288455579
-0.48122004 0.3636573 0.85671282 4287402634
-0.48093736 0.36486489 0.85973305 4287797134
-0.48204061 0.36727706 0.8657884 4287730314
-0.48265752 0.36928776 0.87083185 4287598727
-0.48556554 0.3733061 0.88093364 4287467396
-0.48843607 0.37732452 0.89103514 4287335810
-0.48806155 0.37853229 0.89405453 4287335555
-0.48904482 0.38094467 0.90010881 4287269763
-0.48864216 0.3821525 0.90312797 4287203713
-0.48822823 0.38336033 0.90614706 4287137920
-0.48690164 0.38376507 0.90714276 4286677369
-0.48646897 0.38497293 0.91016167 4286677369
-0.48602507 0.38618082 0.91318047 4286677369
-0.48601502 0.38779026 0.9172107 4286479990
-0.4846603 0.38819507 0.91820616 4286414197
-0.48462585 0.38980457 0.9222362 4286151282
-0.48457643 0.39141411 0.92626607 4286085489
-0.48407441 0.39262211 0.92928433 4286085489
-0.48312542 0.39342853 0.93129104 4285953903
-0.48260275 0.39463657 0.93430912 4285756524
-0.48206887 0.39584461 0.93732709 4285559145
-0.48066351 0.3962495 0.93832213 4285493352
-0.48053908 0.39785916 0.94235134 4285427559
-0.48082602 0.39987046 0.94739187 4285427559
-0.48024526 0.40107858 0.95040941 4285427559
-0.47923064 0.40188512 0.95241553 4285427559
-0.47820851 0.40269169 0.95442152 4285230182
-0.4771789 0.40349826 0.95642751 4285427561
-0.47697574 0.40510809 0.96045601 4285427561
-0.47592735 0.40591469 0.96246183 4285361768
-0.47528473 0.40712294 0.96547884 4285362281
-0.47504219 0.4087328 0.96950704 4285296488
-0.47355622 0.40913785 0.9705013 4285164902
-0.47206652 0.40954292 0.97149557 4285164902
-0.47097877 0.41034958 0.97350103 4284967523
-0.46947968 0.41075465 0.97449523 4284440666
-0.46757486 0.41075808 0.97447824 4283453769
-0.46607015 0.41116315 0.97547233 4282861632
-0.46456167 0.41156825 0.97646648 4284046160
-0.46304944 0.41197333 0.97746056 4284572504
-0.46192795 0.41278008 0.97946566 4284638297
-0.46040636 0.41318518 0.98045969 4284769883
-0.45849031 0.41318864 0.98044258 4284967262
-0.45657423 0.41319209 0.98042542 4285098335
-0.45465815 0.41319555 0.98040831 4285361763
-0.45274207 0.41319901 0.9803912 4285493352
-0.45120925 0.41360414 0.98138511 4285493352
-0.45005402 0.41441095 0.98338991 4285558888
-0.44813231 0.41441441 0.98337275 4285756010
-0.44658822 0.41481954 0.98436654 4285493095
-0.44504037 0.4152247 0.98536032 4285624681
-0.44274107 0.41482648 0.9843322 4285756267
-0.44081751 0.41482997 0.98431498 4285690731
-0.43889394 0.41483343 0.98429781 4285559145
-0.43697035 0.41483688 0.98428065 4285559146
-0.43541315 0.41524208 0.98527431 4285493354
-0.43348771 0.41524553 0.98525709 4285559147
-0.43156224 0.41524902 0.98523992 4285821806
-0.42999753 0.41565418 0.98623353 4285821806
-0.42878795 0.41646111 0.98823786 4285624427
-0.42685688 0.4164646 0.98822063 4285821806
-0.42457068 0.41606635 0.98719263 4285953392
-0.42264149 0.41606984 0.98717535 4285821806
-0.42071229 0.41607329 0.98715812 4285756013
-0.41843361 0.41567504 0.98613018 4285821806
-0.4168539 0.41608027 0.98712367 4286018928
-0.41527045 0.41648549 0.9881171 4286018671
-0.41333938 0.41648898 0.98809987 4286084464
-0.41175029 0.4168942 0.98909324 4286149744
-0.40981734 0.41689768 0.98907596 4286083951
-0.40788439 0.41690117 0.98905867 4286018158
-0.40595144 0.41690466 0.98904145 4285886572
-0.40435299 0.41730991 0.99003476 4286018416
-0.40241817 0.4173134 0.99001747 4286083952
-0.39982188 0.41651335 0.98797905 4285886573
-0.39789081 0.41651684 0.98796183 4286083952
-0.39595973 0.41652033 0.9879446 4286149745
-0.39435378 0.41692558 0.9889378 4286149745
-0.39242083 0.41692907 0.98892057 4286215538
-0.39048788 0.41693255 0.98890328 4286281331
-0.38855493 0.41693604 0.988886 4286215283
-0.38630438 0.41653773 0.9878583 4286149745
-0.38437331 0.41654122 0.98784107 4286149745
-0.38244224 0.41654471 0.98782378 4286149744
-0.38082314 0.41694999 0.98881692 4286083951
-0.37920031 0.41735527 0.98980999 4286149231
-0.37726548 0.41735876 0.9897927 4286017903
-0.37533069 0.41736224 0.98977542 4285820525
-0.37339586 0.41736573 0.98975813 4285754734
-0.37115842 0.41696742 0.98873061 4286215539
-0.36922547 0.41697091 0.98871332 4286281331
-0.36759138 0.41737622 0.98970628 4286281331
-0.36565658 0.41737971 0.98968899 4286281330
-0.36372176 0.41738319 0.98967171 4286346867
-0.36208016 0.41778851 0.99066466 4286477940
-0.36014348 0.41779199 0.99064732 4286609526
-0.35820678 0.41779551 0.99063003 4286543991
-0.35627007 0.417799 0.99061275 4286215539
-0.35433337 0.41780248 0.99059546 4286083953
-0.35211283 0.41740412 0.989568 4286083697
-0.350178 0.41740763 0.98955071 4286215539
-0.34852329 0.41781297 0.99054354 4286412662
-0.34630835 0.41741461 0.98951614 4286149490
-0.34437355 0.41741809 0.98949885 4285886574
-0.34271321 0.41782343 0.99049163 4285952112
-0.3407765 0.41782695 0.99047434 4285688940
-0.33883983 0.41783044 0.990457 4285820526
-0.33690313 0.41783392 0.99043971 4286017905
-0.33496642 0.41783741 0.99042243 4286149491
-0.3324995 0.41703716 0.9883852 4286149491
-0.33030331 0.41663873 0.98735797 4286017905
-0.32837224 0.41664222 0.98734075 4286017905
-0.32618168 0.41624382 0.98631358 4286215284
-0.3245101 0.41664919 0.98730624 4286610557
-0.32283476 0.41705456 0.98829883 4287400072
-0.32090181 0.41705805 0.98828161 4288255381
-0.31947285 0.41786537 0.99028397 4288847518
-0.31753618 0.41786885 0.99026668 4289637033
-0.31535122 0.41747043 0.98923957 4290229170
-0.31366277 0.41787586 0.99023211 4291150271
-0.31172609 0.41787934 0.99021477 4292137167
-0.31003201 0.41828474 0.99120724 4292795097
-0.30833417 0.41869017 0.99219966 4293453027
-0.30639374 0.41869369 0.99218231 4294242543
-0.3042163 0.41829523 0.99115527 4294637301
-0.30227771 0.41829875 0.99113798 4294703094
-0.30033916 0.41830224 0.99112064 4294572278
-0.29816923 0.41790378 0.99009365 4294572024
-0.29600301 0.41750532 0.98906672 4294308852
-0.29406819 0.41750884 0.98904943 4294505717
-0.29213339 0.41751233 0.98903215 4294637303
-0.29019856 0.41751581 0.98901486 4294636792
-0.28848574 0.41792125 0.99000716 4294702842
-0.28632891 0.41752279 0.98898029 4294637049
-0.28439409 0.41752627 0.98896301 4294637049
-0.28245926 0.41752976 0.98894572 4294571512
-0.28052446 0.41753325 0.98892844 4294308854
-0.27858964 0.41753674 0.98891115 4294308854
-0.27665481 0.41754025 0.98889387 4294243061
-0.27471998 0.41754374 0.98887658 4294243061
-0.27257818 0.41714522 0.98784989 4294177268
-0.2704401 0.41674674 0.9868232 4294111475
-0.26850903 0.41675022 0.98680592 4294111475
-0.26657796 0.41675368 0.98678869 4293979889
-0.26464689 0.41675717 0.9867714 4293979887
-0.26271582 0.41676065 0.98675418 4293980144
-0.26078475 0.41676414 0.98673689 4293848557
-0.25885367 0.41676763 0.98671967 4293914607
-0.25673062 0.41636911 0.9856931 4293848814
-0.25480139 0.41637257 0.98567587 4293914607
-0.25268397 0.41597402 0.98464936 4293848814
-0.25075665 0.41597751 0.98463213 4293914607
-0.24864481 0.41557896 0.98360568 4293914607
-0.24635412 0.41477838 0.98157007 4293783021
-0.11652067 0.35023251 0.81818914 4293322982
-0.1115396 0.34943679 0.81612951 4293322981
-0.11010017 0.35064647 0.81913942 4293388774
-0.10842142 0.35024711 0.81811678 4293322981
-0.10680158 0.35025004 0.81810236 4293388774
-0.10518172 0.35025299 0.81808788 4293388774
-0.10351048 0.34985363 0.81706536 4293388774
-0.101843 0.34945428 0.8160429 4293388774
-0.10017926 0.3490549 0.81502044 4293454567
-0.098519273 0.34865555 0.81399798 4293388774
-0.096863031 0.34825617 0.81297565 4293388774
-0.095252559 0.34825909 0.81296122 4293388776
-0.093601942 0.34785968 0.81193894 4293388776
-0.091955073 0.3474603 0.8109166 4293454569
-0.090311959 0.34706092 0.80989432 4293454569
-0.088741623 0.34746611 0.81088793 4293388776
-0.087102257 0.3470667 0.80986565 4293388776
-0.085466646 0.34666729 0.80884349 4293322983
-0.083834775 0.34626788 0.80782133 4293322983
-0.082233675 0.34627077 0.80780703 4293388776
-0.080657713 0.34667596 0.80880052 4293322983
-0.079078004 0.34708118 0.80979401 4293322983
-0.077451758 0.34668174 0.80877185 4293388776
-0.075848781 0.34668463 0.80875754 4293388776
-0.074210525 0.34588286 0.80672777 4293322983
-0.072595529 0.34548342 0.80570573 4293322983
-0.070998177 0.34548631 0.80569148 4293388263
-0.069412842 0.34589154 0.80668491 4293388261
-0.067813613 0.3458944 0.80667061 4293388261
-0.06620612 0.34549496 0.80564868 4293454054
-0.064602375 0.34509549 0.80462676 4293322468
-0.0630069 0.34509835 0.80461252 4293322468
-0.061408781 0.34469888 0.80359066 4293322468
-0.05981518 0.34470177 0.80357641 4293322468
-0.058222685 0.34430227 0.80255461 4293388261
-0.056630958 0.34430513 0.80254036 4293388261
-0.055039227 0.34430802 0.80252612 4293256675
