# .PCD v0.7 - Point Cloud Data file format
VERSION 0.7
FIELDS x y z rgba
SIZE 4 4 4 4
TYPE F F F U
COUNT 1 1 1 1
WIDTH 1012
HEIGHT 1
VIEWPOINT 0 0 0 1 0 0 0
POINTS 1012
DATA ascii
0.47684604 0.13714196 0.89918107 2501673
0.4776904 0.14508981 0.89861912 2567466
0.48027915 0.14417562 0.89841241 2633260
0.46807757 0.21903369 0.89906049 1054479
0.47101927 0.22808559 0.89970016 1120272
0.48692521 0.11876967 0.90955627 3488571
0.47863972 0.12143777 0.90942937 2699051
0.48354703 0.12443256 0.90647537 2962225
0.4767248 0.13543525 0.90470207 1975327
0.48353702 0.13426803 0.90551978 2764846
0.47600016 0.14486447 0.90317661 1843742
0.48410615 0.14336886 0.90353107 2633260
0.4762364 0.15449502 0.90530586 1580825
0.4830237 0.15587395 0.90712786 2238500
0.4749046 0.16521576 0.9057318 1317395
0.48254743 0.16369553 0.90741837 1975583
0.47568363 0.17492951 0.9059757 1317652
0.48267013 0.17424795 0.90723562 1712412
0.47469801 0.18414661 0.90670556 1120271
0.4744398 0.19506404 0.90481538 988686
0.48132902 0.19199288 0.9084481 1317652
0.4747479 0.20486584 0.90556496 922893
0.48091739 0.20416555 0.90717459 1251859
0.46785232 0.21745043 0.90153402 988686
0.47489133 0.21461876 0.90682012 922893
0.48022607 0.21059722 0.90929914 1251858
0.45602018 0.22435257 0.90643436 1120015
0.46557188 0.22620441 0.90678757 1054479
0.47397035 0.22596478 0.90546936 1054479
0.46504158 0.23288162 0.90546793 1054479
0.47270861 0.23353741 0.90678638 1054479
0.47379562 0.11901772 0.91808027 2764845
0.48180279 0.11921363 0.91341108 2699053
0.47754055 0.12740989 0.91473728 2370342
0.48092949 0.12765342 0.91093969 2172706
0.49167994 0.12082972 0.91155177 3225913
0.47424391 0.13297978 0.91415352 2107169
0.47602546 0.14588806 0.91015106 1646363
0.4763059 0.15638393 0.91462755 1449238
0.48714882 0.15503347 0.91071904 2435368
0.47628695 0.16316038 0.91426611 1185810
0.48409027 0.16838726 0.91149133 1909535
0.47470838 0.17824253 0.91463172 988686
0.47508493 0.18571004 0.91464025 922893
0.48301172 0.18821594 0.91336477 1515031
0.47470555 0.19383711 0.9145425 856844
0.48499438 0.19294353 0.91093314 1449238
0.47194201 0.20544553 0.91061258 659721
0.45706129 0.21871075 0.91932428 1120272
0.4648492 0.21964446 0.91793793 1120272
0.47383139 0.21754681 0.91648531 725514
0.48105881 0.2154431 0.9108808 1186065
0.4555912 0.22503217 0.91566586 1120016
0.46440038 0.22267699 0.91466355 1054479
0.47320873 0.22263311 0.91658413 1054479
0.48133144 0.22007498 0.91146332 1054479
0.4557924 0.23154765 0.91665363 988943
0.46181458 0.23345582 0.91600955 1251858
0.47366181 0.11860343 0.92387503 2830639
0.48208833 0.11841908 0.92209578 2962225
0.46888867 0.126169 0.92885751 2501672
0.47443008 0.12494034 0.92587286 2501673
0.48116636 0.12406746 0.9234578 2567467
0.46872663 0.13746132 0.92631543 1909533
0.47348329 0.13515133 0.92508012 2041376
0.48159736 0.13915227 0.92664778 2041120
0.46810588 0.1415112 0.9273954 1843740
0.47573978 0.14403646 0.92752326 1778203
0.48211044 0.14611894 0.92827117 1712410
0.46520779 0.15232071 0.92911983 1580824
0.4775278 0.15468027 0.92630202 1515031
0.48130551 0.15262517 0.92473018 1580824
0.46618041 0.16716987 0.92883319 1317395
0.47790194 0.16489898 0.92459679 1251602
0.48009789 0.16080695 0.92439091 1317652
0.46763706 0.17526279 0.92850173 1120272
0.47407967 0.17576353 0.92686957 1054479
0.48044011 0.1725073 0.92860317 1186065
0.46713918 0.18095678 0.92987752 1186065
0.47619873 0.18601553 0.92673826 922893
0.46956146 0.1995323 0.92619544 922893
0.47354189 0.19532184 0.9261325 857100
0.47418496 0.20377338 0.92776537 791307
0.43740639 0.21921758 0.92751145 1316881
0.45679238 0.2193891 0.92517364 1186065
0.46495053 0.21806552 0.92542243 922893
0.47418526 0.21614307 0.92783368 725514
0.48037058 0.21489504 0.92938077 659721
0.43691862 0.22412509 0.92451 1185552
0.4435651 0.22513348 0.9278211 1382931
0.45352763 0.22459993 0.92625326 1185808
0.46252495 0.22056681 0.92214322 1186065
0.47425446 0.2208349 0.9245435 922893
0.45406267 0.23180181 0.92492551 1185808
0.45596316 0.11859519 0.93783647 2699306
0.46564135 0.11881176 0.93575329 2765099
0.47108334 0.11939702 0.93071413 2699051
0.45871037 0.12143755 0.93786395 2633256
0.46578795 0.12499168 0.93655115 2501671
0.47005329 0.12184005 0.9357692 2699051
0.45291868 0.13733909 0.93770725 2041375
0.46431744 0.13483739 0.93297493 2107169
0.47100234 0.13243479 0.93170398 2238500
0.44942358 0.14058934 0.9377982 1975582
0.45336017 0.14161073 0.93742442 1909789
0.46549508 0.14474069 0.9340294 1843483
0.47471991 0.14608799 0.93097067 1712410
0.48309517 0.14369754 0.93280226 1778203
0.45805892 0.15428597 0.93822187 1646104
0.46446237 0.15489523 0.93488652 1515031
0.47510085 0.15567026 0.93438923 1515031
0.48277062 0.15169308 0.9307012 1580824
0.45882344 0.16204564 0.93835723 1514517
0.46448815 0.16446541 0.93513864 1383188
0.47510982 0.16406094 0.93371153 1317652
0.48046911 0.16725808 0.93336493 1251858
0.4590399 0.17443316 0.9366653 1317139
0.46382651 0.17479059 0.93447506 1251345
0.47636056 0.17264923 0.93130958 1120272
0.48092258 0.17184983 0.93283761 1120272
0.46627778 0.18439598 0.93600833 1120272
0.47295114 0.18495229 0.93299931 988686
0.46785975 0.19695477 0.93746579 988430
0.47278592 0.19459417 0.93399066 922893
0.45885634 0.20798628 0.93904907 922893
0.46420267 0.20485736 0.93645048 988429
0.47312212 0.20583864 0.93463087 857100
0.48018378 0.20629646 0.93222547 725514
0.43907398 0.21845761 0.93381715 1251602
0.44331279 0.21722837 0.93663228 1185809
0.45769885 0.21985181 0.93567616 1054479
0.46646503 0.21363932 0.93595433 857100
0.47509664 0.21456796 0.93384403 791051
0.48116383 0.21651566 0.93326128 725257
0.42513266 0.22718804 0.93930334 1317139
0.43559515 0.22569239 0.93568969 1251345
0.44766122 0.22193885 0.93360406 1251088
0.45255074 0.22412208 0.93340015 1317395
0.43495184 0.23089002 0.93588251 1251345
0.44629526 0.2326971 0.93551379 1317395
0.45231304 0.23286901 0.93456268 1448724
0.44754705 0.11930799 0.94652683 2699050
0.45032158 0.11866612 0.940889 2699051
0.44760761 0.1241105 0.94651437 2501670
0.45482761 0.12476531 0.9444254 2436135
0.46228755 0.1264057 0.94292402 2436134
0.44703025 0.1342732 0.94706291 2172961
0.45436457 0.13371299 0.94295031 2172961
0.46132636 0.13432607 0.94217771 2238754
0.44684526 0.14447218 0.9456858 1909789
0.45520285 0.14688897 0.94336289 1778203
0.46213654 0.14561263 0.9409436 1909276
0.45442843 0.15502734 0.94358587 1711896
0.4640117 0.15036163 0.9408471 1712154
0.47648296 0.15839404 0.94038242 1515030
0.44681352 0.16287731 0.94973254 1515030
0.45607895 0.16485648 0.9466548 1514517
0.46227679 0.1673333 0.94224548 1448724
0.44816563 0.17729409 0.9489845 1383187
0.45539701 0.17537153 0.94582671 1317395
0.46175838 0.17084965 0.94474363 1383189
0.44533697 0.1824607 0.94910455 1317651
0.45661488 0.1858817 0.9476158 1251345
0.46326753 0.18536864 0.94395906 1251345
0.43954897 0.19952998 0.94546849 1251601
0.44541222 0.19616826 0.94575447 1251345
0.45477533 0.19466251 0.94441909 1120016
0.46505094 0.19535191 0.94302011 1119759
0.42882293 0.2085526 0.94873071 1317138
0.43840334 0.20368098 0.94665498 1120529
0.44315454 0.20454167 0.94712842 1120015
0.45543703 0.20496638 0.94345868 1054223
0.46133175 0.20204929 0.94131851 988686
0.42818427 0.21774118 0.94507074 1251345
0.43357217 0.21872848 0.94520724 1251601
0.44512257 0.21444514 0.94435817 1054479
0.45453578 0.21364124 0.94459265 1054222
0.46381325 0.21622181 0.9450568 922893
0.47425979 0.21269338 0.94089764 857100
0.42634282 0.22578616 0.94353437 1317395
0.43485674 0.22427325 0.94526404 1448724
0.44045261 0.22013403 0.94583809 1186065
0.45604259 0.22179584 0.94587159 1185552
0.46073872 0.22082089 0.94866937 1120015
0.42572087 0.23088914 0.9441669 1317139
0.43209326 0.23103347 0.94061166 1251345
0.43747497 0.11855596 0.95667213 2633512
0.44482324 0.11851617 0.95613873 2699305
0.43656993 0.12398425 0.95703614 2436133
0.4440555 0.12498128 0.95488536 2501669
0.43766797 0.13600592 0.95655429 2172705
0.4431645 0.13530192 0.95439714 2238498
0.43771663 0.14629248 0.95571148 1909789
0.44332144 0.14399521 0.9531185 1975326
0.42998552 0.15747538 0.95778608 1777690
0.43545684 0.15509383 0.95634693 1777946
0.4461647 0.15504996 0.95542353 1777690
0.45152223 0.15469056 0.95137399 1777945
0.43763217 0.1650193 0.95780325 1646103
0.44472933 0.16477528 0.95354533 1580566
0.45182344 0.16579953 0.95174158 1580310
0.43733364 0.17588221 0.95851922 1448981
0.44414994 0.17542525 0.95338112 1448724
0.45204306 0.17243652 0.95319492 1514517
0.43544871 0.18458095 0.95592588 1383187
0.44419572 0.18498401 0.9531619 1317394
0.45306662 0.18558127 0.95135969 1317138
0.46046671 0.18755512 0.95106268 1185552
0.43769312 0.1952569 0.95510453 1251602
0.44448057 0.1925215 0.95451993 1251601
0.45053187 0.19111884 0.95021689 1186065
0.42843294 0.20930497 0.95474923 1317138
0.43633202 0.20594591 0.95503795 1185809
0.44810784 0.2068468 0.95386094 1185552
0.452916 0.20707625 0.9532159 1119759
0.41873801 0.21827492 0.9595015 1382931
0.42613578 0.21608251 0.95718616 1251345
0.43540096 0.21492353 0.95493978 1185808
0.44264111 0.21544094 0.95432246 1120272
0.45552421 0.21517062 0.9531135 988430
0.46177953 0.21937396 0.95063394 988686
0.42531744 0.2239027 0.95588481 1317138
0.45801178 0.22124948 0.95070207 1053966
0.42629462 0.23207369 0.95768631 1185809
0.42753577 0.11978804 0.96778607 2567463
0.43295056 0.11909935 0.96439093 2567719
0.42727432 0.12528211 0.96575546 2435877
0.43396431 0.12481265 0.96456242 2436133
0.44195017 0.12845755 0.9601475 2435620
0.41681081 0.13506438 0.96782899 2172704
0.42705002 0.13555256 0.96617711 2238497
0.43413964 0.13440387 0.96336436 2304290
0.44219437 0.13042337 0.96068144 2435620
0.42680255 0.14133896 0.96592057 2041374
0.43459117 0.14448035 0.9649564 1975582
0.42700249 0.15486085 0.96576655 1843483
0.43242121 0.15269557 0.96449631 1909276
0.44638106 0.15627877 0.96081781 1711897
0.42601845 0.16585791 0.96763122 1711896
0.43331668 0.1647754 0.96251601 1646104
0.41738462 0.17903486 0.96796292 1645589
0.42805356 0.1733923 0.96442997 1580566
0.43407685 0.17495863 0.96247995 1449237
0.44042486 0.1777596 0.96006471 1514517
0.4169125 0.18260349 0.96554732 1514517
0.42503485 0.18441063 0.96540558 1448724
0.43181765 0.1841796 0.96440333 1448980
0.42562234 0.19512288 0.96615314 1317394
0.43404543 0.19537851 0.96524596 1317395
0.41601273 0.20852284 0.96684885 1382931
0.42426568 0.20451671 0.96882677 1382931
0.43443102 0.20482068 0.9645319 1251345
0.41611955 0.2138799 0.96807122 1317138
0.42499426 0.21402052 0.9647575 1251345
0.44085515 0.21599104 0.96176183 1251345
0.40642628 0.22414592 0.96447057 1382931
0.41480806 0.2244388 0.96411061 1317651
0.42351118 0.22706552 0.9635874 1580311
0.41621062 0.23086765 0.96658981 1317651
0.42327157 0.23187992 0.96532249 1448724
0.41654235 0.11867049 0.97519904 2632999
0.42455 0.11829376 0.97161961 2567206
0.4310495 0.1182496 0.9710604 2567719
0.41576338 0.12417581 0.97500253 2501157
0.42379969 0.12469275 0.97333497 2501413
0.414875 0.13519482 0.97480232 2238241
0.42453033 0.13440563 0.97376549 2172961
0.41466308 0.14483155 0.97519535 2041374
0.42535415 0.14555143 0.97490889 1975582
0.43148249 0.14769785 0.97126293 2106654
0.41768086 0.15498304 0.97731638 1778203
0.42288226 0.15461403 0.97484636 1843739
0.4172563 0.16472058 0.9787873 1712153
0.42271394 0.16434801 0.97619158 1712153
0.41683832 0.17663969 0.97649431 1580310
0.42444775 0.1755638 0.97343963 1580310
0.41453871 0.18571031 0.97565413 1514517
0.42211327 0.18882594 0.97276771 1382932
0.40908676 0.19839668 0.97972792 1383444
0.41486555 0.19550273 0.97574729 1382931
0.42269522 0.19464417 0.97422367 1382931
0.43284929 0.19386216 0.9704299 1252115
0.39471546 0.20822656 0.97603613 1448724
0.40822029 0.20340975 0.97793835 1317395
0.41530672 0.20517035 0.9766804 1382931
0.42410129 0.20506069 0.9718805 1317138
0.43220928 0.20643327 0.97252369 1251345
0.38815665 0.21873882 0.97588772 1448724
0.39529717 0.21480909 0.97531146 1317138
0.40297204 0.21539348 0.97571838 1317138
0.41375351 0.21497369 0.97476661 1317138
0.42399549 0.21425919 0.97288358 1185809
0.38682505 0.22325295 0.97604907 1382931
0.3941907 0.22281207 0.97686398 1382931
0.40302727 0.22498792 0.97526878 1448724
0.41767797 0.22081687 0.97156012 1382931
0.40277508 0.23108856 0.97938359 1646103
0.41216904 0.23103893 0.97029656 1383444
0.40655249 0.11885507 0.98804462 2435877
0.41250917 0.11899989 0.98407644 2501926
0.40671453 0.12433243 0.98689336 2370340
0.41249114 0.1262394 0.98390925 2370084
0.40852949 0.13423166 0.98755872 2238241
0.41185236 0.13475047 0.98441273 2238241
0.40684393 0.14562646 0.98784143 1909789
0.4114888 0.145409 0.98450559 2041374
0.40644482 0.15436462 0.98442179 1843996
0.41366506 0.15479769 0.98311073 1843996
0.42171559 0.15028569 0.98073322 1909789
0.4082537 0.16487081 0.98692256 1711897
0.41432697 0.16476257 0.98273194 1712153
0.40773389 0.17509145 0.98773122 1646103
0.41445515 0.17429039 0.98379886 1646103
0.39966059 0.18645966 0.98892897 1448724
0.40645596 0.18451342 0.98636812 1580053
0.41135412 0.18377626 0.98260689 1580310
0.39946967 0.19368778 0.98939657 1514517
0.40522876 0.19512011 0.98630381 1448724
0.41086903 0.19299208 0.98181337 1514517
0.39735848 0.20614757 0.98564309 1448724
0.40434241 0.20457473 0.98392624 1382931
0.41792998 0.20506316 0.98077106 1382931
0.38545674 0.21747461 0.98851353 1383187
0.39297774 0.21570715 0.98519075 1382931
0.40685743 0.21302976 0.98323905 1317138
0.41249558 0.21575536 0.98301631 1251345
0.38770816 0.22475202 0.98611832 1383188
0.39630637 0.2263779 0.98223078 1382931
0.40494448 0.2241825 0.98212707 1448724
0.40117544 0.11890947 0.99534547 2501413
0.39735997 0.12553144 0.99750143 2369827
0.40289804 0.12515782 0.99438542 2369827
0.39746428 0.13457493 0.99784279 2172448
0.40454799 0.13459949 0.99387181 2172448
0.39728507 0.14580801 0.99896502 1975325
0.40366003 0.14424869 0.99562758 1975326
0.39608109 0.15531346 0.99755871 1843483
0.40307355 0.1553731 0.99580467 1843739
0.39411259 0.16316275 0.99706221 1711897
0.40358803 0.16576397 0.99309874 1711897
0.39858428 0.17305598 0.9971391 1646360
0.40384984 0.17543644 0.99389863 1580567
0.3966884 0.18637972 0.9970625 1514773
0.4037261 0.18465811 0.99252695 1514517
0.39497828 0.19453545 0.99456453 1448724
0.37516081 0.20928572 0.99656856 2171933
0.39530608 0.2045656 0.99349123 1448724
0.40036693 0.20339188 0.99090004 1382931
0.3699263 0.21945535 0.99846888 1580310
0.37657094 0.21595222 0.99491578 1448724
0.38312426 0.21577576 0.99268192 1448724
0.39340991 0.2148672 0.99475688 1382931
0.36992308 0.22142579 0.998505 1514518
0.37309757 0.22132531 0.99390239 1448980
0.3851496 0.22338727 0.99407029 1383444
0.37898135 0.11830504 1.008536 2304034
0.38415787 0.11827838 1.0081558 2435620
0.39486313 0.11889343 1.0044036 2435620
0.37897372 0.1229571 1.0086215 2304033
0.38614836 0.12350129 1.0085672 2238497
0.39349145 0.12428513 1.0053899 2304290
0.37937227 0.13138002 1.0097723 2106655
0.38136545 0.13238104 1.0097729 2106655
0.39321521 0.13520716 1.0053574 2106655
0.38933161 0.14037465 1.009848 1975069
0.39422312 0.14412671 1.0050219 2040862
0.38490462 0.15219565 1.0091041 1844249
0.39317906 0.15489428 1.0030782 1843739
0.38706744 0.16553575 1.0083292 1711897
0.39284217 0.16587223 1.0038382 1711897
0.40109622 0.16783985 1.0007439 1843483
0.38815379 0.17301627 1.0072062 1646103
0.39445993 0.17550208 1.0037779 1580566
0.38587722 0.18773404 1.0078235 1514517
0.39334258 0.18407954 1.00398 1514773
0.38650149 0.19490287 1.0056125 1514260
0.39287198 0.19773404 1.0016658 1514517
0.37480122 0.20842549 1.0066533 1579796
0.3864108 0.20376126 1.0065684 1514260
0.39236262 0.20484534 1.0031884 1448724
0.36737913 0.21951662 1.0084951 1514517
0.3741574 0.21539061 1.0038576 1514260
0.38620752 0.21251546 1.0040718 1251345
0.39317018 0.21321645 1.0022469 1251345
0.36609423 0.22300467 1.0062128 1514260
0.37326357 0.22510362 1.0039723 1448724
0.37885562 0.11906091 1.0155525 2238240
0.38700396 0.11858955 1.0109699 2304033
0.37873036 0.12523964 1.0141666 2238240
0.38518092 0.12510805 1.0110724 2238241
0.37690011 0.1361668 1.0173213 2040605
0.3855468 0.13534234 1.0127531 2041118
0.39018777 0.13263923 1.011699 2041375
0.37725836 0.1435039 1.0188726 1909276
0.3851862 0.14487462 1.0153558 1909532
0.39216113 0.14763263 1.0119562 1975069
0.37670454 0.15554246 1.0176045 1777689
0.38396075 0.1548723 1.0124215 1777946
0.39217159 0.15429936 1.0117925 1778203
0.37754095 0.16701436 1.0178436 1711896
0.38357085 0.16431269 1.0141963 1711896
0.39129373 0.1603263 1.0101961 1712410
0.37819284 0.17570448 1.0164301 1580310
0.38445127 0.17517257 1.0135304 1580310
0.37750822 0.1857038 1.0178531 1580310
0.38420942 0.18361285 1.013527 1514517
0.39153999 0.18238167 1.011265 1514517
0.37845954 0.19183563 1.0151755 1514260
0.38211501 0.19668972 1.0152537 1514260
0.36718681 0.20796211 1.0160643 1448724
0.3751739 0.20614795 1.0138128 1514260
0.38310337 0.20435892 1.0119519 1579796
0.35775858 0.21737581 1.0164007 1580053
0.36445281 0.21520276 1.0140032 1448724
0.3724077 0.21548355 1.0149926 1382931
0.38643467 0.21028495 1.0116556 1448467
0.39152637 0.2113401 1.0118793 1382931
0.35774961 0.22281897 1.0165006 1580310
0.36330992 0.22515695 1.0139216 1514517
0.37202856 0.22800957 1.0111095 1448724
0.36895427 0.11841679 1.0286322 2238754
0.37417805 0.11860334 1.023921 2172704
0.36894929 0.12146337 1.0286881 2238240
0.37583283 0.12461625 1.0266436 2106911
0.36705562 0.13549525 1.0275335 1975325
0.37437066 0.13368586 1.024946 2040862
0.36860833 0.1413338 1.0272551 1975069
0.37423894 0.14565982 1.0228556 1843483
0.3814522 0.14970104 1.0200917 1777690
0.36919117 0.15907526 1.0250411 1711896
0.37484765 0.15535057 1.023437 1777689
0.3674306 0.16500804 1.0251657 1646103
0.37553012 0.16564113 1.0225974 1646104
0.38142908 0.16379592 1.0203502 1777689
0.36709559 0.17407756 1.0261685 1580311
0.37395692 0.17487495 1.0230299 1514774
0.36706123 0.18583216 1.0276623 1514517
0.37281412 0.1846956 1.0233406 1514517
0.36550966 0.19545665 1.0286465 1448724
0.37471032 0.19504617 1.0250676 1579796
0.38017601 0.19838643 1.0229959 1448467
0.32986659 0.20952526 1.0296525 1909275
0.33859712 0.20848444 1.0275548 1514517
0.34209728 0.20855425 1.027858 1448724
0.36466408 0.20423038 1.0246869 1448724
0.3754333 0.20226495 1.023043 1514260
0.32894582 0.21277565 1.0290537 1909276
0.33843845 0.2112807 1.0281075 1909275
0.34356821 0.21132204 1.028229 1711896
0.35569575 0.21478921 1.0262009 1514517
0.36205906 0.21239124 1.0253044 1317138
0.35610387 0.22282253 1.0249934 1580310
0.36436445 0.11909842 1.0351872 2107168
0.35821074 0.12564641 1.036196 2040862
0.36474827 0.12482132 1.0338682 2106654
0.37135446 0.12652823 1.0311885 2107167
0.35831204 0.13404682 1.0372381 1975069
0.36311865 0.13496049 1.0333045 1975325
0.36578587 0.14552122 1.0339311 1909275
0.3718608 0.1491918 1.031504 1843483
0.35318705 0.1583133 1.0390068 1646104
0.36510962 0.15501626 1.034817 1777690
0.37161615 0.15352076 1.0316273 1777690
0.3561078 0.1636814 1.0391176 1646104
0.36441639 0.16452359 1.0367101 1646104
0.35869956 0.17287837 1.0389743 1580311
0.36364004 0.17521445 1.0351665 1514774
0.3468166 0.18279859 1.0390127 1580310
0.35458225 0.18515502 1.0392363 1514517
0.36311367 0.18406746 1.0346785 1514517
0.34577951 0.19098595 1.0391721 1514517
0.35694069 0.19457902 1.0368874 1514517
0.36329141 0.19527951 1.0329814 1448724
0.37237233 0.19478357 1.0312517 1580053
0.32821339 0.20825514 1.0363955 1646103
0.33607984 0.20878947 1.0345844 1514517
0.34634849 0.20790964 1.0342261 1448724
0.35683304 0.2051191 1.0371497 1514260
0.36048996 0.2059913 1.0340142 1448724
0.32736978 0.21482341 1.0352278 3356978
0.33514431 0.21451479 1.0352364 1909276
0.34537986 0.21594945 1.0325067 1777690
0.35348582 0.21335953 1.0325117 1514773
0.32930136 0.22106619 1.0368706 1975069
0.333487 0.22161981 1.0361764 1909276
0.34542251 0.22265603 1.0351394 1712410
0.35398689 0.22357942 1.0349257 1580824
0.34495908 0.11817812 1.0464467 2107167
0.3549082 0.11902495 1.043058 2172448
0.34584144 0.12425899 1.047994 2041375
0.35444126 0.12507418 1.0456021 2040862
0.34629682 0.13546233 1.0471514 1975325
0.35460436 0.13494037 1.045676 1975325
0.34787321 0.14568405 1.0484788 1843483
0.35588425 0.14433964 1.0457063 1909276
0.36187443 0.14552072 1.0425953 1975068
0.34751594 0.15604569 1.0463845 1712153
0.35542285 0.15449673 1.0427927 1712154
0.36158243 0.15287982 1.0409325 1712154
0.34902692 0.1636439 1.0458933 1646104
0.35321525 0.16597332 1.0419811 1646104
0.36509019 0.16404115 1.0406722 1646104
0.3474001 0.1760214 1.0448257 1580310
0.35429946 0.17554179 1.0420632 1580310
0.36211628 0.17913285 1.0413089 1711127
0.34579456 0.18530689 1.0435355 1514773
0.3551006 0.18541835 1.0416538 1514517
0.361148 0.18326186 1.0415599 1514517
0.34651396 0.19389176 1.0450661 1580053
0.35269806 0.19529197 1.0421127 1580053
0.32537016 0.208901 1.0449704 1711896
0.33150506 0.2074271 1.0456028 1317138
0.34658965 0.20573178 1.0461366 1514517
0.35392344 0.20417447 1.0425416 1580053
0.32442218 0.21443072 1.0447944 2238497
0.33899975 0.21837322 1.0437357 1909276
0.34116626 0.21788681 1.0412068 1777690
0.32822543 0.22296153 1.046417 1909276
0.33727369 0.22514965 1.0440184 1909276
0.34340283 0.22488046 1.0436337 1778203
0.35093725 0.22846328 1.0428134 1580824
0.3372345 0.11952657 1.05961 2172448
0.34185079 0.11936112 1.0578985 2107167
0.3373999 0.12439945 1.058431 2172448
0.34103569 0.12572874 1.0543553 2106655
0.34288576 0.13425563 1.0536281 1975069
0.33452231 0.14289585 1.0591457 1778203
0.34379879 0.14462823 1.0541559 1843739
0.35350078 0.14859328 1.0505784 1843483
0.34444976 0.15427279 1.0545914 1712153
0.35340202 0.1516647 1.0503855 1712410
0.34617388 0.16523738 1.0555334 1580824
0.33861959 0.17759326 1.0581378 1580311
0.34470758 0.17433974 1.0560052 1580310
0.33735028 0.18548244 1.055617 1514518
0.34318119 0.18574181 1.0537022 1514773
0.33619064 0.19354324 1.0561546 1514517
0.3439084 0.19563566 1.0534199 1580053
0.3275739 0.20867376 1.0579967 1382931
0.33409548 0.2052536 1.0562086 1448724
0.34600863 0.20523669 1.0558721 1580053
0.32283875 0.21588686 1.0539801 1909277
0.32584378 0.22248146 1.0559316 1975069
0.32451296 0.11829453 1.0682867 2172448
0.33213532 0.11860051 1.0659734 2238241
0.3245368 0.12110909 1.0684214 2106655
0.33427644 0.12502775 1.0646101 2106655
0.33614081 0.1350048 1.0636877 2041118
0.34099293 0.13750109 1.0617396 1975069
0.32985249 0.14512496 1.0678804 1777947
0.33468872 0.14523062 1.0627879 1843483
0.34157047 0.14648496 1.0617989 1843483
0.33564848 0.15494765 1.0662396 1711897
0.34178454 0.15547717 1.0623312 1711897
0.32872862 0.16567802 1.0693674 1646104
0.33539799 0.16475514 1.067573 1646104
0.34232941 0.16608185 1.0636089 1646104
0.32910749 0.17486002 1.067632 1580310
0.33474594 0.17439571 1.0650108 1580311
0.33471727 0.18418232 1.065383 1514518
0.32687363 0.197809 1.0647719 1645589
0.33369756 0.19634131 1.0632298 1514517
0.34208328 0.19875956 1.0603521 1515030
0.31553 0.20852241 1.0687709 1646104
0.32518196 0.20460318 1.0658391 1448724
0.33480811 0.2039009 1.0620952 1514517
0.34262291 0.20326553 1.0609854 1514517
0.31789875 0.21360731 1.0690429 2040862
0.32210717 0.21453169 1.0648211 1909277
0.32298028 0.22241169 1.0647078 1975071
0.31896016 0.11883913 1.0737642 2106655
0.31866273 0.12200837 1.0771589 2040862
0.32442474 0.12589209 1.0734777 1975069
0.33165106 0.12538417 1.0711031 2106655
0.31736583 0.13551503 1.0757178 1843739
0.32494846 0.13494392 1.073539 1909275
0.33257139 0.13462418 1.0715977 1975325
0.31632835 0.14404821 1.0781996 1712410
0.32661816 0.14443186 1.0758109 1843483
0.31857297 0.15337127 1.079735 1777689
0.32517576 0.15480274 1.0761657 1711897
0.33132124 0.15495083 1.0709337 1711897
0.31932831 0.1697765 1.0760282 1646104
0.32422712 0.165075 1.0739928 1580567
0.33241701 0.16063398 1.0707421 1646104
0.31806439 0.17338119 1.0759628 1580311
0.32527223 0.17546993 1.0741224 1580310
0.32571945 0.18379107 1.0764278 1580054
0.33219036 0.18623176 1.0731139 1579798
0.3184351 0.19633761 1.0771483 1514518
0.32561776 0.19523217 1.0760883 1580053
0.33256444 0.19173582 1.0718826 1514517
0.31657884 0.20607242 1.0745844 1514518
0.32126254 0.20372713 1.0731325 1514518
0.31533182 0.21551019 1.0744902 2172193
0.32108191 0.21137363 1.0727742 1909276
0.31712583 0.22057271 1.0769792 2172450
0.31567028 0.11868601 1.0862935 2040862
0.30823788 0.12681852 1.0893431 1909276
0.31453091 0.12488092 1.0854504 1975069
0.32140955 0.12810609 1.081247 2040862
0.31489563 0.1345035 1.0857569 1843483
0.32140607 0.130234 1.081286 1975069
0.30991369 0.14347287 1.0856326 1843483
0.31331769 0.14533494 1.0834002 1712153
0.32350585 0.14726117 1.0815792 1777689
0.31418005 0.15480348 1.0839684 1711896
0.32136071 0.15789692 1.0817934 1777689
0.31611153 0.1641247 1.0866698 1580311
0.32136297 0.1642365 1.0837673 1580567
0.31624946 0.17499466 1.0847248 1580311
0.32065535 0.17886512 1.0801837 1514518
0.31924477 0.18460715 1.0867473 1514518
0.32342744 0.1873064 1.0811319 1514518
0.31595808 0.19522329 1.0857033 1514517
0.32415825 0.19178261 1.0813894 1514518
0.31514829 0.20388454 1.086693 1514518
0.31250021 0.21430178 1.0850184 2040863
0.30538493 0.118761 1.0943887 1975069
0.3158657 0.11836109 1.0901198 1975069
0.29863459 0.12283742 1.0993584 1843483
0.30439568 0.12450039 1.0936694 1909276
0.30711681 0.13412836 1.0956552 1908763
0.31160268 0.13535918 1.09147 1843483
0.30718124 0.14664839 1.0963843 1711897
0.31003869 0.14111134 1.0925896 1711897
0.30827135 0.15254317 1.0969588 1646103
0.31029007 0.1566615 1.0950729 1646103
0.30776364 0.16579631 1.0967299 1580311
0.31297112 0.16732815 1.0922937 1580311
0.30763146 0.17330609 1.0984523 1580311
0.31225291 0.17484854 1.0940454 1514518
0.30903387 0.18556607 1.0947773 1514774
0.31484228 0.18523492 1.092355 1514518
0.30903697 0.1946132 1.0987805 1580311
0.31297356 0.19394718 1.0936856 1514517
0.31159228 0.2050463 1.0946569 1514517
0.31277853 0.21392906 1.0961002 1711898
0.31087625 0.2201007 1.0970306 2172450
0.29827636 0.11921753 1.1045463 2106142
0.29704428 0.12521967 1.1049889 1843483
0.29740095 0.13461885 1.1062791 1777690
0.30278453 0.13560387 1.1027559 1777690
0.29778787 0.14605729 1.105639 1646104
0.30437177 0.14403166 1.102446 1711897
0.29744092 0.15268771 1.1079179 1580311
0.30422688 0.15605314 1.1049181 1646103
0.29857776 0.16525576 1.1068521 1580311
0.30409074 0.1642736 1.1036698 1580311
0.29914412 0.1761996 1.1083335 1580311
0.30434704 0.17572546 1.10484 1580311
0.31007722 0.17545871 1.1002203 1711897
0.2979517 0.18191651 1.1088492 1580310
0.30664945 0.18454671 1.1054186 1580311
0.30605283 0.19561633 1.1048936 1580311
0.30814293 0.20507172 1.1072363 1514518
0.31074983 0.20503549 1.1030068 1580310
0.29909939 0.21774256 1.1077619 2172450
0.30483699 0.21556883 1.1058534 1909532
0.31178576 0.21538775 1.1064836 1777690
0.30772197 0.2222883 1.1058508 2106913
0.31064135 0.22231571 1.1030746 2238243
0.28989157 0.11893135 1.1183691 1975069
0.29356691 0.11834614 1.1123241 1974812
0.28884992 0.12578079 1.1175038 1777690
0.29298148 0.12490107 1.1150751 1843483
0.28880727 0.13468432 1.1180675 1777433
0.29345843 0.13551249 1.1139258 1711897
0.28770271 0.14780052 1.1174731 1646104
0.29376122 0.14423129 1.1144848 1711897
0.28756285 0.15408437 1.1171451 1646104
0.29390755 0.1559685 1.1130108 1646104
0.3002257 0.15949018 1.110018 1711896
0.28937104 0.16377069 1.1176953 1580311
0.29423317 0.1646588 1.1132847 1580311
0.29697984 0.17566478 1.1140944 1580311
0.29550469 0.1840488 1.115845 1580055
0.30420217 0.18568093 1.1128795 1580311
0.29808143 0.19775262 1.1153396 1580311
0.3029415 0.19420677 1.1147078 1580311
0.28505889 0.20664068 1.11902 1579541
0.2977213 0.20611699 1.1146233 1514518
0.30402291 0.20515308 1.1131965 1514518
0.27693254 0.21294338 1.117708 2238243
0.28447795 0.21540989 1.1172625 2172450
0.2954587 0.21493834 1.1156336 2106656
0.30184957 0.21218012 1.1129698 1711897
0.29886633 0.22109972 1.1141602 2238500
0.30408946 0.22336826 1.1116543 2172962
0.27689031 0.11935177 1.1229943 1843483
0.28520516 0.11919415 1.1211665 1909276
0.27712616 0.12332034 1.1268157 1843483
0.28520119 0.12461449 1.123445 1843483
0.27730665 0.13549362 1.1295656 1711897
0.28517795 0.13542937 1.1248652 1711897
0.29045475 0.13893901 1.1207312 1776920
0.27836883 0.14457422 1.1268193 1646104
0.2840606 0.14421865 1.1225731 1711897
0.29059821 0.14229953 1.1212916 1711897
0.28458485 0.15622318 1.1243514 1646103
0.27935946 0.16304439 1.1287742 1514517
0.28532639 0.16441521 1.1251894 1580310
0.29260403 0.16975747 1.1212769 1580311
0.28844941 0.17316012 1.1272111 1514517
0.29409567 0.17551783 1.1259325 1514518
0.29395494 0.18587112 1.1248336 1580055
0.29625046 0.19469027 1.1252644 1580311
0.30137151 0.19288424 1.1216221 1646104
0.27482617 0.20885299 1.1256536 1843485
0.28482991 0.2075047 1.1240389 1645591
0.29506165 0.20551959 1.125054 1580311
0.27607632 0.21426724 1.1230745 2172450
0.28473607 0.21423773 1.1213055 2172450
0.29195401 0.21219145 1.1230607 1909276
0.28518042 0.22036803 1.1222711 2304036
0.27377415 0.11834998 1.1355065 1843482
0.26920685 0.12540466 1.1393442 1711897
0.27322093 0.12549949 1.1341422 1777690
0.28248599 0.12830442 1.1326102 1777690
0.27422631 0.13495286 1.134073 1711896
0.28270888 0.13189097 1.1319238 1711896
0.27439556 0.14603153 1.1338745 1646104
0.27578104 0.15449066 1.1363512 1580310
0.28229576 0.1546997 1.1325957 1580311
0.27755234 0.16500169 1.1350968 1514518
0.2826691 0.16912389 1.1326902 1580311
0.2850365 0.17507912 1.1355166 1580310
0.28597194 0.1844983 1.1350186 1580310
0.29155436 0.18470764 1.1329627 1580311
0.28757384 0.19472742 1.1360134 1580311
0.29258582 0.19522449 1.1325238 1580311
0.28750277 0.2033588 1.1347984 1580054
0.29292655 0.2034729 1.1316084 1711127
0.26564896 0.11941586 1.1467679 1777690
0.25652024 0.12524481 1.1479012 1777433
0.26525226 0.1253684 1.1459638 1777433
0.25739515 0.13907115 1.1487025 1580311
0.26523778 0.13493262 1.1471038 1646104
0.27121824 0.13860677 1.1442358 1646104
0.26563746 0.1453016 1.1473259 1580311
0.27230367 0.14421971 1.1436955 1646104
0.26786631 0.15435651 1.1460884 1579798
0.27423653 0.15781134 1.140941 1580310
0.26824719 0.16378878 1.1470162 1514262
0.27292627 0.16513912 1.142527 1514519
0.27544394 0.17461371 1.1436911 1514518
0.28166771 0.17605232 1.142328 1514517
0.2774674 0.1846465 1.1462361 1580054
0.28122947 0.18561539 1.1420739 1645590
0.27877879 0.19242439 1.1470716 1514518
0.28263432 0.19563213 1.1434077 1514518
0.247024 0.20745377 1.1485249 2041119
0.25283793 0.20470168 1.1472793 1646104
0.2647323 0.20766196 1.1468934 1646105
0.27531368 0.20698898 1.1471195 1515031
0.28464594 0.20277959 1.1452084 1580311
0.25461361 0.21381967 1.1481447 2106914
0.26433444 0.21276446 1.1483241 2238243
0.25758356 0.11864694 1.1546611 1842970
0.24814233 0.12837759 1.1579248 1646104
0.25386989 0.12509294 1.1548126 1711641
0.26391533 0.12345525 1.1512917 1842970
0.24796793 0.13456559 1.1567538 1646104
0.25487766 0.13462144 1.1542939 1580311
0.24951221 0.14098236 1.1591437 1646104
0.25480315 0.14499947 1.155519 1514518
0.26069534 0.14669096 1.1528134 1580311
0.25584233 0.15486749 1.1564075 1514261
0.26333666 0.15582469 1.153927 1579541
0.25825927 0.16922963 1.1555823 1514518
0.26431352 0.16617791 1.153409 1514262
0.2581079 0.17278646 1.1562489 1448725
0.26443985 0.17538439 1.1532273 1448725
0.27126908 0.1757483 1.1527274 1514518
0.26771137 0.1850345 1.1589307 1448725
0.27423471 0.18488649 1.1542257 1514518
0.26774904 0.19332148 1.1586061 1514517
0.27487177 0.19564009 1.1554173 1448726
0.24515693 0.20496206 1.1543543 1646105
0.25574338 0.20401205 1.1535751 1514774
0.26445875 0.20528695 1.1554601 1514518
0.27544859 0.20403053 1.1546282 1514774
0.28186131 0.20563585 1.1522871 1515031
0.24848261 0.21343368 1.1524793 2172450
0.25569409 0.21200278 1.1531886 2172450
0.26227245 0.21273147 1.1546767 2106657
0.24561423 0.11891671 1.1657758 1711897
0.25276196 0.1186133 1.162372 1777690
0.23732607 0.12556149 1.1685723 1711383
0.24494846 0.12482292 1.1678348 1646104
0.25237069 0.12294804 1.1635029 1711897
0.23832032 0.13751648 1.1691827 1580311
0.24425721 0.13597101 1.1653502 1580567
0.24566667 0.14494085 1.1668993 1514518
0.25039425 0.14707927 1.1627483 1514518
0.24746293 0.15367995 1.1656461 1448725
0.25164357 0.15493369 1.161881 1448725
0.26110789 0.15931019 1.160376 1645077
0.25506482 0.1648577 1.1645325 1448725
0.26253924 0.16367066 1.1624434 1579797
0.25569361 0.17533273 1.1655526 1448725
0.26133832 0.17992355 1.1617519 1448724
0.25771046 0.18482852 1.1670573 1383188
0.26366502 0.18576899 1.1643722 1448724
0.2718569 0.18747894 1.1614627 1448725
0.25744653 0.19123632 1.1689956 1514518
0.26441535 0.19483398 1.1651094 1383188
0.27242649 0.19116884 1.1608584 1448725
0.23778068 0.20706841 1.1617105 2040864
0.24418977 0.20482691 1.1642716 1646104
0.2552509 0.20088403 1.1651913 1382931
0.26623166 0.20163578 1.16494 1514517
0.27040702 0.20156224 1.1620672 1448725
0.23803525 0.21140249 1.1605375 2172195
0.24299602 0.2116977 1.1621654 2172450
0.23713849 0.11914302 1.1765248 1777176
0.2411321 0.11938307 1.1708255 1711897
0.23523495 0.12475359 1.1751443 1711384
0.24112833 0.12167785 1.1708676 1711897
0.23605767 0.1347401 1.1740279 1580311
0.24217613 0.13275726 1.1716613 1580311
0.23649505 0.14486374 1.1758057 1514518
0.2427453 0.14689496 1.1710651 1580054
0.23654458 0.15477183 1.1759537 1514261
0.24311267 0.15563135 1.1713722 1448468
0.23868763 0.16376635 1.1776623 1448724
0.24485123 0.16463394 1.1753724 1382932
0.25099736 0.16654414 1.1723516 1382932
0.23899727 0.17179978 1.1775566 1317139
0.24509643 0.17391744 1.1756139 1382932
0.2517736 0.17528418 1.1738663 1382932
0.24518205 0.18070944 1.1794149 1317139
0.25425434 0.18500271 1.1758003 1382932
0.24921715 0.19616759 1.175161 1383189
0.25429347 0.19528078 1.1730462 1383189
0.26309723 0.19815767 1.1717391 1514518
0.24742158 0.20130107 1.1750212 1382932
0.25885904 0.20013371 1.1746472 1448725
0.22948448 0.11883456 1.1899238 1711383
0.23168603 0.11832695 1.1843936 1711640
0.2287302 0.12477463 1.1888392 1646104
0.23168086 0.12473536 1.1831926 1646104
0.22775003 0.13598838 1.1884756 1645591
0.23118724 0.13551283 1.1827127 1580055
0.2265753 0.14303622 1.1880597 1448725
0.23120107 0.14479312 1.1830077 1514518
0.23248017 0.1554109 1.1847662 1514517
0.22894756 0.162854 1.188735 1514518
0.23476318 0.1649266 1.1844699 1448724
0.23728722 0.17418061 1.186534 1382932
0.24062318 0.17852372 1.1844167 1382932
0.23500298 0.18663245 1.1866161 1382930
0.24376462 0.1853174 1.1843071 1317139
0.25134873 0.18603346 1.1822076 1382932
0.22842228 0.19976227 1.187416 1382932
0.23472419 0.19499847 1.1876888 1317138
0.24648723 0.19488057 1.1844306 1317396
0.22772127 0.2012416 1.1894498 1317139
0.23500438 0.20299755 1.1858158 1317139
0.24233694 0.20154646 1.185895 1382932
0.21833107 0.11951205 1.1975378 1646104
0.22507562 0.11940794 1.1962252 1580311
0.21982265 0.12904337 1.1991994 1776920
0.22500029 0.12565164 1.1943399 1580311
0.21873479 0.13398723 1.1979663 1645334
0.22368278 0.13406114 1.1926839 1580054
0.21906041 0.14439844 1.1982874 1645334
0.22413287 0.14610708 1.1934098 1514262
0.21908651 0.15567914 1.1986941 1514261
0.22506161 0.15573458 1.1970786 1448469
0.23058824 0.15509157 1.1935791 1514518
0.21795022 0.16505109 1.1970007 1448468
0.22529168 0.16474646 1.1954706 1513748
0.23103374 0.16804062 1.1928122 1382932
0.21975335 0.17129426 1.1999745 1448725
0.23450646 0.17477559 1.1955415 1317139
0.22644739 0.18441395 1.1971544 1317138
0.23366047 0.18364221 1.1937177 1317139
0.21948826 0.19695894 1.1994472 1317140
0.22475618 0.19543204 1.1941835 1317138
0.23292291 0.19501029 1.1925896 1317138
0.24199547 0.19448027 1.190448 1317651
0.21746668 0.20484194 1.1976093 1580311
0.22347763 0.20318356 1.1944244 1317139
0.2309725 0.20538697 1.1934974 1251346
0.20959979 0.11792652 1.2060888 1711897
0.21536256 0.11973923 1.2000691 1646104
0.20883983 0.12047158 1.2081426 1580054
0.21583827 0.1249739 1.2057004 1579798
0.22177008 0.12373024 1.2007515 1645847
0.21512561 0.13537252 1.2056923 1514518
0.20997633 0.14884345 1.2086525 1579541
0.21515676 0.1453336 1.2047718 1514005
0.20997246 0.1512076 1.2086959 1513748
0.21472861 0.15425527 1.2050613 1514005
0.2200031 0.15498489 1.2006736 1579541
0.21470222 0.16565756 1.2063345 1382932
0.20869873 0.1748123 1.20889 1317139
0.21589755 0.17442869 1.2058859 1317139
0.2250572 0.17545842 1.2027261 1382932
0.23141667 0.17573074 1.2022017 1382932
0.21696526 0.18633211 1.2055264 1317139
0.22206427 0.18424679 1.2016201 1317139
0.23264802 0.18070662 1.2000314 1382932
0.20566815 0.19738796 1.2063303 1317139
0.21823245 0.19291823 1.2056357 1251347
0.22292587 0.19091038 1.2006391 1382932
0.20579349 0.20345941 1.2056904 1514518
0.21485944 0.20454116 1.2047399 1514518
0.2064825 0.11861964 1.2137978 1711128
0.20651712 0.12499844 1.215157 1580055
0.21317743 0.12624528 1.2119248 1580054
0.19910932 0.13779773 1.2160491 1448725
0.20508787 0.13499038 1.2141278 1514518
0.21208557 0.1350209 1.2118096 1514518
0.19782887 0.14044507 1.2186096 1382932
0.20537986 0.14518718 1.2145693 1514005
0.21220414 0.14307481 1.2133611 1514261
0.20668516 0.15558061 1.2157238 1514005
0.21049632 0.15742457 1.2113056 1448725
0.20696992 0.1638141 1.217289 1382932
0.21188252 0.16425136 1.2132046 1382932
0.20566776 0.17498958 1.2134441 1382932
0.21268897 0.17707685 1.2109795 1317139
0.20745395 0.18332838 1.2163088 1317139
0.21332285 0.18408363 1.213186 1317139
0.20614475 0.1935876 1.2153974 1317139
0.21436569 0.19565952 1.2128054 1317139
0.2077345 0.20337352 1.2106724 1382932
0.21354476 0.20255604 1.2128558 1317139
0.19714884 0.11975726 1.2265716 1711127
0.20235965 0.11941728 1.2226844 1711129
0.19621083 0.12307929 1.2279744 1645334
0.20339859 0.12570126 1.2259579 1645591
0.19715309 0.13595518 1.2250347 1448725
0.20078549 0.13238445 1.2251034 1514518
0.19580911 0.14537776 1.2251811 1514261
0.20091623 0.14680281 1.2221992 1579541
0.19667016 0.15526469 1.2277824 1513748
0.20283242 0.1549872 1.2252772 1579541
0.19764623 0.16198844 1.2261744 1514004
0.2036773 0.16623046 1.2223941 1382932
0.20345798 0.1756255 1.2237049 1317139
0.20463423 0.18558139 1.2243769 1317139
0.19490415 0.19576912 1.2276516 1317139
0.20368168 0.19373207 1.2252495 1317138
0.18875031 0.20139512 1.2288101 1317139
0.19295052 0.11816941 1.2357486 1580311
0.18751399 0.12404866 1.2375305 1580055
0.19397312 0.1261442 1.2329683 1645335
0.20144406 0.1269318 1.2313322 1580054
0.18978865 0.13169998 1.2385256 1645592
0.19417867 0.13413189 1.2338299 1514262
0.1899517 0.14996596 1.2398591 1514518
0.19269317 0.14437109 1.236017 1448725
0.19315419 0.15523611 1.2343702 1513748
0.20033857 0.15262875 1.231313 1645334
0.1895403 0.16545692 1.2381464 1579541
0.1944778 0.16582915 1.2358007 1448212
0.200414 0.1683339 1.2321004 1448725
0.18894608 0.17473231 1.235321 1382676
0.19490851 0.17469035 1.2348917 1382676
0.20218943 0.17474012 1.2350775 1317139
0.19618447 0.18407834 1.2355186 1317139
0.20086788 0.18470192 1.2323962 1317139
0.18722449 0.19618979 1.2367302 1317139
0.19396852 0.19336528 1.2343173 1317139
0.20162196 0.1921318 1.2339261 1382931
0.17514916 0.20307432 1.2399652 1975069
0.18440142 0.20395108 1.2376478 1711898
0.17935979 0.11917145 1.2473913 1711897
0.18479206 0.11886881 1.2438363 1580311
0.19019619 0.11856614 1.2402816 1646104
0.17738283 0.1251927 1.2467692 1514519
0.18395494 0.12504008 1.24279 1580311
0.17220381 0.13266404 1.248703 1514520
0.18731025 0.13361025 1.2455842 1514519
0.19103806 0.13718754 1.2409489 1448725
0.16973867 0.14851309 1.2490156 1382934
0.18944681 0.1462194 1.2497971 1448725
0.19034728 0.14412655 1.2417489 1448725
0.18556763 0.15452173 1.2479837 1448725
0.19018278 0.15616971 1.2412211 1514005
0.18761036 0.16472873 1.2463742 1448468
0.18673602 0.17451452 1.2448945 1317139
0.18917207 0.18453351 1.2451675 1382675
0.1924718 0.18633752 1.2428787 1317139
0.17782786 0.19822881 1.247854 1382932
0.18367107 0.19525559 1.2449687 1317139
0.19119169 0.19121954 1.2411044 1448212
0.17641193 0.20306043 1.2424542 1711897
0.18119936 0.20382297 1.2420919 1711897
0.1752048 0.11952101 1.2514358 1514519
0.17593452 0.12576447 1.2529439 1514519
0.18007767 0.12930888 1.2515715 1711897
0.17593788 0.13605569 1.2532327 1514519
0.18363179 0.13639303 1.2546701 1580311
0.1754182 0.14534651 1.2533243 1448983
0.18475795 0.14538687 1.2554721 1448982
0.17657363 0.15243132 1.2565277 1514264
0.18178615 0.15506029 1.2526951 1448725
0.1830174 0.16513659 1.2552025 1448725
0.1826095 0.17492859 1.2544764 1382932
0.17604269 0.18732272 1.2579579 1382676
0.1850329 0.18512243 1.2563287 1448211
0.17467435 0.1943758 1.2548132 1251346
0.18364725 0.19189402 1.2555445 1382419
0.1792208 0.1584871 1.2611159 1448725
0.17741092 0.16607963 1.2649721 1382932
0.16943701 0.17330362 1.2619753 1448468
0.17584924 0.17513685 1.2645046 1382932
0.17474599 0.18394542 1.2628453 1317139
