# .PCD v0.7 - Point Cloud Data file format
VERSION 0.7
FIELDS x y z rgba
SIZE 4 4 4 4
TYPE F F F U
COUNT 1 1 1 1
WIDTH 1121
HEIGHT 1
VIEWPOINT 0 0 0 1 0 0 0
POINTS 1121
DATA ascii
0.54777831 0.18276052 1.191242 4282205763
0.54962534 0.18262021 1.1902226 4282205763
0.55097777 0.18233539 1.1882049 4282205763
0.55182999 0.18190601 1.1851888 4282271556
0.55366015 0.18176569 1.1841695 4282403142
0.55499011 0.18148081 1.182152 4282534728
0.55631256 0.18119593 1.1801345 4282468935
0.5576275 0.18091103 1.178117 4282534728
0.56044126 0.18105975 1.1790948 4282534728
0.56527472 0.18178664 1.1840658 4282666314
0.57224345 0.1817992 1.1840036 4282863695
0.57098597 0.1807915 1.1769949 4282929488
0.56918889 0.17963918 1.1689882 4282863696
0.57096845 0.17949875 1.1679695 4282995027
0.57170999 0.17906918 1.1649543 4282863954
0.5729593 0.17878416 1.1629375 4283060820
0.57524288 0.17878827 1.1629171 4283060820
0.57648093 0.17850325 1.1609004 4283258199
0.5766623 0.17792903 1.1568874 4283258199
0.57840812 0.17778854 1.1558689 4283257429
0.58226359 0.17822641 1.158843 4283454808
0.58453965 0.17823051 1.1588227 4283454808
0.58468723 0.17765623 1.15481 4283520601
0.58321792 0.17664814 1.1478032 4283521371
0.58332992 0.1760738 1.1437908 4283521371
0.58450234 0.17578864 1.1417747 4283521371
0.58728611 0.17593731 1.1427526 4283587164
0.58953214 0.17594136 1.1427326 4283652957
0.59123486 0.17580079 1.1417146 4283718750
0.59184331 0.17537099 1.1387006 4283784799
0.59134632 0.17465191 1.1336908 4283653470
0.59083062 0.17393281 1.1286812 4283719263
0.59249955 0.17379218 1.1276635 4283719263
0.59582293 0.17408545 1.1296395 4283850849
0.600263 0.174668 1.1336112 4283850849
0.60360515 0.1749613 1.135587 4283851106
0.60472137 0.17467605 1.1335714 4284048486
0.60358912 0.17381218 1.1275644 4284048486
0.60468286 0.17352688 1.125549 4284048486
0.60858893 0.17396484 1.1285226 4284114022
0.61137462 0.1741135 1.1295005 4284377194
0.61416399 0.17426217 1.1304785 4284377194
0.61467874 0.17383219 1.1274654 4284442987
0.61518222 0.17340219 1.1244524 4284640366
0.61452776 0.17268284 1.119444 4284574573
0.61385453 0.17196345 1.1144358 4284706159
0.61373967 0.1713887 1.1104255 4284771952
0.61592573 0.17139265 1.1104059 4284837745
0.61462665 0.17052849 1.1044004 4284640366
0.60980868 0.16879618 1.0924094 4284706159
0.6113764 0.16865537 1.0913925 4284903538
0.61235386 0.16836986 1.0893781 4284903538
0.61567724 0.16866313 1.0913541 4284969331
0.6207788 0.16939051 1.0963228 4285035381
0.62530702 0.16997321 1.1002936 4284903795
0.62806827 0.17012183 1.1012719 4285166710
0.63083333 0.17027046 1.10225 4285166710
0.63300437 0.17027438 1.1022305 4285298296
0.63517541 0.17027828 1.1022112 4285298554
0.63674498 0.17013748 1.1011944 4285298555
0.63831079 0.16999668 1.1001775 4285495934
0.63926768 0.16971113 1.0981632 4285561727
0.64143121 0.16971503 1.0981439 4285430654
0.64298576 0.1695742 1.0971272 4285365118
0.64453661 0.16943336 1.0961105 4285495934
0.64669639 0.16943726 1.0960913 4285561727
0.64578319 0.16871743 1.0910852 4285693313
0.64731717 0.16857657 1.0900686 4285955972
0.6426639 0.16698819 1.0790789 4285955972
0.64727271 0.16757104 1.0830492 4285955972
0.65065229 0.16786441 1.0850246 4286021767
0.6527915 0.16786827 1.0850055 4286087560
0.65493065 0.16787213 1.0849864 4286088073
0.65267581 0.16686261 1.0779866 4286088073
0.65543145 0.16701122 1.0789648 4286088587
0.66008526 0.16759415 1.0829346 4286285966
0.66285402 0.16774279 1.0839127 4286286220
0.66372091 0.16745707 1.0818993 4286352013
0.66203183 0.16659223 1.0758973 4286417806
0.66032034 0.16572732 1.0698956 4286417549
0.659868 0.16515197 1.0658883 4286483342
0.65618706 0.16385262 1.0568956 4286549392
0.65376157 0.1628428 1.0498974 4286746771
0.65454215 0.16255693 1.0478847 4286746771
0.6559636 0.16241586 1.0468692 4286681235
0.65478045 0.16169555 1.0418656 4286681235
0.6555348 0.16140963 1.0398531 4286812565
0.65497375 0.16083409 1.0358468 4286878103
0.65767688 0.16098259 1.0368255 4286943896
0.66433012 0.16200005 1.0437859 4287075482
0.6710096 0.16301754 1.0507462 4287206554
0.53155237 0.19103318 1.2325476 4282934645
0.53212184 0.19045217 1.2285311 4281680455
0.53221357 0.18972479 1.2235159 4282205510
0.53135735 0.18870468 1.2165034 4282204995
0.53234076 0.18826993 1.213486 4282270534
0.53518641 0.18842056 1.2144635 4282204994
0.53709531 0.1882785 1.2134435 4282270786
0.53947264 0.18828279 1.2134223 4282336579
0.54184991 0.18828708 1.2134011 4281020718
0.5437513 0.188145 1.2123812 4279836445
0.54564899 0.18800291 1.2113614 4282204991
0.54562449 0.18727532 1.2063472 4282139198
0.54413676 0.18610854 1.1983376 4282205248
0.54358578 0.1852345 1.1923251 4282403142
0.54543841 0.18509233 1.1913058 4282271556
0.54728734 0.18495016 1.1902864 4282337349
0.54864353 0.18466158 1.1882684 4282271556
0.54999226 0.18437299 1.1862507 4282337349
0.55133343 0.1840844 1.184233 4282534729
0.55266714 0.18379578 1.1822153 4282337350
0.55448979 0.18365356 1.1811961 4282403143
0.55581039 0.18336493 1.1791786 4282403143
0.55762368 0.18322268 1.1781595 4282403143
0.55993533 0.18322685 1.1781389 4282468936
0.56325495 0.18352386 1.180115 4282600522
0.56658208 0.18382087 1.182091 4282666314
0.56890124 0.18382506 1.1820703 4282732107
0.5696916 0.18338996 1.1790545 4282732109
0.56893623 0.18251553 1.1730441 4282863695
0.56867176 0.18178751 1.1680321 4282863695
0.57147992 0.18193808 1.1690098 4282929233
0.5737747 0.18194222 1.1689893 4282995025
0.5755505 0.18179992 1.1679705 4282995027
0.57732254 0.18165761 1.1669519 4282995027
0.5785681 0.18136883 1.164935 4283191893
0.57875699 0.18078713 1.1609218 4283323478
0.57945734 0.18035187 1.1579069 4283454551
0.58120316 0.1802095 1.1568885 4283454808
0.58400565 0.18036008 1.1578662 4283454808
0.58468354 0.17992477 1.1548516 4283455321
0.58481616 0.17934297 1.150839 4283323992
0.58600545 0.1790541 1.1488225 4283389785
0.5866496 0.17861873 1.1458082 4283586650
0.58836162 0.1784763 1.1447899 4283455578
0.5895285 0.17818739 1.1427739 4283521371
0.59014446 0.17775197 1.1397597 4283521627
0.58965874 0.17702354 1.1347497 4283521884
0.58751297 0.17585559 1.1267458 4283587677
0.59360838 0.17572108 1.1256884 4283785056
0.59859556 0.17645763 1.1306583 4283719263
0.60137558 0.17660815 1.1316364 4283785056
0.6030426 0.17646565 1.1306186 4283982436
0.60246503 0.17573705 1.1256094 4284048229
0.60467923 0.17574105 1.1255896 4284114280
0.60914928 0.17633115 1.1295612 4284048229
0.61193681 0.17648169 1.1305391 4284245865
0.61472809 0.17663224 1.1315171 4284377451
0.61581427 0.17634317 1.1295016 4284245865
0.61575007 0.17576101 1.1254907 4284377451
0.6162442 0.17532538 1.1224777 4284508780
0.61615181 0.17474318 1.118467 4284574573
0.61489028 0.17386784 1.112461 4284640366
0.61592209 0.17357868 1.110446 4284705903
0.61346138 0.17241016 1.102445 4284705903
0.61097062 0.1712416 1.0944443 4284706159
0.61137289 0.17080578 1.091432 4284771952
0.6135233 0.17080967 1.0914128 4284706159
0.61626208 0.17096011 1.0923913 4284771952
0.61900461 0.17111057 1.0933696 4284903795
0.62056667 0.17096788 1.0923527 4284838002
0.62450087 0.17141151 1.0953262 4285035381
0.62963808 0.17214832 1.1002947 4285035381
0.63419628 0.17273858 1.1042655 4284969588
0.63637108 0.1727425 1.104246 4285232761
0.63613993 0.17216004 1.1002367 4285166969
0.6352905 0.17143098 1.0952299 4285166970
0.63563275 0.17099506 1.0922182 4285232763
0.63778508 0.17099895 1.092199 4285298555
0.63750148 0.17041638 1.08819 4285364348
0.63903546 0.17027365 1.0871733 4285298555
0.64424199 0.17101058 1.0921413 4285430141
0.6470089 0.17116109 1.0931194 4285561727
0.64916307 0.17116497 1.0931002 4285759106
0.6445154 0.16955598 1.08211 4285759106
0.64850962 0.16999972 1.085083 4285955972
0.65313721 0.1705901 1.0890532 4285890181
0.65715581 0.17103387 1.0920259 4285890694
0.65993392 0.17118441 1.0930039 4286022280
0.65267229 0.16898866 1.0780257 4286088073
0.65542793 0.16913913 1.0790039 4285891208
0.65818733 0.16928962 1.0799822 4286022794
0.66095048 0.16944012 1.0809603 4286154380
0.66308218 0.16944396 1.0809413 4286220173
0.66202837 0.16871451 1.0759363 4286285966
0.66223377 0.16827835 1.0729258 4286088841
0.65986454 0.16725551 1.0659269 4286352013
0.65682632 0.16608596 1.0579311 4286352013
0.65440273 0.16506301 1.0509325 4286417806
0.65647817 0.16506675 1.050914 4286549392
0.65790528 0.16492382 1.0498984 4286680978
0.65802819 0.16448751 1.0468887 4286746771
0.6587919 0.16419786 1.0448761 4286812564
0.65693229 0.16332145 1.0388755 4286943896
0.6589852 0.16332516 1.0388571 4286878103
0.66498446 0.16420904 1.0448208 4286878103
0.66770822 0.16435947 1.0457993 4286878103
0.67043579 0.16450989 1.0467778 4287009432
0.52925354 0.19270502 1.227598 4282408558
0.53119618 0.19256113 1.2265776 4281746249
0.53313512 0.19241725 1.2255574 4282270531
0.53274727 0.19153224 1.2195435 4282073923
0.53280336 0.19079542 1.2145283 4282204740
0.53518254 0.19079971 1.2145071 4282073408
0.53662121 0.19050753 1.2124884 4282270787
0.53805238 0.19021535 1.2104698 4282139457
0.5394761 0.18992314 1.2084513 4280625960
0.5408923 0.18963093 1.2064328 4280033824
0.54373419 0.18978344 1.2074103 4282270784
0.5446614 0.18934296 1.2043934 4282073663
0.54413289 0.1884577 1.1983806 4282205506
0.54309857 0.18742414 1.1913694 4282139970
0.54494935 0.18728009 1.1903501 4282205764
0.5458222 0.18683951 1.1873335 4282074179
0.54717278 0.18654718 1.1853156 4282139715
0.54851586 0.18625483 1.1832978 4282271301
0.54985142 0.18596247 1.18128 4282403144
0.55167413 0.18581837 1.1802609 4282337351
0.55349302 0.18567427 1.1792417 4282271558
0.55530822 0.18553016 1.1782225 4282337351
0.55761987 0.18553433 1.1782019 4282468937
0.55892736 0.18524192 1.1761844 4282534730
0.56073129 0.18509778 1.1751654 4282534730
0.56303734 0.18510196 1.1751448 4282534728
0.56534332 0.18510611 1.1751242 4282666314
0.5671398 0.18496196 1.1741052 4282797900
0.56739801 0.18437289 1.1700913 4282797901
0.56918132 0.18422872 1.1690724 4282732109
0.57199138 0.18438117 1.1700503 4282995281
0.57532221 0.18468195 1.1720263 4282929488
0.57710367 0.18453778 1.1710075 4282863696
0.5783605 0.18424529 1.1689904 4282995026
0.57960981 0.18395276 1.1669735 4283125843
0.58032703 0.1835119 1.1639583 4283257429
0.58155954 0.18321936 1.1619414 4283257429
0.58331281 0.18307513 1.1609229 4283323222
0.58453214 0.18278256 1.1589062 4283257942
0.58521187 0.18234164 1.1558914 4283258199
0.5853464 0.18175234 1.1518786 4283258199
0.58760935 0.18175642 1.1518583 4283258199
0.58772135 0.18116708 1.1478456 4283455578
0.58781832 0.18057773 1.1438332 4283587164
0.58844185 0.1801367 1.1408188 4283587164
0.58851075 0.17954728 1.1368066 4283455834
0.58801937 0.17880946 1.1317965 4283521884
0.58696222 0.17792326 1.1257885 4283587677
0.59028888 0.17763449 1.123753 4283653470
0.59415746 0.17808361 1.1267271 4283653983
0.59692812 0.17823601 1.1277052 4283785056
0.59858954 0.17809162 1.1266875 4283719263
0.60080558 0.17809561 1.1266677 4283916643
0.60190117 0.17780282 1.124652 4283982436
0.60467559 0.17795521 1.1256301 4283916643
0.60970962 0.17870121 1.1305997 4284179815
0.612499 0.17885363 1.1315777 4284179815
0.61415672 0.17870924 1.13056 4284180072
0.61524105 0.17841642 1.1285446 4284311658
0.61631793 0.17812359 1.1265291 4284311658
0.61738724 0.17783076 1.1245137 4284245608
0.61902434 0.17768632 1.1234962 4284574573
0.61892635 0.17709661 1.1194854 4284377194
0.6188134 0.17650686 1.1154748 4284442987
0.61636204 0.17532337 1.1074734 4284508780
0.61329794 0.17399137 1.0984746 4284574573
0.61429232 0.1736984 1.0964599 4284574830
0.6164521 0.1737023 1.0964406 4284509037
0.61861193 0.17370619 1.0964214 4284772209
0.6195913 0.17341319 1.0944067 4284772209
0.62056315 0.17312017 1.0923922 4284706416
0.62271541 0.17312406 1.092373 4284838002
0.62844282 0.1740187 1.0983393 4284903795
0.63479042 0.17506184 1.1053029 4284838002
0.6363675 0.1749173 1.104286 4285166455
0.63613641 0.17432734 1.1002764 4285232506
0.63468361 0.17344041 1.0942719 4285298042
0.63381356 0.17270193 1.0892651 4285298042
0.63596028 0.17270578 1.0892459 4285363835
0.63628006 0.17226422 1.0862343 4285363835
0.63781023 0.17211959 1.0852178 4285298042
0.64240026 0.17271741 1.0891885 4285232505
0.64761996 0.17346375 1.0941563 4285561727
0.6510089 0.17376463 1.0961319 4285430141
0.6525504 0.17362003 1.0951152 4285824386
0.65408808 0.17347541 1.0940986 4285758593
0.65748835 0.17377631 1.096074 4285692800
0.65353566 0.17082149 1.0760511 4286022280
0.65250063 0.1700827 1.0710458 4286088073
0.65461355 0.17008652 1.0710269 4285957001
0.66117305 0.17113003 1.0779886 4286088587
0.66075069 0.17053974 1.0739808 4286154380
0.66095239 0.17009795 1.0709703 4286088587
0.65922022 0.16921051 1.0649683 4286417806
0.65746564 0.16832304 1.0589665 4286286220
0.65697771 0.16773263 1.0549593 4286417806
0.65906066 0.16773638 1.0549406 4286417806
0.66179192 0.16788869 1.0559192 4286483599
0.66257626 0.16759534 1.0539063 4286549392
0.662049 0.16700485 1.0498993 4286615185
0.66085273 0.16626577 1.0448955 4286746771
0.66357273 0.16641806 1.0458741 4286680724
0.66695422 0.16671893 1.0478498 4286746517
0.66770488 0.16642551 1.0458372 4286746517
0.66514069 0.1653892 1.0388397 4286812564
0.52970856 0.19525862 1.2286408 4282209896
0.53211397 0.19526295 1.2286193 4281744968
0.53451937 0.19526729 1.2285979 4282138948
0.53460175 0.19452114 1.2235824 4282008387
0.53466535 0.19377497 1.2185671 4281942338
0.53658366 0.19362916 1.2175471 4282073409
0.53755778 0.19318314 1.2145295 4282073665
0.53804851 0.19258699 1.2105134 4282074177
0.53899825 0.19214092 1.207496 4280100130
0.54041255 0.19184496 1.2054775 4280165410
0.54277486 0.19184922 1.2054564 4282139200
0.54465753 0.19170335 1.2044367 4282073664
0.54412907 0.19080684 1.1984237 4282008127
0.54309475 0.18976016 1.1914123 4282074177
0.54397511 0.18931396 1.1883956 4282074178
0.54484421 0.18886776 1.185379 4282205765
0.54619104 0.18857168 1.1833611 4282008386
0.54753035 0.18827556 1.1813432 4282139972
0.54984766 0.18827975 1.1813226 4282271558
0.55216491 0.18828392 1.1813018 4282271558
0.55398571 0.18813795 1.1802826 4282403144
0.55580276 0.18799196 1.1792635 4282271558
0.55761611 0.18784598 1.1782444 4282271558
0.55791938 0.1872495 1.1742299 4282337351
0.55820763 0.18665297 1.1702155 4282468937
0.56050426 0.18665712 1.170195 4282534729
0.56280094 0.18666126 1.1701745 4282534728
0.56509763 0.1866654 1.170154 4282666314
0.56739426 0.18666954 1.1701334 4282732107
0.56969094 0.18667369 1.1701128 4282600522
0.57198757 0.18667783 1.1700923 4282732109
0.57480133 0.18683216 1.1710702 4282666316
0.57658094 0.18668611 1.1700513 4282863694
0.57731503 0.18623966 1.1670359 4282863695
0.57908332 0.18609358 1.1660172 4283060817
0.58084792 0.18594751 1.1649985 4283060304
0.58366168 0.18610185 1.1659763 4283191636
0.58595085 0.18610598 1.1659558 4283192150
0.58558887 0.18535903 1.1609443 4282995027
0.584144 0.1843116 1.1539366 4283127126
0.58374077 0.18356457 1.1489255 4283192663
0.58546221 0.18341842 1.1479073 4283192919
0.58610445 0.18297181 1.1448927 4283324505
0.58673549 0.18252516 1.1418781 4283324248
0.58681375 0.18192826 1.1378657 4283324505
0.58850706 0.18178207 1.1368476 4283390298
0.58965141 0.18148561 1.1348315 4283456091
0.58805281 0.18043791 1.1278251 4283521884
0.58862376 0.17999116 1.1248113 4283521884
0.59193778 0.18029566 1.1267875 4283653983
0.59525925 0.18060017 1.1287638 4283719776
0.59747905 0.18060417 1.1287439 4283522397
0.59802943 0.18015738 1.1257302 4283587677
0.59968525 0.18001111 1.1247125 4283850850
0.60133731 0.17986484 1.1236947 4283850850
0.60467196 0.18016936 1.1256708 4283785057
0.60970598 0.18092474 1.1306405 4284047972
0.61192954 0.18092875 1.1306207 4283916643
0.61415309 0.18093276 1.1306008 4284179815
0.61466783 0.18048592 1.1275874 4284048486
0.6157428 0.18018934 1.1255718 4284114279
0.61681026 0.17989275 1.1235565 4284179815
0.61844546 0.17974643 1.1225389 4284377194
0.61892277 0.17929952 1.1195258 4284311658
0.61938876 0.17885257 1.1165129 4284377194
0.61693931 0.17765409 1.1085112 4284377194
0.61620802 0.17690647 1.103503 4284377451
0.61838096 0.17691039 1.1034836 4284443244
0.62055385 0.1769143 1.1034641 4284574830
0.62213844 0.1767679 1.102447 4284574830
0.62076819 0.17586988 1.0964416 4284640623
0.62055963 0.17527246 1.0924317 4284838002
0.62033606 0.17467502 1.0884219 4284838002
0.62248087 0.17467889 1.0884027 4284903538
0.63000512 0.17603579 1.097362 4284837745
0.63276637 0.17619003 1.0983403 4284969332
0.63372695 0.17589325 1.0963259 4285034870
0.63287008 0.1751454 1.0913188 4285166456
0.63259965 0.17454788 1.0873095 4285298040
0.63413548 0.17440139 1.0862927 4285297783
0.63566756 0.17425489 1.0852761 4285298040
0.63902843 0.17455947 1.087252 4285364089
0.64239675 0.17486407 1.0892278 4285495675
0.64761639 0.17561978 1.0941958 4285495934
0.6503889 0.17577405 1.0951741 4285430141
0.65131015 0.17547719 1.0931599 4285561214
0.65346432 0.17548108 1.0931407 4285627007
0.65561849 0.17548496 1.0931214 4285758593
0.65101385 0.17234221 1.0721008 4286022280
0.64807695 0.17114283 1.0641035 4285956487
0.64891005 0.17084582 1.0620902 4285825415
0.64973569 0.17054878 1.0600768 4285957001
0.65692472 0.17175584 1.0680362 4286022794
0.65839303 0.17160922 1.0670201 4286022794
0.65793514 0.17101136 1.0630124 4286154380
0.65681946 0.17026304 1.0580077 4286154380
0.65826344 0.17011639 1.0569918 4286220173
0.6622895 0.17057143 1.0599647 4286351759
0.66438186 0.1705752 1.0599459 4286285966
0.66452348 0.17012767 1.0569359 4286417552
0.66530603 0.16983058 1.0549231 4286417806
0.66608101 0.16953345 1.0529102 4286549392
0.66750437 0.16938676 1.0518945 4286483599
0.66958165 0.1693905 1.0518759 4286615185
0.66968024 0.16894291 1.0488663 4286680208
0.66646022 0.16774303 1.0408715 4286811794
0.53544086 0.19797662 1.2306397 4282008389
0.53552699 0.1972211 1.225624 4281942853
0.53606087 0.19661753 1.2216073 4281942852
0.53845316 0.19662185 1.221586 4282008386
0.53896457 0.19601823 1.2175695 4282073665
0.5394609 0.19541459 1.2135532 4282074177
0.5404163 0.1949629 1.2105356 4279902752
0.5418362 0.1946632 1.2085171 4280560168
0.54372638 0.19451548 1.2074971 4282073407
0.54465365 0.19406375 1.2044799 4281942077
0.5441252 0.19315599 1.1984668 4282008127
0.54357427 0.1922482 1.1924539 4281876798
0.54445648 0.19179638 1.189437 4282074178
0.54532748 0.19134454 1.1864203 4282074179
0.54667616 0.1910447 1.1844023 4282205765
0.54899907 0.19104891 1.1843815 4282074436
0.55181473 0.19120511 1.1853594 4282074179
0.55413949 0.1912093 1.1853386 4282140229
0.55547136 0.19090945 1.1833208 4282271558
0.55629736 0.19045752 1.1803044 4282205765
0.5576123 0.19015764 1.1782867 4282271558
0.55741346 0.1894016 1.1732736 4282205765
0.55769986 0.18879758 1.1692591 4282337351
0.55948883 0.18864967 1.1682402 4282468935
0.56228948 0.18880586 1.1692182 4282403142
0.56509382 0.18896206 1.1701961 4282534728
0.56841344 0.1892703 1.1721723 4282666314
0.57071388 0.18927446 1.1721518 4282666314
0.57301426 0.1892786 1.1721313 4282666316
0.5753147 0.18928276 1.1721107 4282666316
0.57657713 0.18898277 1.1700934 4282797900
0.57731128 0.18853068 1.167078 4282929488
0.57803416 0.18807858 1.1640626 4282863695
0.58084416 0.18823479 1.1650405 4282797902
0.58365792 0.188391 1.1660182 4282929488
0.58647543 0.18854721 1.1669961 4283061075
0.58558512 0.1876388 1.1609862 4282995538
0.58360815 0.18642616 1.15298 4283061331
0.58320314 0.18566976 1.1479688 4283061585
0.58492267 0.18552172 1.1469504 4283061331
0.58556306 0.18506949 1.1439357 4283192918
0.58673179 0.18476932 1.1419194 4283258712
0.58735156 0.18431704 1.1389048 4283258712
0.58904678 0.18416896 1.1378868 4283258712
0.59128344 0.18417299 1.1378667 4283324505
0.59297299 0.1840249 1.1368487 4283324505
0.59465879 0.18387681 1.1358306 4283324505
0.59744257 0.18403296 1.1368088 4283456604
0.59912467 0.18388487 1.1357907 4283456605
0.59913921 0.18328036 1.1317787 4283522142
0.59858227 0.18252368 1.1267688 4283653471
0.60079831 0.18252768 1.126749 4283587678
0.60245413 0.18237953 1.1257312 4283785057
0.60523039 0.18253568 1.1267093 4283850850
0.60970235 0.18314828 1.1306814 4283719264
0.61136001 0.18300013 1.1296636 4283982436
0.61244625 0.18269983 1.1276479 4284048229
0.61238581 0.18209517 1.1236365 4283982436
0.61345333 0.18179484 1.121621 4284179815
0.61451328 0.18149447 1.1196057 4284245608
0.61729145 0.18165062 1.1205838 4284311401
0.61949623 0.1816546 1.1205641 4284245608
0.62112206 0.1815064 1.1195465 4284442987
0.62390584 0.18166256 1.1205246 4284377194
0.61970073 0.1799925 1.1095295 4284377194
0.62013113 0.17953986 1.1065167 4284377451
0.62289613 0.17969599 1.107495 4284443244
0.62331158 0.17924333 1.1044823 4284377451
0.62076461 0.17802967 1.0964812 4284509037
0.62114817 0.17757696 1.0934689 4284640623
0.61973858 0.1766676 1.0874636 4284706159
0.62188148 0.17667148 1.0874444 4284771697
0.62521982 0.17697977 1.0894206 4284771698
0.62796611 0.17713585 1.090399 4284837491
0.63071615 0.17729194 1.0913775 4284903284
0.63165987 0.17699137 1.0893631 4284903284
0.63078046 0.17623413 1.0843561 4284969332
0.63352489 0.1763902 1.0853345 4285035124
0.63749093 0.17685077 1.088308 4285100917
0.64207911 0.17746358 1.092279 4285232503
0.64484411 0.1776197 1.0932572 4285166710
0.64699829 0.17762358 1.093238 4285232503
0.64853597 0.17747521 1.0922213 4285298042
0.64945161 0.1771746 1.0902071 4285364089
0.65097994 0.17702623 1.0891905 4285495675
0.65063828 0.17642108 1.0851816 4285758847
0.6459139 0.17475007 1.0741911 4285758847
0.64803243 0.17475389 1.0741721 4285627261
0.64952326 0.17460544 1.0731558 4285758593
0.64723283 0.17354338 1.0661554 4285955972
0.64681059 0.17293808 1.0621473 4285824386
0.64700663 0.17248502 1.0591366 4285759108
0.64909703 0.17248879 1.0591179 4285956487
0.65309876 0.17294942 1.0620911 4285957001
0.65647274 0.17325778 1.0640669 4285957001
0.65665001 0.1728047 1.0610564 4286022794
0.65617335 0.17219929 1.0570488 4286022794
0.65890461 0.17235535 1.0580273 4286022794
0.6622861 0.17266372 1.060003 4286088587
0.66308171 0.17236289 1.05799 4286351759
0.66321969 0.17190973 1.0549798 4286285452
0.6646505 0.17176118 1.053964 4286613904
0.66542363 0.17146032 1.0519512 4286548109
0.6681568 0.17161638 1.0529298 4286417036
0.67023599 0.17162013 1.0529112 4286548622
0.66967684 0.17101458 1.0489043 4286417806
0.66711831 0.16995202 1.0419062 4286483599
0.53497422 0.20023192 1.2296849 4282074182
0.5350585 0.19946702 1.2246692 4282139975
0.53605694 0.19900979 1.2216512 4281942595
0.53798091 0.19886026 1.220631 4282139202
0.53849041 0.19824915 1.2166144 4282270531
0.53945702 0.19779186 1.2135967 4282139200
0.53993839 0.19718069 1.2095804 4279573272
0.5413565 0.19687723 1.2075617 4280691754
0.54276711 0.19657375 1.205543 4281941821
0.54321098 0.19596252 1.201527 4282007614
0.54267693 0.1950435 1.1955137 4281942078
0.5435704 0.19458608 1.1924968 4281876541
0.54396743 0.19397476 1.1884811 4282008128
0.54532367 0.1936712 1.186463 4282074178
0.54765034 0.19367538 1.1864421 4281942594
0.55046785 0.19383349 1.18742 4281942850
0.55279636 0.19383769 1.1873993 4281877057
0.55512488 0.19384187 1.1873784 4282074436
0.55596399 0.19338436 1.1843619 4282074436
0.55629355 0.19277292 1.1803468 4282271558
0.55760854 0.19246928 1.1783291 4282205765
0.55791181 0.19185778 1.1743144 4282271558
0.55920804 0.19155411 1.1722968 4282403144
0.56100261 0.19140434 1.1712778 4282403142
0.56330115 0.19140849 1.1712571 4282403142
0.56509006 0.1912587 1.1702381 4282403142
0.56738675 0.19126284 1.1702176 4282468936
0.56917006 0.19111305 1.1691988 4282666315
0.57043439 0.19080931 1.1671814 4282468935
0.57220834 0.19065951 1.1661625 4282600521
0.57345957 0.19035575 1.1641454 4282600523
0.57418245 0.18989801 1.1611298 4282732109
0.5754168 0.18959422 1.1591128 4282797902
0.57821745 0.1897523 1.1600908 4282797902
0.58102185 0.18991035 1.1610687 4282863695
0.58382994 0.19006844 1.1620467 4282863952
0.58293033 0.18914875 1.1560366 4282929745
0.58147609 0.18807507 1.1490285 4282929745
0.58106357 0.18730928 1.1440171 4282995795
0.58331144 0.18731333 1.1439971 4283061332
0.58555937 0.18731739 1.1439769 4283127126
0.5872677 0.18716747 1.1429586 4283192919
0.58951372 0.1871715 1.1429386 4283258712
0.5917598 0.18717556 1.1429186 4283192919
0.59455103 0.1873336 1.1438967 4283192919
0.59734607 0.18749166 1.1448747 4283390298
0.59904689 0.18734172 1.1438565 4283456091
0.60074395 0.18719177 1.1428384 4283521884
0.60077912 0.18657979 1.1388259 4283390298
0.59913552 0.18550576 1.1318195 4283390298
0.59802216 0.18458571 1.1258113 4283456091
0.60023636 0.1845897 1.1257917 4283521884
0.6013301 0.18428566 1.1237758 4283785057
0.60354048 0.18428963 1.1237561 4283785057
0.60687888 0.18460168 1.1257323 4283653471
0.60965884 0.18475971 1.1267104 4283850850
0.61073947 0.18445563 1.1246948 4283850850
0.61124301 0.18399751 1.1216812 4284114022
0.6128782 0.18384746 1.1206636 4284048229
0.6145097 0.18369739 1.1196461 4284048229
0.61671257 0.18370137 1.1196263 4284179815
0.6189155 0.18370533 1.1196066 4284179815
0.62111843 0.18370931 1.1195869 4284376681
0.62332135 0.18371329 1.1195673 4284311401
0.62552428 0.18371725 1.1195476 4284311402
0.62246591 0.18233466 1.1105478 4284442730
0.62289256 0.18187641 1.107535 4284377451
0.62154299 0.18095592 1.101529 4284377451
0.62017089 0.18003538 1.0955231 4284509037
0.62173671 0.17988519 1.0945061 4284509037
0.6221109 0.17942685 1.0914937 4284574830
0.62247384 0.17896847 1.0884814 4284640111
0.62461859 0.17897233 1.0884624 4284705905
0.6267634 0.17897621 1.0884432 4284771698
0.62950969 0.17913418 1.0894216 4284771698
0.63044965 0.17882985 1.0874072 4284969077
0.63017178 0.17821731 1.0833976 4284969077
0.6329143 0.17837526 1.0843761 4284903284
0.63931429 0.17945787 1.0913401 4284903282
0.64451891 0.1802323 1.0963086 4285166710
0.64729142 0.18039031 1.0972868 4285364089
0.64760935 0.17993186 1.094275 4285232249
0.64853245 0.17962751 1.0922607 4285298042
0.65006644 0.17947727 1.091244 4285561468
0.65097642 0.17917289 1.0892298 4285429882
0.64939064 0.17825198 1.083226 4285429882
0.6446625 0.17656034 1.072235 4285429882
0.64615148 0.17641002 1.0712187 4285627261
0.64826441 0.17641383 1.0711998 4285561468
0.64408147 0.1748762 1.0612071 4285758593
0.64554423 0.17472583 1.060191 4285758595
0.64636987 0.1744213 1.0581776 4285693313
0.64909363 0.17457922 1.0591563 4285824899
0.65182114 0.17473716 1.0601349 4285759878
0.65327448 0.17458676 1.0591189 4285562243
0.65408325 0.17428221 1.0571057 4285759622
0.6542418 0.17382346 1.0540953 4285825415
0.65567827 0.17367305 1.0530794 4285890694
0.65840393 0.17383097 1.0540581 4286022280
0.66113329 0.17398891 1.0550367 4286088073
0.66321623 0.17399266 1.0550181 4286153866
0.66529918 0.17399642 1.0549995 4286351245
0.66607422 0.17369179 1.0529865 4286153866
0.66749758 0.17354135 1.0519707 4286351243
0.66891718 0.17339091 1.0509551 4286482831
0.66901386 0.17293206 1.0479451 4286482831
0.66711491 0.17201057 1.041944 4286285966
0.53311938 0.20201631 1.2257335 4282007620
0.53366077 0.20139775 1.2217165 4281941569
0.5355866 0.20124634 1.2206962 4282073408
0.53750861 0.20109493 1.219676 4282007614
0.53848648 0.20063204 1.2166581 4282270787
0.53945315 0.20016913 1.2136403 4282007613
0.54040849 0.1997062 1.2106227 4279573271
0.54230428 0.19955473 1.2096027 4280954927
0.5422855 0.19878028 1.2045876 4281941821
0.54224795 0.1980058 1.1995727 4281941821
0.54219162 0.19723126 1.194558 4281941821
0.54404992 0.19707973 1.1935383 4281876028
0.54493403 0.19661668 1.1905214 4282073407
0.54678112 0.19646513 1.1895018 4282008128
0.54911339 0.19646934 1.1894809 4282008385
0.55193651 0.19662932 1.1904588 4281876800
0.55476344 0.19678929 1.1914365 4281876800
0.55660486 0.19663773 1.1904171 4282139972
0.55645669 0.19586304 1.1854031 4282271558
0.55678809 0.1952441 1.181388 4282074179
0.55810493 0.19493671 1.1793702 4282205764
0.55891222 0.19447352 1.1763538 4282337350
0.56071615 0.19432189 1.1753346 4282337349
0.56251633 0.19417025 1.1743155 4282337349
0.56482053 0.19417441 1.1742948 4282271556
0.56610548 0.19386695 1.1722773 4282337349
0.56636006 0.19324788 1.1682628 4282600521
0.56813961 0.19309621 1.1672438 4282666314
0.56785458 0.19232127 1.1622312 4282403142
0.56858498 0.19185793 1.1592156 4282534728
0.56982309 0.1915504 1.1571984 4282600521
0.57105368 0.19124286 1.1551813 4282666316
0.5727995 0.19109112 1.1541626 4282797902
0.57506615 0.1910952 1.1541424 4282797902
0.57733285 0.1910993 1.1541221 4282797902
0.5795995 0.19110338 1.1541018 4282863952
0.57974529 0.19048412 1.1500884 4282798159
0.57987612 0.18986481 1.146075 4282863952
0.58105987 0.18955718 1.1440583 4282929745
0.58384359 0.18971708 1.1450366 4282929746
0.58609343 0.18972115 1.1450164 4283127124
0.5888828 0.18988106 1.1459945 4283127126
0.59113443 0.18988512 1.1459745 4283061333
0.59338611 0.18988918 1.1459544 4283127126
0.596183 0.19004911 1.1469324 4283192919
0.5995307 0.19036493 1.1489086 4283192919
0.60123903 0.19021311 1.1478903 4283324505
0.60239279 0.18990543 1.1458739 4283390298
0.60188091 0.18913008 1.1408632 4283325018
0.59913188 0.18773118 1.1318604 4283192919
0.59634918 0.1863322 1.1228578 4283390298
0.59799939 0.18618029 1.12184 4283456091
0.59796518 0.18556069 1.1178281 4283653471
0.59904021 0.18525286 1.1158124 4283587678
0.60179955 0.18541272 1.1167908 4283587165
0.60626024 0.18604031 1.1207632 4283850337
0.60903275 0.18620019 1.1217414 4283784544
0.61066979 0.18604825 1.1207237 4283785057
0.61344606 0.18620816 1.121702 4283982436
0.61679941 0.18652397 1.1236781 4283916643
0.61843461 0.18637204 1.1226605 4283982436
0.61775774 0.18559639 1.1176513 4284114022
0.61879897 0.1852885 1.1156359 4284311401
0.61867106 0.18466873 1.1116248 4284114279
0.62260711 0.18514049 1.1145989 4284245865
0.62246233 0.18452069 1.110588 4284245865
0.62230253 0.18390086 1.1065772 4284180072
0.62036276 0.18281318 1.0995731 4284311658
0.62016737 0.18219329 1.0955627 4284574573
0.62173319 0.18204123 1.0945457 4284377451
0.62329531 0.18188916 1.0935286 4284508781
0.62485361 0.1817371 1.0925117 4284574319
0.62640822 0.18158501 1.0914948 4284508526
0.62795907 0.18143293 1.0904778 4284640112
0.62950617 0.18128084 1.089461 4284640112
0.62984282 0.18081678 1.0864489 4284771698
0.63077348 0.1805087 1.0844344 4284903027
0.63351786 0.18066853 1.085413 4284903282
0.63991976 0.18176427 1.0923771 4285035124
0.64634788 0.18286006 1.099341 4285100917
0.64790058 0.18270797 1.0983241 4285035124
0.64760578 0.1820879 1.0943146 4285232248
0.6479125 0.1816238 1.0913026 4285100663
0.65006292 0.18162769 1.0912834 4285232503
0.65159315 0.18147556 1.0902667 4285495675
0.6434111 0.17836311 1.0702789 4285495675
0.64489633 0.17821091 1.0692625 4285429882
0.63947308 0.17634253 1.0572745 4285364089
0.64093018 0.17619027 1.0562583 4285429882
0.64427787 0.17650607 1.0582346 4285430141
0.64763308 0.1768219 1.0602107 4285627520
0.65099579 0.17713773 1.0621867 4285627520
0.65118062 0.17667341 1.059176 4285496704
0.65135419 0.17620908 1.0561652 4285430657
0.65087569 0.17558868 1.0521573 4285562243
0.65166759 0.17528033 1.0501442 4285628036
0.65245199 0.17497198 1.0481311 4285693315
0.65516824 0.17513177 1.0491098 4285824901
0.65983325 0.17575972 1.0530803 4285956487
0.66451323 0.1763877 1.0570507 4286022280
0.66790408 0.17670357 1.0590265 4286088073
0.66868663 0.17639522 1.0570134 4286022280
0.6635592 0.17468224 1.0460258 4286088073
0.66430986 0.17437384 1.0440129 4286219659
0.66505301 0.17406541 1.0420002 4286351245
0.53209817 0.20488451 1.2287959 4282139718
0.53033912 0.20347051 1.2197839 4282073925
0.53179848 0.20315963 1.2177646 4282007361
0.53418326 0.20316394 1.2177434 4282007616
0.53609967 0.20301063 1.2167231 4282073407
0.53754216 0.20269971 1.214704 4282139202
0.53850502 0.20223117 1.2116863 4281810235
0.53945667 0.20176262 1.2086685 4279573273
0.54134876 0.20160927 1.2076485 4280954928
0.5418039 0.20098305 1.2036321 4281678649
0.5417645 0.20019919 1.1986171 4281810235
0.54266924 0.19973055 1.1955997 4281810235
0.54452944 0.19957714 1.1945801 4281941821
0.54590064 0.19926609 1.1925616 4282073407
0.54823858 0.19927031 1.1925408 4282073920
0.55057651 0.19927453 1.1925198 4281942591
0.55291438 0.19927874 1.1924989 4282074177
0.55574501 0.19944061 1.1934768 4281942591
0.55709559 0.19912954 1.1914585 4281876799
0.55744576 0.19850312 1.187443 4282139971
0.55827934 0.19803436 1.1844264 4282205763
0.55860138 0.1974079 1.1804112 4282139970
0.55991262 0.19709675 1.1783932 4282139970
0.56121635 0.19678558 1.1763755 4282205763
0.56352425 0.19678974 1.1763549 4282468421
0.56532443 0.19663623 1.1753356 4282402628
0.56712091 0.19648272 1.1743165 4282337349
0.56789064 0.19601382 1.1713004 4282403142
0.56813586 0.19538723 1.1672859 4282600521
0.56682038 0.19428755 1.1602761 4282468935
0.56651288 0.1935032 1.1552634 4282600008
0.56774348 0.1931919 1.1532463 4282665544
0.57000828 0.19319598 1.153226 4282534730
0.57122767 0.19288467 1.151209 4282600523
0.57348871 0.19288875 1.1511889 4282666316
0.57574975 0.19289283 1.1511686 4282600523
0.57748246 0.19273919 1.1501501 4282534987
0.57921141 0.19258556 1.1491315 4282600780
0.58040452 0.19227418 1.1471146 4282798159
0.58212411 0.19212054 1.1460962 4282864207
0.58491158 0.19228232 1.1470745 4283061331
0.58662742 0.19212866 1.1460561 4283061331
0.58833951 0.19197498 1.1450377 4283061332
0.59058928 0.19197904 1.1450175 4282995540
0.59229577 0.19182536 1.1439992 4283061333
0.5956341 0.1921449 1.1459756 4283127126
0.60007411 0.19277994 1.1499482 4283061333
0.60298264 0.19168788 1.1429006 4283258712
0.59968281 0.19011433 1.1328993 4283192919
0.59578907 0.18838297 1.1219002 4283192919
0.59687907 0.18807141 1.1198843 4283521884
0.60066807 0.18729445 1.114835 4283521372
0.60512495 0.18792953 1.1188076 4283587165
0.60846138 0.18824907 1.1207839 4283652958
0.61009663 0.18809526 1.1197662 4283718751
0.61287099 0.18825702 1.1207445 4283719264
0.61679578 0.18873438 1.1237187 4283850850
0.61900622 0.18873836 1.1236989 4283653471
0.61833119 0.18795335 1.1186895 4283851107
0.61879539 0.18748392 1.1156762 4283982693
0.61866748 0.18685666 1.111665 4284048486
0.62085539 0.18686059 1.1116455 4284114279
0.6236279 0.18702236 1.1126237 4284180072
0.62347186 0.18639503 1.1086128 4284245865
0.62094754 0.18513642 1.1006107 4284245865
0.620754 0.18450904 1.0966001 4284377451
0.62291384 0.18451293 1.0965809 4284377194
0.62685549 0.18499032 1.0995549 4284442987
0.63021255 0.18530989 1.101531 4284508525
0.63118631 0.18499812 1.0995162 4284508526
0.63215262 0.18468635 1.0975014 4284705905
0.63130701 0.18390103 1.0924935 4284640112
0.631046 0.18327352 1.0884836 4284705905
0.63319081 0.1832774 1.0884644 4284836978
0.63654971 0.18359697 1.0904405 4284705647
0.64478785 0.18517941 1.1003977 4284903025
0.64695513 0.18518333 1.1003784 4285034611
0.64728433 0.18471365 1.0973662 4284969077
0.64575851 0.18377034 1.0913613 4285034870
0.64667606 0.18345848 1.089347 4285034870
0.64882272 0.18346235 1.0893278 4285166456
0.64972901 0.18315047 1.0873135 4285034870
0.63903999 0.17936897 1.0633351 4285166456
0.63863462 0.17874122 1.0593263 4285298042
0.63946962 0.1784292 1.0573127 4285166456
0.64155632 0.17843296 1.0572941 4285363835
0.64806318 0.17954201 1.0642575 4285298042
0.65079629 0.1797037 1.0652362 4285495934
0.65353316 0.17986539 1.0662148 4285561727
0.65181428 0.17892174 1.0602117 4285495934
0.65071183 0.17813596 1.0552062 4285364348
0.65023148 0.17750806 1.0511981 4285364348
0.6516642 0.17735389 1.0501822 4285693313
0.65244859 0.17704178 1.048169 4285759106
0.65516484 0.17720343 1.0491478 4285759106
0.66242313 0.1784706 1.0571077 4285693315
0.66646039 0.17894816 1.0600809 4285824901
0.66920477 0.17910987 1.0610594 4285890694
0.53071171 0.20681152 1.225843 4281875776
0.52940977 0.20554009 1.2178297 4281942339
0.53040081 0.20506598 1.2148114 4282138948
0.5332464 0.20522974 1.2157892 4282073410
0.53469074 0.20491509 1.21377 4282139202
0.53565741 0.20444092 1.2107521 4282204739
0.53614068 0.20380726 1.2067353 4281678650
0.53708297 0.20333306 1.2037175 4279375895
0.53944153 0.20333731 1.2036965 4281218099
0.54084462 0.20302258 1.2016777 4281876028
0.54176062 0.20254834 1.1986601 4281810235
0.54266542 0.20207407 1.1956427 4281876028
0.54404223 0.20175928 1.1936241 4281810235
0.54589683 0.20160399 1.1926045 4282007614
0.54823476 0.20160821 1.1925836 4281876541
0.55106163 0.20177194 1.1935614 4281942591
0.55389225 0.20193568 1.1945393 4282139970
0.55574119 0.20178038 1.1935197 4282008384
0.55659717 0.20130603 1.1905026 4281942591
0.5569455 0.20067212 1.1864871 4282074177
0.55777717 0.20019773 1.1834704 4282205763
0.55859756 0.1997233 1.1804537 4282402629
0.55990881 0.1994084 1.1784357 4282270786
0.56121254 0.19909348 1.1764178 4282204993
0.56301463 0.1989381 1.1753986 4282270786
0.56532067 0.19894226 1.175378 4282468165
0.56762671 0.19894642 1.1753573 4282468165
0.56839836 0.1984719 1.1723411 4282336838
0.56864542 0.19783781 1.1683265 4282534216
0.56681669 0.19656545 1.1603179 4282599753
0.56650913 0.19577172 1.155305 4282599753
0.56773978 0.19545668 1.1532879 4282665546
0.57000458 0.19546077 1.1532676 4282797132
0.57122391 0.1951457 1.1512505 4282797132
0.57296038 0.1949902 1.1502318 4282600523
0.575746 0.19515386 1.1512101 4282600523
0.57800704 0.19515793 1.1511899 4282666316
0.58026809 0.19516201 1.1511697 4282732109
0.58093292 0.19468731 1.1481544 4282863695
0.58212042 0.19437219 1.1461376 4282797902
0.58437204 0.19437625 1.1461174 4282929488
0.58554834 0.1940611 1.1441007 4283127124
0.58725667 0.19390555 1.1430823 4283061076
0.58950269 0.1939096 1.1430622 4283126613
0.59120542 0.19375405 1.1420439 4283126870
0.59454 0.19407733 1.1440203 4283126613
0.59733498 0.194241 1.1449986 4283126870
0.59958476 0.19424506 1.1449784 4283192919
0.60183454 0.19424911 1.1449583 4283192919
0.60242623 0.19377428 1.1419437 4283127126
0.60023373 0.19250126 1.1339383 4283127126
0.59634191 0.19074927 1.1229389 4283389786
0.59687549 0.19027433 1.1199247 4283258200
0.599033 0.18964368 1.115893 4283652958
0.60292029 0.1901266 1.1188676 4283389785
0.6068188 0.19060953 1.1218421 4283587164
0.6084578 0.19045386 1.1208243 4283718751
0.61066258 0.19045784 1.1208047 4283652958
0.61286736 0.19046181 1.120785 4283784544
0.61851215 0.19142379 1.1267532 4283785057
0.62187862 0.19174713 1.1287293 4283719264
0.62063593 0.19079308 1.1227218 4283785057
0.62052864 0.19015837 1.1187103 4283851107
0.61866391 0.18904456 1.1117051 4284048229
0.62026912 0.18888882 1.1106876 4284114279
0.62362432 0.18921214 1.1126639 4284114279
0.62346828 0.18857732 1.1086528 4284114279
0.62212062 0.1876231 1.1026462 4284180072
0.6225211 0.18714792 1.0996332 4284246122
0.62409443 0.18699212 1.0986161 4284180072
0.6286338 0.18763484 1.1025881 4284245865
0.63259232 0.18811788 1.105562 4284245865
0.63357359 0.18780239 1.103547 4284245866
0.63454735 0.18748687 1.1015321 4284574575
0.63250637 0.18637276 1.0945284 4284640112
0.63224912 0.18573776 1.0905184 4284508526
0.63439769 0.18574163 1.0904992 4284508526
0.63897455 0.18638442 1.0944707 4284640112
0.64295745 0.18686751 1.0974444 4284837491
0.64084333 0.18575326 1.0904416 4284836978
0.64237916 0.1855974 1.0894247 4284902771
0.64329672 0.18528178 1.0874102 4284903028
0.6442067 0.18496616 1.0853959 4284969077
0.64696425 0.18512978 1.0863744 4285034870
0.64600426 0.18433487 1.0813674 4284903285
0.63756067 0.18162286 1.0643898 4285100663
0.63778865 0.18114738 1.0613785 4285101176
0.63925701 0.1809914 1.0603622 4285101176
0.64323241 0.18147446 1.063336 4285035383
0.64910775 0.18243687 1.0693022 4285232503
0.65374273 0.18307976 1.0732733 4285232503
0.65459281 0.18276402 1.0712595 4285232762
0.65480012 0.1822885 1.0682483 4285364348
0.65308499 0.1813336 1.0622449 4285430141
0.6519863 0.18053846 1.0572392 4285298555
0.6515097 0.17990306 1.053231 4285364348
0.65358889 0.17990682 1.0532124 4285495934
0.65631264 0.18007036 1.0541911 4285561727
0.6571008 0.17975451 1.0521779 4285693313
0.66501302 0.18119648 1.0611353 4285561727
0.66710716 0.18120027 1.0611166 4285759106
0.66920137 0.18120404 1.0610979 4285890181
0.53070778 0.20921127 1.2258871 4281876033
0.5298686 0.20808621 1.2188724 4282007619
0.53039688 0.20744513 1.2148552 4282073155
0.53184313 0.20712672 1.2128359 4281941568
0.53375018 0.20696965 1.2118157 4282073154
0.53471309 0.20648986 1.2087977 4282204739
0.53519267 0.20584869 1.2047808 4281678650
0.5361312 0.20536886 1.2017629 4279375893
0.53848594 0.20537311 1.2017419 4281283892
0.54084074 0.20537736 1.2017208 4281678649
0.54271597 0.20522022 1.200701 4281810235
0.54362446 0.20474035 1.1976835 4281876028
0.54500508 0.20442182 1.1956648 4281876028
0.5463782 0.20410328 1.1936462 4281941821
0.54823089 0.20394611 1.1926265 4282007870
0.55056882 0.20395033 1.1926056 4281942078
0.55339754 0.20411594 1.1935835 4282073920
0.55524462 0.20395876 1.1925639 4282008384
0.55560422 0.20331737 1.1885481 4281942334
0.55594879 0.20267595 1.1845324 4282007871
0.557275 0.20235734 1.1825142 4282139456
0.55809355 0.20187728 1.1794975 4282270786
0.55890083 0.20139723 1.1764808 4282204992
0.55969691 0.20091712 1.1734642 4282139199
0.5619992 0.20092128 1.1734437 4282336580
0.56531686 0.20124829 1.1754203 4282402373
0.56864208 0.20157529 1.1773969 4282336581
0.56941748 0.20109518 1.1743805 4282336581
0.57018167 0.20061502 1.1713642 4282402374
0.56835854 0.19932766 1.1633554 4282533960
0.56753957 0.19836314 1.1573437 4282665546
0.56877398 0.19804434 1.1553264 4282533960
0.57104254 0.19804844 1.1553061 4282533960
0.57278836 0.19789109 1.1542873 4282665546
0.57557958 0.19805662 1.1552656 4282534730
0.57837456 0.19822218 1.1562438 4282534730
0.58011669 0.1980648 1.155225 4282534730
0.581855 0.19790743 1.1542064 4282600523
0.58199334 0.19726565 1.1501925 4282863695
0.58158273 0.19646238 1.1451805 4282797902
0.58383256 0.19646643 1.1451603 4282797902
0.58393151 0.19582458 1.1411469 4282995026
0.58509463 0.19550565 1.1391302 4282995027
0.58787465 0.19567117 1.1401085 4282929235
0.58957171 0.19551373 1.1390902 4282863442
0.59126508 0.19535628 1.1380719 4282995027
0.59295464 0.19519882 1.1370537 4282995028
0.59409153 0.19487984 1.1350372 4283126360
0.5968734 0.19504538 1.1360155 4283061334
0.59910631 0.19504941 1.1359955 4283061333
0.6002301 0.19473042 1.1339792 4283192919
0.59912056 0.19376536 1.1279702 4283192919
0.60078013 0.19360785 1.1269523 4283192919
0.60131562 0.19312729 1.123938 4283389786
0.60408807 0.1932928 1.1249164 4283652958
0.60799223 0.19378136 1.1278909 4283521371
0.61021018 0.19378537 1.1278712 4283455578
0.61072499 0.19330476 1.1248571 4283784543
0.61179811 0.19298568 1.1228412 4283652958
0.61457813 0.19315121 1.1238196 4283652958
0.62022847 0.19412446 1.1297879 4283521885
0.62351769 0.19380938 1.1277523 4283785057
0.62399876 0.19332871 1.1247386 4283916643
0.62446856 0.19284803 1.1217248 4283916643
0.62143093 0.19139798 1.1127237 4283982693
0.62303615 0.19124037 1.1117061 4283982693
0.6222918 0.19043648 1.1066971 4283982693
0.6227054 0.1899557 1.1036839 4284114279
0.62428814 0.18979804 1.1026666 4284114279
0.62527502 0.18947881 1.1006515 4283916900
0.62803626 0.18964431 1.10163 4284114279
0.63139707 0.18997139 1.1036062 4284114279
0.63237464 0.18965213 1.1015912 4284311658
0.63394421 0.18949445 1.100574 4284443244
0.63310426 0.18869039 1.0955658 4284508780
0.63043565 0.1874015 1.0875645 4284508780
0.63257855 0.18740538 1.0875453 4284442987
0.6359356 0.18773244 1.0895216 4284508780
0.63869125 0.18789792 1.0905001 4284508780
0.64083982 0.18790181 1.0904809 4284639598
0.64176297 0.18758245 1.0884664 4284508526
0.64267862 0.18726309 1.0864519 4284705905
0.64358675 0.18694371 1.0844375 4284837491
0.64510572 0.18678594 1.0834208 4284969077
0.64352 0.18582003 1.0774161 4284969077
0.6381793 0.18388429 1.065426 4284706418
0.63840914 0.18340318 1.0624144 4284772211
0.63987941 0.18324533 1.0613981 4284838004
0.64448434 0.18389566 1.0653696 4284838004
0.6497339 0.18470767 1.0703385 4285100663
0.65310782 0.18503478 1.0723146 4285363322
0.653956 0.1847153 1.0703007 4285232249
0.65352625 0.18407248 1.066292 4285298042
0.65244448 0.183268 1.0612859 4285364348
0.65326077 0.18294844 1.0592723 4285364348
0.65342873 0.18246722 1.0562614 4285298555
0.65872705 0.18327932 1.0612298 4285298555
0.66275489 0.18376811 1.0642033 4285495935
0.66550118 0.18393357 1.0651819 4285627521
0.66695452 0.18377569 1.0641657 4285496450
0.52876306 0.21176992 1.2269516 4281220422
0.52932137 0.2111214 1.2229339 4281942084
0.52940196 0.21030962 1.2179172 4281876290
0.52899927 0.2093346 1.2119017 4281876289
0.52904046 0.20852277 1.2068853 4281810237
0.53140461 0.20852703 1.2068642 4282007616
0.53235817 0.20804159 1.2038462 4282139202
0.53282839 0.20739292 1.1998292 4281612856
0.53375751 0.20690744 1.1968114 4279507479
0.53562713 0.20674843 1.1957915 4281283892
0.53797066 0.20675266 1.1957706 4281744442
0.54127336 0.20708337 1.1977475 4281941821
0.54313916 0.20692436 1.1967276 4281876028
0.54500127 0.20676534 1.1957078 4281941821
0.54588914 0.20627978 1.1926903 4281941821
0.54725289 0.20595749 1.1906717 4281876028
0.54909813 0.20579843 1.1896521 4282007614
0.5514304 0.20580263 1.1896312 4282204993
0.55326998 0.20564356 1.1886116 4282139200
0.55362207 0.20499466 1.1845957 4282073407
0.55495209 0.20467231 1.1825775 4282007614
0.55677289 0.20451321 1.181558 4282139200
0.55758959 0.20402752 1.1785412 4282204993
0.55889708 0.20370512 1.1765231 4282204993
0.56070101 0.20354599 1.1755038 4282073407
0.56250125 0.20338686 1.1744845 4282139202
0.56632853 0.20388091 1.17746 4282270788
0.56863827 0.20388508 1.1774392 4282270788
0.56890225 0.20323601 1.1734241 4282336581
0.56966454 0.20275024 1.1704078 4282270788
0.56783962 0.20144789 1.1623986 4282402374
0.56753588 0.20063542 1.1573855 4282533960
0.56928921 0.2004762 1.1563666 4282468167
0.57208043 0.20064361 1.1573448 4282533960
0.57539815 0.20097436 1.1593215 4282665546
0.57872331 0.20130514 1.1612982 4282337351
0.5804767 0.20114592 1.1602794 4282468937
0.58222628 0.20098668 1.1592605 4282600523
0.58238149 0.20033742 1.1552464 4282600523
0.58145756 0.19936146 1.1492356 4282666316
0.58051115 0.19838546 1.143225 4282797902
0.58222139 0.19822615 1.1422064 4282863695
0.58231473 0.19757679 1.1381929 4282863695
0.58509099 0.19774419 1.1391712 4282797648
0.58787096 0.19791159 1.1401496 4282731855
0.58956808 0.19775227 1.1391313 4282863442
0.59017098 0.19726621 1.1361163 4282863442
0.58966857 0.19645338 1.1311048 4282863442
0.58914733 0.19564052 1.1260936 4283060565
0.59136152 0.19564451 1.1260738 4283192920
0.59468108 0.19597527 1.1280506 4282995541
0.59911728 0.1966328 1.1320237 4282863955
0.60189915 0.1968002 1.133002 4283061334
0.60468477 0.19696762 1.1339803 4283258200
0.60635376 0.19680823 1.1329622 4283258200
0.60858107 0.19681226 1.1329423 4283586395
0.61137229 0.19697967 1.1339206 4283323992
0.61133814 0.19633009 1.1299081 4283652957
0.61128902 0.19568045 1.1258959 4283587164
0.61293364 0.19552104 1.1248779 4283718751
0.61571741 0.19568844 1.1258563 4283456092
0.6196515 0.1961827 1.1288307 4283324506
0.62515301 0.19586785 1.1267751 4283850850
0.62562656 0.19538155 1.1237613 4284048229
0.62317544 0.19407807 1.1157577 4283916900
0.62420171 0.19375515 1.1137422 4283785314
0.62287468 0.19277845 1.1077349 4283916900
0.62329018 0.19229206 1.1047217 4283982693
0.62546498 0.19229598 1.1047022 4283982693
0.62704766 0.19213645 1.1036849 4283982693
0.62803274 0.19181347 1.1016698 4283982693
0.63020188 0.19181737 1.1016504 4284114279
0.63177335 0.19165783 1.1006331 4284114279
0.6339407 0.19166173 1.1006138 4284311658
0.63430363 0.19117524 1.0976011 4284442987
0.62862217 0.18905401 1.0846103 4284311401
0.63075948 0.18905787 1.0845913 4284377194
0.63350379 0.1892252 1.08557 4284377194
0.63625193 0.18939254 1.0865486 4284179815
0.63839298 0.1893964 1.0865295 4284311401
0.63869596 0.1889098 1.0835172 4284508780
0.63960224 0.18858667 1.0815027 4284574573
0.64173394 0.18859051 1.0814837 4284640623
0.64386559 0.18859436 1.0814646 4284772209
0.64351654 0.18794419 1.077455 4284706416
0.64190829 0.186967 1.0714502 4284838002
0.64152545 0.18631677 1.067441 4284903797
0.64300507 0.18615706 1.0664246 4284903797
0.64950246 0.18730547 1.0733888 4284969077
0.65161914 0.18730928 1.0733699 4285034870
0.65247291 0.18698606 1.0713559 4285166456
0.65205258 0.18633576 1.0673469 4285232249
0.65161723 0.18568544 1.063338 4285232249
