# .PCD v0.7 - Point Cloud Data file format
VERSION 0.7
FIELDS x y z rgba
SIZE 4 4 4 4
TYPE F F F U
COUNT 1 1 1 1
WIDTH 564
HEIGHT 1
VIEWPOINT 0 0 0 1 0 0 0
POINTS 564
DATA ascii
0.59191477 0.34467721 0.92975926 9804691
0.57766259 0.33898497 0.93478382 9475983
0.58482665 0.33812869 0.93670434 9475984
0.60187173 0.33911926 0.9375698 9541264
0.57819915 0.34333721 0.93714499 9541776
0.58515769 0.34337226 0.93636882 9673106
0.5947029 0.34464061 0.93763012 9607313
0.60086763 0.3404628 0.93610311 9607057
0.58923811 0.35279247 0.93993413 9739155
0.59671134 0.35386154 0.93621933 9870228
0.59785897 0.36174601 0.93902075 10067607
0.56011069 0.33841091 0.94993377 9015433
0.57556045 0.33819997 0.94707656 9343884
0.58519536 0.33780023 0.94549686 9344398
0.59245735 0.33818498 0.94738913 9344398
0.60414886 0.33795765 0.94584233 9343885
0.61083996 0.33380598 0.94939446 9147019
0.5641706 0.34652942 0.94904602 9015175
0.57739347 0.34432581 0.9459365 9475727
0.58410782 0.3456327 0.94373864 9607312
0.59566516 0.34280547 0.94269407 9541520
0.60074854 0.34073764 0.94461101 9475471
0.57823968 0.35030821 0.94898909 9672850
0.58736598 0.35490805 0.94536591 9804179
0.59505147 0.35498962 0.94311345 9804948
0.60041761 0.35667628 0.94557297 9936278
0.58757198 0.36104918 0.94760197 9936021
0.59614116 0.36182427 0.94703925 9804948
0.60063189 0.36240774 0.94600946 9936021
0.61300027 0.32846546 0.95602864 8949640
0.55883628 0.33876213 0.95195198 8687237
0.56338209 0.33735943 0.95578635 8884104
0.57578546 0.33842161 0.9544611 9278348
0.58630002 0.33752295 0.95537621 9278605
0.5950855 0.33697295 0.95572001 9278605
0.60499167 0.33701611 0.95470691 9278348
0.61175454 0.33293691 0.95462149 9081226
0.56486815 0.34456614 0.9529646 8949639
0.57365423 0.34509212 0.95367622 9343885
0.58645785 0.34040231 0.95273465 9344397
0.59776306 0.34042269 0.95263362 9344397
0.60091716 0.34059581 0.95310867 9409677
0.56716561 0.35185158 0.95545137 8883846
0.57469314 0.35271966 0.95386612 9344140
0.58438545 0.35585383 0.95412761 9738129
0.58894926 0.36337453 0.95413363 9804435
0.59391814 0.3644276 0.95177448 9870484
0.61710733 0.32807794 0.96543664 8686468
0.62040627 0.32507953 0.96915287 8752008
0.56477469 0.33778811 0.96513367 8752773
0.57423151 0.33785835 0.96410769 9081226
0.58536196 0.33736649 0.96562004 9212812
0.59513283 0.33561683 0.96482176 9212812
0.60493588 0.33494055 0.96370924 9146763
0.61235112 0.33265176 0.96367049 8949640
0.56310481 0.34541216 0.96103758 8424578
0.61906809 0.32800475 0.9724192 8686468
0.62377727 0.32410946 0.97598124 8489092
0.56868565 0.3385441 0.97619814 8818567
0.57392913 0.33651322 0.97523493 9015433
0.5849151 0.33772606 0.97640437 9147019
0.5951736 0.33460465 0.97468811 9081225
0.60442328 0.33285564 0.97437727 8949640
0.61380136 0.33174169 0.97442621 8883847
0.62910509 0.31904146 0.98436737 8160640
0.63139653 0.31713626 0.98541212 8225920
0.6146158 0.32659534 0.98590291 8620675
0.62494308 0.32584333 0.98432934 8489091
0.63033682 0.32111409 0.98099363 8094847
0.56860143 0.33617601 0.98510981 8687237
0.57405174 0.33577412 0.98626798 8883846
0.58555913 0.33659291 0.98547977 9015433
0.5940336 0.33552834 0.98444116 9015433
0.60552871 0.3321344 0.98508561 8883846
0.61429352 0.33099303 0.98261893 8752261
0.57009119 0.34136757 0.98490578 8687237
0.63540274 0.31711283 0.99632251 8094334
0.64192772 0.31229004 0.9990651 7896959
0.59898984 0.32907262 0.99792409 8752007
0.6022979 0.32876873 0.99688864 8752262
0.61585605 0.32503685 0.99407303 8554628
0.62632686 0.32525811 0.99431884 8423297
0.63100255 0.32201034 0.99675739 8226432
0.57513469 0.33275533 0.99370462 8752517
0.58598119 0.33368543 0.99479133 8883847
0.59546971 0.33288237 0.99477482 8883592
0.60409325 0.3322446 0.99233532 8818053
0.61180782 0.33158192 0.99635482 8752261
0.64642102 0.28785142 1.0079955 2509149
0.64496577 0.29554558 1.0059824 2509407
0.63818532 0.30706561 1.0069213 4478559
0.6442647 0.30543354 1.0054365 2770775
0.62933302 0.31785265 1.0092821 8094077
0.63559359 0.31643206 1.0069966 8028542
0.64147037 0.3126573 1.004844 7700093
0.59559518 0.32900697 1.0056368 8686469
0.60509062 0.32764047 1.0052679 8620421
0.61517024 0.32686496 1.0070262 8488836
0.62445712 0.32295474 1.0060021 8357249
0.63291287 0.32261238 1.0066035 8225920
0.57883883 0.33079773 1.0006369 8883847
0.58547729 0.33168316 1.0050113 8818054
0.59282494 0.33120942 1.0043198 8818054
0.60943884 0.33085293 1.0003635 8883847
0.61555934 0.33106065 1.0045991 8686469
0.64747226 0.11883476 1.0158901 3828102
0.647475 0.12551455 1.0156308 3630979
0.64825845 0.13471754 1.0163475 3499392
0.65062803 0.13798034 1.0164629 3433087
0.64858794 0.14279746 1.0182842 3301757
0.65104544 0.14591444 1.0182716 3104891
0.64863956 0.15420115 1.0166242 2972792
0.65058517 0.15428919 1.0182625 2973047
0.64704037 0.16446008 1.0150425 2905712
0.64897972 0.17411 1.0166398 2773612
0.65056205 0.17821391 1.0172009 2707818
0.64986616 0.18055286 1.0192505 2773611
0.6512202 0.18039104 1.0182352 2839404
0.64776677 0.19526321 1.0159668 2444385
0.65254438 0.19113116 1.0184202 2510177
0.64791292 0.20518611 1.0147187 2509407
0.65054435 0.20179945 1.0146328 2509408
0.64869857 0.21405797 1.0160173 2443614
0.65161598 0.21771419 1.0175822 2377822
0.65283442 0.22157103 1.0184755 2377821
0.6489836 0.24865456 1.016906 2442841
0.65199327 0.24701884 1.016449 2442842
0.64922392 0.25255269 1.016742 2442842
0.65111935 0.25679177 1.0157359 2312026
0.65119582 0.26526937 1.0169336 2377818
0.6492368 0.27385932 1.0183411 2443098
0.6510275 0.27486619 1.0153677 2574684
0.64697188 0.28486571 1.0137134 2574942
0.65041602 0.28003556 1.0160681 2574942
0.63922238 0.29575825 1.0177903 2509149
0.64396536 0.29460955 1.0150179 2574942
0.63765705 0.30645752 1.0169528 4741473
0.64281732 0.3023473 1.0146116 2639706
0.62569267 0.31559041 1.0147341 8028541
0.63548326 0.31251162 1.014747 7831163
0.5873217 0.32905555 1.0155321 8686212
0.59581959 0.32735327 1.014612 8620420
0.60547364 0.3241359 1.0148443 8423041
0.61529922 0.3236129 1.0147696 8291456
0.6227091 0.32214177 1.0128734 8291456
0.57972372 0.33283719 1.013669 8753030
0.58455014 0.33104724 1.0157046 8620676
0.59115487 0.33008015 1.0175169 8686469
0.6433959 0.11863587 1.0235747 3762308
0.64503133 0.12416445 1.0247617 3565699
0.6467104 0.13514489 1.0245528 3498880
0.64599556 0.14520183 1.0237685 3235451
0.64850914 0.15399088 1.0258884 3103864
0.65064001 0.15735187 1.0281537 3038326
0.64775157 0.16454421 1.0256203 2905970
0.64795494 0.17505197 1.0244536 2773612
0.64876127 0.18564455 1.0256884 2576230
0.65225464 0.1856975 1.0211238 2642278
0.64670742 0.19439782 1.024226 2509922
0.6483171 0.2049792 1.0250291 2443615
0.64904535 0.21387437 1.0254154 2378077
0.65064865 0.21724342 1.0261173 2378078
0.65252835 0.22529724 1.0250045 2377820
0.64807546 0.23559475 1.0266405 2311770
0.65329796 0.2346016 1.0244219 2377562
0.64758539 0.24487825 1.0256011 2442584
0.65350711 0.24294369 1.0245053 2377305
0.64813769 0.25497183 1.0254734 2377305
0.65105784 0.25862211 1.0226712 2312026
0.64849842 0.26629823 1.0262568 2377562
0.65068817 0.26369143 1.0242679 2246490
0.64607221 0.27451816 1.0248156 2443098
0.64605206 0.28518721 1.0243145 2574941
0.63598818 0.29562378 1.0242257 2443356
0.64177865 0.29113171 1.0241839 2509662
0.6299358 0.30642301 1.0287379 7438456
0.63460839 0.30505398 1.0248173 4479327
0.53254652 0.31740442 1.0298126 7765365
0.54674315 0.3194586 1.0297229 8094330
0.60863161 0.31969026 1.0226709 8225663
0.61478412 0.31910363 1.0247054 8159614
0.62409258 0.31516996 1.0245608 7897212
0.63040805 0.31136695 1.0248234 7700089
0.54728293 0.32360792 1.0289606 8160124
0.5855962 0.32708496 1.0252781 8488834
0.59527326 0.32637495 1.025128 8423296
0.6035285 0.32251129 1.0245545 8225663
0.61675978 0.32127804 1.0211267 8094077
0.62147486 0.3211388 1.0205817 8160383
0.58358258 0.33284527 1.0239224 8094331
0.64176017 0.11927176 1.0344534 3565445
0.63917845 0.12556042 1.0366278 3499651
0.64220047 0.12558639 1.0337267 3434115
0.6390155 0.1356504 1.0379574 3236223
0.64377958 0.13480608 1.0346624 3367296
0.63888037 0.14058177 1.0376203 3169915
0.64337283 0.14456719 1.0346091 3235451
0.64443356 0.15508787 1.0353655 3103606
0.6399883 0.16884515 1.0351278 2707565
0.64393431 0.16450369 1.034174 2905713
0.64472228 0.1743253 1.0335455 2773356
0.64545441 0.18492588 1.0340519 2575974
0.63981265 0.19801301 1.0386647 2443870
0.64417386 0.19526929 1.0345744 2509666
0.6451773 0.20449433 1.0349014 2509149
0.64834243 0.21517436 1.0350685 2377820
0.6460616 0.22519071 1.0358204 2312026
0.65053546 0.22555417 1.0317862 2312283
0.64642054 0.23519206 1.0351954 2245976
0.65089393 0.2315408 1.0326786 2311769
0.64516813 0.24470623 1.0350431 2311512
0.64546126 0.25558835 1.0350852 2442328
0.6397084 0.26159555 1.0398312 2508121
0.64596617 0.26482984 1.0358334 2245720
0.64313364 0.27596083 1.0355629 2377562
0.63979042 0.28952524 1.0373417 2509148
0.64363331 0.28485301 1.0346441 2508891
0.63514769 0.29422507 1.0356054 2377563
0.64065593 0.29025412 1.0323462 2378075
0.62865418 0.30748519 1.0347703 7437687
0.63205665 0.30278176 1.0347785 3886935
0.52687263 0.31480169 1.0359598 6778728
0.53602409 0.3158243 1.0342534 7896951
0.54503125 0.31711102 1.033446 7962744
0.55452943 0.31697741 1.0366092 7962745
0.56553131 0.31978288 1.037562 8094077
0.60644895 0.31856313 1.0342833 8028284
0.61542571 0.31812882 1.0342655 8028286
0.62570781 0.31395993 1.0351154 7830906
0.53680372 0.32141075 1.0348489 7962744
0.54446578 0.32416588 1.0354974 8094587
0.55607426 0.32370323 1.0358185 8160124
0.56460249 0.32278091 1.0374029 8159868
0.57501024 0.32474935 1.0380682 8291711
0.58434874 0.32544395 1.0366145 8291711
0.59607214 0.32370272 1.034723 8225918
0.60326791 0.32205921 1.0349317 8160126
0.61086476 0.32015774 1.0311612 8225663
0.56403714 0.33336538 1.0388246 7567474
0.57455802 0.33148855 1.039196 8423040
0.583969 0.33106875 1.0342696 8554626
0.63908899 0.11906317 1.047226 3762565
0.64213741 0.11872112 1.0438584 3499652
0.63792032 0.12512916 1.0449097 3564930
0.64081085 0.12136295 1.0429186 3433859
0.63829249 0.13510309 1.0442766 3236222
0.63860583 0.14153874 1.0453086 3367037
0.64181179 0.14631549 1.0445187 3235451
0.63894993 0.15572582 1.045899 3037815
0.64070344 0.15379208 1.0445142 3037815
0.63934612 0.16291769 1.0445983 2905713
0.64053702 0.16598259 1.0447088 2839664
0.64207888 0.17490549 1.045117 2707820
0.64222395 0.18493372 1.0451131 2575973
0.63952494 0.19701448 1.0446502 2443871
0.64092183 0.19407122 1.0450505 2378594
0.63942337 0.20966825 1.0463834 2443356
0.64231455 0.20610243 1.0443474 2443356
0.63929242 0.21422736 1.0487186 2377306
0.64456862 0.21522732 1.0443234 2377306
0.64433926 0.22361214 1.0439943 2311769
0.63930488 0.2326954 1.0483068 2377048
0.64369267 0.2346264 1.0454763 2311255
0.64322263 0.24537887 1.0442091 2311255
0.63894314 0.25894451 1.0482912 2245462
0.64322829 0.25468087 1.0448319 2310999
0.63858366 0.26431409 1.0467591 2311255
0.64196861 0.26649484 1.0432091 2311512
0.63645011 0.27530369 1.0442278 2377305
0.64269346 0.27202412 1.0425516 2312025
0.62926781 0.28919703 1.0467653 2245719
0.63531601 0.28502044 1.044234 2508891
0.6408869 0.28471521 1.0410779 2443355
0.62936699 0.29233551 1.0469887 2508634
0.63222373 0.29501489 1.0432113 2508120
0.62674266 0.30677849 1.0459267 7173749
0.63149685 0.30250323 1.0436552 4018010
0.52664739 0.31393516 1.0449868 6055262
0.53460711 0.31275028 1.0453274 7699573
0.54465038 0.31419307 1.0462849 7831159
0.55456549 0.31480473 1.0429037 7831159
0.56475896 0.31735551 1.0439425 7896954
0.5717625 0.31846973 1.0471509 7962491
0.60614902 0.31713665 1.0448176 7896954
0.61535019 0.31535846 1.0440981 7830906
0.62319005 0.31324044 1.0443712 7765114
0.55904043 0.32883751 1.0407869 8160124
0.5657562 0.32914701 1.0417325 8291710
0.57588667 0.32191262 1.0437953 8159870
0.58528703 0.32230839 1.0453328 8094076
0.59486777 0.32307392 1.0447609 8159868
0.60096592 0.32062829 1.0435112 8028539
0.56786525 0.33304268 1.0427852 8159868
0.57431108 0.33365259 1.0436479 8488833
0.63794273 0.1192944 1.054492 3564416
0.63676327 0.12521048 1.0546552 3433086
0.63715935 0.1342192 1.0563493 3104378
0.63781226 0.14248745 1.0562687 3104122
0.64182633 0.14717512 1.0554185 3235195
0.63739955 0.15587194 1.0557842 2840434
0.64169174 0.15110782 1.0552917 2906486
0.63726103 0.16497533 1.0537168 2839662
0.64090466 0.16918951 1.0511292 2970993
0.63909543 0.17395401 1.0541501 2642026
0.640782 0.17750734 1.0540835 2642025
0.63941801 0.18529917 1.0557246 2575717
0.64077723 0.18292558 1.0541829 2641510
0.63817227 0.1942673 1.0564269 2443872
0.64105213 0.19729845 1.0541438 2443873
0.6368854 0.20677958 1.0564268 2443355
0.64149374 0.20387903 1.0546834 2443613
0.63844472 0.21495171 1.0549908 2311769
0.64194763 0.2187103 1.0505273 2377563
0.63834858 0.22304443 1.0568902 2245977
0.64312047 0.22598113 1.0540144 2245977
0.63879573 0.23405927 1.0565882 2245463
0.64088213 0.23618455 1.0531577 2179670
0.63864726 0.24733105 1.0587833 2245461
0.64216298 0.24492192 1.0550622 2245462
0.6375221 0.25586134 1.0563809 2245462
0.6421749 0.25285083 1.0538335 2179926
0.63641763 0.26486978 1.0556239 2245719
0.63586903 0.27495152 1.0554212 2311769
0.62821209 0.2887128 1.0556011 2442841
0.63216525 0.28397691 1.0543745 2377305
0.62710774 0.29464459 1.0553149 2508120
0.63010585 0.29835147 1.0515933 2572888
0.53629184 0.30933726 1.059304 7633780
0.625485 0.30453339 1.0543485 5727081
0.63009906 0.30249479 1.0516694 4346719
0.52803946 0.31135464 1.0517466 7699573
0.53534234 0.31075889 1.0548139 7634036
0.54402763 0.31193811 1.0536145 7568501
0.57616913 0.31790468 1.0547693 7896698
0.58470255 0.31924295 1.0557175 7962490
0.59537953 0.31937516 1.058458 7962490
0.60535395 0.31685016 1.0550373 7830905
0.61441892 0.3135314 1.0557908 7699319
0.62103647 0.31217539 1.0557622 7699319
0.57885504 0.32029775 1.0534554 8028284
0.58507431 0.32030898 1.0533998 8028283
0.59582013 0.32125604 1.0534637 8028538
0.60122299 0.32062423 1.054261 7962745
0.63363093 0.118651 1.0635567 3168371
0.62872374 0.12344933 1.069404 2641251
0.63342726 0.12498911 1.0653548 2971503
0.62959194 0.13377512 1.0675851 2641766
0.63294053 0.13549538 1.0642526 2708588
0.63457251 0.14611915 1.0635065 2774124
0.64203197 0.1476482 1.0607264 3103865
0.63410425 0.15416187 1.0642509 2642024
0.6358003 0.16462682 1.0649443 2641510
0.63650095 0.17555764 1.0647882 2509924
0.64051896 0.17502278 1.0622419 2773611
0.63664365 0.18511997 1.0655458 2378335
0.6362893 0.19475208 1.0660232 2311771
0.63643742 0.20426033 1.06519 2377050
0.63601041 0.21538804 1.0648227 2311256
0.63574529 0.22516923 1.0646626 2245462
0.63715518 0.23541334 1.0648793 2179669
0.63700646 0.24533127 1.0645125 2179668
0.64093429 0.24260989 1.0609765 2311255
0.63546449 0.25485682 1.0651627 2179411
0.63365 0.26471913 1.064948 2245205
0.63555229 0.27490991 1.0652755 2245719
0.62814146 0.28740317 1.0665953 2377305
0.63209617 0.28267989 1.0650054 2442841
0.62435538 0.2951287 1.0642942 2310483
0.53468043 0.30902779 1.0669334 7371122
0.54129523 0.3098101 1.068603 7501939
0.61710691 0.30948874 1.0681673 7370356
0.62376016 0.30514354 1.0661526 6056299
0.53182089 0.31106678 1.0657103 7502707
0.57789636 0.31559321 1.0647801 7634039
0.5861842 0.31661192 1.0641993 7699573
0.5957765 0.31636652 1.0648222 7633782
0.60533792 0.31505457 1.0652419 7633527
0.61419523 0.31145188 1.0629784 7501942
0.62212878 0.3116301 1.0633106 7501940
0.62997657 0.11802306 1.0782951 2508636
0.63041866 0.11969103 1.0738208 2641250
0.62876338 0.12501222 1.0748334 2574943
0.6291858 0.13310879 1.0755782 2509406
0.63104695 0.13741326 1.0746403 2575714
0.63305563 0.14469263 1.0752891 2510177
0.63265276 0.15537091 1.0744549 2509407
0.63414723 0.16505307 1.0749938 2509149
0.63364834 0.17483956 1.0750363 2377563
0.63336682 0.18498145 1.0750247 2180184
0.63360548 0.19544521 1.0754031 2179669
0.63423097 0.20479929 1.0754657 2244948
0.63342589 0.21516559 1.0742542 2113107
0.63278073 0.22500171 1.0737631 2244436
0.6350981 0.23490098 1.0746536 2244692
0.63528454 0.24491701 1.075102 2113618
0.6292873 0.25896436 1.0783844 2113363
0.63427883 0.2557115 1.0759373 2179155
0.62934113 0.26412135 1.0778354 2113619
0.63145947 0.26477352 1.0731579 2179156
0.62831444 0.27593663 1.0742588 2311254
0.63268328 0.27411506 1.0709634 2311255
0.62699014 0.28443801 1.0745932 2377048
0.61866081 0.29880333 1.0787098 3557457
0.62343079 0.29506966 1.075455 2507089
0.53535664 0.30789778 1.0719552 7436915
0.61790669 0.30668041 1.0752769 7173235
0.6217252 0.30299249 1.0740914 5990765
0.5678547 0.31258672 1.0784178 7501940
0.57584882 0.31470409 1.0767845 7436661
0.58419377 0.3146967 1.0747536 7436917
0.59454316 0.31384033 1.0748675 7436660
0.60460484 0.31305459 1.0756963 7436149
0.61318409 0.31184784 1.0749972 7436149
0.62808144 0.1189494 1.087581 2441815
0.63026983 0.11842564 1.0823008 2508635
0.62681949 0.12502705 1.085236 2310742
0.6270684 0.13505527 1.0858254 2179669
0.62856805 0.14029363 1.0870512 2114133
0.631468 0.14537607 1.084847 2377305
0.62871766 0.15457848 1.0861781 2310740
0.63170403 0.15591958 1.082275 2442842
0.62844115 0.16459642 1.0880646 2113873
0.63290972 0.16550836 1.0847654 2311512
0.62903917 0.17520738 1.0866261 2244946
0.6321339 0.1741281 1.0835195 2311254
0.62759066 0.1849758 1.0850713 2178898
0.63175607 0.18531196 1.0818465 2245462
0.62913543 0.19511144 1.0877174 2244432
0.6314826 0.19467962 1.0829183 2179156
0.62856942 0.20337008 1.0879849 2178639
0.63187617 0.20602554 1.0841422 2244176
0.62854242 0.21856385 1.0886527 2046796
0.63181937 0.21473458 1.0852106 2244176
0.62835389 0.22300911 1.088436 2112847
0.63182473 0.22479954 1.0842366 2178385
0.63338703 0.23574749 1.0844903 2243920
0.62707925 0.2467694 1.0886114 2112332
0.63208181 0.24444969 1.0842261 2178382
0.62825072 0.25552148 1.0881897 2178384
0.63218379 0.2535072 1.0833594 2178640
0.62791663 0.26473373 1.0854249 2113619
0.6259591 0.27513969 1.0842535 2245461
0.6199187 0.28307942 1.086412 2442841
0.62270117 0.28494591 1.0835038 2376791
0.61801779 0.29719871 1.0871323 2768459
0.62192023 0.29316252 1.0841937 2376276
0.56531042 0.30968881 1.0833886 7436148
0.58574057 0.30920008 1.0891976 7238770
0.60588276 0.3086327 1.0877564 7173490
0.61613601 0.30544937 1.0846053 7041907
0.56961018 0.31023505 1.0853604 7370354
0.57504678 0.3120814 1.084262 7370612
0.58492684 0.31228048 1.0854034 7239540
0.59534186 0.31249225 1.0844834 7239538
0.60511458 0.31101266 1.083756 7304819
0.61369956 0.31163475 1.0819901 7370356
0.62398863 0.11951997 1.0933794 2310228
0.62422591 0.12495505 1.0938935 2310483
0.62441325 0.13534132 1.0953326 2179155
0.62640798 0.14543083 1.095513 2113361
0.63076723 0.14611092 1.0908055 2179667
0.62645596 0.15479285 1.0955832 2178639
0.62647402 0.1651063 1.0935562 2047822
0.62677085 0.1756504 1.0955942 2112845
0.63036448 0.17774472 1.0943896 2244432
0.62542546 0.18360585 1.0958047 2046796
0.62620676 0.19519693 1.0938576 2047053
0.62738138 0.20548858 1.0957917 2112333
0.63006181 0.20936783 1.0909711 2178125
0.62786877 0.21545795 1.0950477 2112332
0.6300565 0.21259063 1.0910301 2178125
0.62650716 0.22518452 1.0947052 2047052
0.63110435 0.22870663 1.0913162 2112591
0.62730515 0.23496863 1.0980049 2112331
0.63268197 0.23541917 1.0947384 2112847
0.62504929 0.24414624 1.0947653 2046540
0.6302619 0.24026985 1.0955366 2243918
0.62510866 0.25483459 1.0954498 2046798
0.6245544 0.26548019 1.0941495 2113362
0.62432563 0.27473116 1.0956103 2244949
0.61915398 0.28719652 1.0956211 2245462
0.62096334 0.28354684 1.0941905 2311255
0.61718905 0.2949076 1.0951217 3164246
0.62014437 0.29156613 1.0905663 2244949
0.56593722 0.30842349 1.0954622 7238768
0.5739845 0.30899969 1.0946755 7238769
0.58497131 0.30827686 1.0944195 7238769
0.59508437 0.30821341 1.0960972 7173233
0.60453427 0.3069346 1.0947745 7041904
0.61418331 0.30425 1.0951691 6976113
0.57725668 0.31025428 1.0932939 7304563
0.59728587 0.31011218 1.0924449 7173745
0.62555414 0.1379263 1.1037048 2507351
0.62470853 0.1445483 1.104634 2244434
0.62492919 0.15533638 1.1041297 2178639
0.6266427 0.16484873 1.1046003 2047308
0.62449092 0.17383081 1.103289 2112589
0.62426776 0.18654151 1.1033851 2046796
0.62471962 0.19484089 1.1054617 1981260
0.62536424 0.20489514 1.1054968 1980748
0.62543839 0.21438381 1.1039821 1980747
0.62544757 0.22492945 1.1053673 2046537
0.62445807 0.23523271 1.1041648 2112329
0.62406731 0.24511085 1.1054522 1980746
0.62379813 0.25578395 1.1060575 2046540
0.61940557 0.26536584 1.1070962 2047825
0.62215292 0.26485574 1.1045353 2047568
0.61967635 0.2785441 1.1078355 2244948
0.62129778 0.27468717 1.1038924 2179156
0.61805481 0.28540891 1.1054754 2245462
0.62074119 0.28188181 1.1013857 2310999
0.61486632 0.29483256 1.1059567 3230037
0.56710738 0.30666959 1.1043215 7172974
0.57496905 0.30681145 1.1047537 7172975
0.58327687 0.30782667 1.1051978 7107183
0.59632105 0.30719343 1.1058697 7107697
0.60558701 0.30439019 1.1056492 6844783
0.61282766 0.30173501 1.1049324 6713456
0.62525278 0.17374103 1.1113656 2243919
0.62464303 0.18780369 1.1106286 2047052
0.6246233 0.1998269 1.1108491 1981261
0.62493801 0.2064323 1.113768 1980749
0.62452495 0.21558487 1.111639 1980747
0.62496614 0.22413544 1.1126919 2046537
0.62426054 0.23486659 1.1130505 1980743
0.62363452 0.24558677 1.1138791 1915208
0.6227507 0.25555664 1.1146657 2046540
0.61955929 0.26626688 1.1111122 1981775
0.62108636 0.26509368 1.1155779 2047309
0.61960888 0.2787509 1.113341 2244948
0.62110484 0.27441168 1.1133909 2113619
0.61728734 0.28522646 1.1138973 2245205
0.58705711 0.29732278 1.1184742 1449237
0.6125378 0.29530376 1.1128744 3295571
0.54366803 0.30438244 1.1189928 7502193
0.57722431 0.30552074 1.114812 7041644
0.5856536 0.30603701 1.1141456 7041644
0.59510553 0.30637795 1.1153175 6910572
0.6037221 0.30523455 1.1149691 6845038
0.61030239 0.30086753 1.11483 6516847
0.53687197 0.29657274 1.1260787 4936266
0.54401916 0.29597151 1.1270039 3554613
0.55714244 0.29312849 1.1286677 659721
0.57648069 0.29810521 1.1270853 725515
0.58319706 0.29856831 1.1235328 725515
0.60110432 0.29822487 1.1218656 1120529
0.54483241 0.30444857 1.1256993 7436400
0.55477047 0.3028096 1.1246513 8028537
0.56518906 0.3038356 1.1272916 7765110
0.57567638 0.30380169 1.1256582 5002061
0.58536363 0.30347839 1.1255653 2172960
0.59438241 0.30275938 1.1231426 1120272
0.60294533 0.303707 1.1232833 1844766
0.54365253 0.3101753 1.1266006 7502194
0.53513551 0.29592079 1.1314168 4673094
0.54521167 0.29463473 1.13116 1515030
0.554299 0.29626453 1.1332517 1120272
0.56524718 0.29820007 1.1356894 791308
0.57206398 0.29887021 1.1338069 791308
0.53772086 0.30277222 1.1322693 5923161
0.54287612 0.30393496 1.13178 7304814
0.55451316 0.30138513 1.1323435 6186333
0.56542981 0.30190343 1.1333981 4870474
0.57386053 0.30173257 1.1330515 1515031
