# .PCD v0.7 - Point Cloud Data file format
VERSION 0.7
FIELDS x y z rgba
SIZE 4 4 4 4
TYPE F F F U
COUNT 1 1 1 1
WIDTH 728
HEIGHT 1
VIEWPOINT 0 0 0 1 0 0 0
POINTS 728
DATA ascii
0.65381163 0.28310943 1.2451416 4282139202
0.65679777 0.2833297 1.2461191 4282073409
0.65868241 0.28311822 1.2450981 4282139202
0.66167229 0.28333849 1.2460756 4282007616
0.65057218 0.28618923 1.2482278 4282139202
0.65356016 0.28641137 1.2492054 4282270788
0.65545422 0.28619805 1.2481842 4282336581
0.65789527 0.28620246 1.2481624 4282204993
0.66033626 0.28620684 1.2481406 4282402372
0.6627773 0.28621125 1.2481188 4282139200
0.64676881 0.28906065 1.250315 4286745480
0.64975685 0.28928468 1.2512925 4284639334
0.6543839 0.29016754 1.255268 4280757547
0.65629107 0.28995234 1.2542467 4280757547
0.6570968 0.28929791 1.2512269 4282139200
0.65844196 0.28886309 1.2492064 4282599751
0.66033226 0.28864786 1.2481854 4282468165
0.66221881 0.28843263 1.2471642 4282402372
0.66354525 0.28799778 1.245144 4282402372
0.66374773 0.28712362 1.2411253 4282008384
0.6656155 0.28690836 1.2401044 4282074177
0.6657936 0.2860342 1.236086 4282008384
0.66764826 0.2858189 1.2350652 4282139715
0.66893345 0.28538397 1.2330452 4282139202
0.67077875 0.28516868 1.2320246 4282139202
0.6473062 0.29172689 1.2513592 4288982442
0.64920962 0.29150984 1.250338 4289244844
0.65274459 0.2919572 1.2523149 4287468433
0.65464616 0.29174015 1.2512937 4278454278
0.65599507 0.29130158 1.2492731 4278783757
0.65733653 0.29086298 1.2472526 4279507480
0.65867043 0.29042438 1.2452322 4280560168
0.66055137 0.29020727 1.2442112 4282402372
0.66187221 0.28976864 1.2421908 4282205763
0.66262728 0.28910851 1.2391714 4281679930
0.6650514 0.28911287 1.2391497 4282008896
0.66635162 0.28867421 1.2371296 4282206276
0.66877204 0.28867859 1.237108 4282206277
0.67119241 0.28868294 1.2370863 4282139972
0.67361283 0.28868732 1.2370647 4282074177
0.67489427 0.28824863 1.2350447 4282205506
0.6761682 0.28780991 1.2330248 4282270784
0.67628819 0.28692812 1.2290068 4282204992
0.64402169 0.29483476 1.2544463 4289180332
0.6448555 0.29416913 1.251426 4289048233
0.64459538 0.29305676 1.2464069 4288587682
0.6459462 0.29261443 1.2443862 4288586914
0.64837974 0.29261884 1.2443645 4289310637
0.65081328 0.29262322 1.2443428 4286349952
0.65379566 0.29285097 1.2453204 4278454792
0.6556803 0.29263201 1.2442993 4279046929
0.65700865 0.29218966 1.2422788 4278652171
0.65888393 0.29197064 1.2412578 4283982174
0.65964282 0.29130489 1.2382382 4286219391
0.66094863 0.29086247 1.236218 4284048735
0.66392726 0.29109025 1.2371956 4282930510
0.66634762 0.2910946 1.237174 4281878079
0.66876805 0.29109898 1.2371523 4281614651
0.67175418 0.29132673 1.23813 4281417015
0.67417645 0.29133111 1.2381083 4281679930
0.67602926 0.29111207 1.2370875 4281745210
0.67730695 0.29066962 1.2350675 4281679160
0.67857718 0.29022714 1.2330476 4282270784
0.67926478 0.28956127 1.2300286 4282336577
0.64240485 0.29661134 1.2514927 4289575090
0.64269364 0.29571486 1.2474729 4289180332
0.64350873 0.29504356 1.2444526 4289114026
0.6448558 0.29459751 1.242432 4289114026
0.64619535 0.2941514 1.2404113 4288981672
0.64862138 0.29415578 1.2403897 4289705395
0.65214509 0.29461065 1.2423668 4283783769
0.65512562 0.29484028 1.2433445 4278256900
0.65645206 0.29439417 1.2413241 4278717963
0.65777105 0.29394802 1.2393036 4278389767
0.65852612 0.29327664 1.2362839 4283851099
0.66038644 0.29305574 1.235263 4287733397
0.66280305 0.29306009 1.2352414 4285628021
0.66578168 0.29328972 1.236219 4285299826
0.66820025 0.29329407 1.2361975 4284904811
0.67118448 0.29352373 1.2371751 4285101421
0.67360491 0.29352808 1.2371535 4284443234
0.67545581 0.29330719 1.2361326 4284311392
0.67730302 0.29308626 1.2351118 4283060812
0.67971963 0.29309061 1.2350903 4282073405
0.68156117 0.29286969 1.2340695 4281810232
0.68339902 0.29264873 1.2330487 4281744695
0.68465424 0.2922025 1.2310289 4281810233
0.64078808 0.29837668 1.248539 4289772471
0.64215016 0.2979269 1.246518 4289311920
0.64296335 0.29724997 1.2434977 4289377200
0.64376539 0.29657304 1.2404776 4289442737
0.64455611 0.29589608 1.2374574 4289376430
0.64697653 0.29590046 1.2374358 4289244843
0.65049458 0.29635906 1.239413 4290230711
0.65457088 0.29704478 1.2423897 4281808694
0.65644807 0.29682204 1.2413685 4278323204
0.65776706 0.29637218 1.2393481 4278389510
0.65796584 0.29546803 1.2353289 4278390020
0.65982425 0.29524523 1.2343079 4287734681
0.66279912 0.29547673 1.2352858 4288984233
0.66577774 0.29570824 1.2362634 4288392097
0.66876012 0.29593974 1.2372411 4288260254
0.67118049 0.29594412 1.2372196 4288062362
0.6730333 0.29572132 1.2361987 4287996056
0.67545182 0.2957257 1.236177 4288127642
0.6784417 0.29595721 1.2371546 4288127128
0.68143535 0.29618874 1.2381322 4288323994
0.68443269 0.29642028 1.2391099 4288060822
0.68743384 0.29665181 1.2400874 4287995029
0.68928099 0.29642901 1.2390665 4285099882
0.69054371 0.29597905 1.2370466 4282665542
0.69296414 0.2959834 1.2370249 4282007869
0.69480008 0.2957606 1.2360041 4281745210
0.69604588 0.29531059 1.2339844 4281745210
0.69728422 0.29486057 1.2319646 4281679417
0.69910514 0.29463771 1.2309439 4282008382
0.7015143 0.29464206 1.2309225 4282271041
0.70392346 0.29464641 1.2309009 4282204991
0.70752406 0.29510516 1.2328774 4281481268
0.70933938 0.2948823 1.2318568 4280954924
0.64102161 0.30195814 1.2536036 4290035643
0.63970888 0.30035976 1.2465845 4289706678
0.64106721 0.29990619 1.2445637 4289640885
0.64241803 0.29945263 1.2425427 4289640629
0.64321816 0.29877007 1.2395225 4289574579
0.64455211 0.29831648 1.2375017 4289508786
0.64642555 0.29809186 1.2364807 4289705395
0.64939296 0.29832521 1.2374586 4289771188
0.65346551 0.29901657 1.2404354 4290362298
0.65644413 0.29924995 1.2414131 4280690725
0.65776306 0.2987963 1.2393925 4278521609
0.65796185 0.29788467 1.2353733 4279047951
0.66037852 0.29788902 1.2353517 4278982415
0.66335523 0.29812238 1.2363294 4287931032
0.66689771 0.29858479 1.2383065 4288786854
0.66931999 0.29858914 1.2382849 4288062875
0.67117655 0.29836449 1.2372639 4287864982
0.67302936 0.29813984 1.236243 4287733396
0.67544788 0.29814419 1.2362214 4287798932
0.67958045 0.29883566 1.2391976 4287863955
0.68315101 0.29929811 1.2411745 4287863442
0.68672907 0.29976058 1.2431513 4287929235
0.68973768 0.29999399 1.2441288 4287929236
0.69101357 0.29954028 1.2421087 4288126615
0.69170117 0.29885754 1.2390894 4288061080
0.69412535 0.29886189 1.2390677 4287995545
0.69654948 0.29886627 1.239046 4287469201
0.6972146 0.29818347 1.2360269 4285692790
0.6984567 0.2977297 1.234007 4284311137
0.70028138 0.29750499 1.2329863 4282534726
0.7026943 0.29750934 1.2329648 4282008382
0.70570105 0.29774275 1.2339423 4281810233
0.70930725 0.29820529 1.2359189 4281481268
0.71112818 0.29798055 1.2348982 4281349682
0.71174645 0.29729766 1.2318796 4280889131
0.71355611 0.29707292 1.230859 4280954925
0.64101762 0.30440852 1.2536485 4289772469
0.63970488 0.30279702 1.2466292 4289575091
0.64160269 0.30257055 1.2456079 4289640885
0.64241403 0.30188239 1.2425873 4289640885
0.6437574 0.30142507 1.2405665 4289706165
0.64454818 0.30073687 1.2375462 4289706165
0.64642161 0.30051038 1.2365251 4289706165
0.64884013 0.30051473 1.2365035 4289573550
0.65236008 0.30098084 1.2384808 4289705393
0.65533495 0.30121607 1.2394587 4290494909
0.65665019 0.30075869 1.2374381 4278520837
0.65795791 0.30030128 1.2354176 4278850572
0.66037452 0.30030566 1.2353959 4278455814
0.66391134 0.3007718 1.2373732 4279047694
0.66633177 0.30077615 1.2373515 4289575600
0.66875219 0.30078053 1.23733 4289115049
0.67117256 0.30078489 1.2373084 4288522912
0.67302537 0.30055836 1.2362874 4288193690
0.67601335 0.30079362 1.2372651 4288193690
0.67957646 0.30125982 1.2392421 4288258713
0.68314701 0.30172598 1.241219 4288323993
0.68615001 0.3019613 1.2421967 4288323993
0.6885798 0.30196568 1.242175 4288192407
0.6904307 0.30173913 1.241154 4288126871
0.69169718 0.30128166 1.2391338 4287930006
0.69470394 0.30151698 1.2401114 4287930006
0.69712996 0.30152133 1.2400897 4288127385
0.697797 0.30083293 1.2370704 4288193178
0.70021737 0.30083728 1.2370489 4287995799
0.70145762 0.30037975 1.235029 4288061079
0.70387429 0.30038413 1.2350073 4287797650
0.70688474 0.30061942 1.2359848 4287600016
0.7104947 0.30108568 1.2379614 4284507746
0.71291697 0.30109006 1.2379398 4280889131
0.71414036 0.30063251 1.2359201 4280889131
0.71595752 0.30040592 1.2348994 4280823338
0.71656454 0.2997174 1.2318807 4280889133
0.7183705 0.29949075 1.2308601 4280954926
0.72138661 0.29972607 1.2318376 4281020719
0.72501528 0.30019239 1.233814 4280560938
0.72926217 0.30088967 1.2367893 4280692522
0.7316826 0.30089402 1.2367678 4280889131
0.7328741 0.30043644 1.2347482 4281283889
0.73467439 0.30020979 1.2337277 4281218096
0.64077604 0.30569974 1.2486733 4289443504
0.64213812 0.30523866 1.2466522 4289772469
0.64295143 0.3045449 1.2436316 4289969335
0.64429665 0.30408382 1.2416106 4289771956
0.64563435 0.30362272 1.2395898 4289771956
0.64696461 0.30316162 1.237569 4290034358
0.64938498 0.30316597 1.2375474 4289771186
0.65235609 0.30340311 1.2385253 4289771956
0.65533096 0.30364022 1.2395031 4290758335
0.65720063 0.30341184 1.238482 4289639854
0.65795392 0.30271792 1.2354618 4278850572
0.66037059 0.30272231 1.2354403 4278718986
0.6633473 0.30295941 1.2364181 4278258435
0.66576582 0.30296379 1.2363966 4279507990
0.66818434 0.30296814 1.236375 4288851365
0.67116863 0.30320528 1.2373527 4288851364
0.67358899 0.30320963 1.2373312 4288259227
0.67714834 0.30367956 1.2393082 4288127384
0.68128645 0.30438229 1.2422847 4288192920
0.68371624 0.30438668 1.242263 4288389786
0.68442076 0.3036927 1.2392433 4288192407
0.68684494 0.30369705 1.2392216 4288192407
0.68926907 0.30370143 1.2392 4288126614
0.69111252 0.303473 1.238179 4287930005
0.69469994 0.30394298 1.2401559 4288061334
0.69829488 0.30441296 1.2421327 4287929748
0.699552 0.30395174 1.2401125 4287798419
0.70138985 0.30372331 1.2390916 4287600527
0.70322388 0.30349484 1.2380708 4287534478
0.70505422 0.30326641 1.2370501 4287271050
0.70806843 0.3035036 1.2380276 4287665551
0.71227783 0.30420643 1.2410033 4287468173
0.71470577 0.30421081 1.2409816 4281678647
0.71593475 0.30374953 1.2389617 4280954924
0.71775752 0.30352107 1.237941 4280954923
0.7183702 0.30282691 1.2349222 4280954924
0.72018176 0.30259845 1.2339015 4280954924
0.72320354 0.30283564 1.2348789 4280889901
0.72683781 0.30330569 1.2368554 4280495143
0.73170108 0.30424148 1.2408298 4280626729
0.73474151 0.3044787 1.2418071 4280560936
0.73594236 0.30401736 1.2397875 4280889131
0.73651946 0.30332315 1.2367688 4281020717
0.73523062 0.30193031 1.2307537 4281283887
0.64184719 0.30860993 1.2507174 4289443504
0.64375252 0.30837974 1.2496959 4289574577
0.64403009 0.30744573 1.2456754 4289706163
0.64483589 0.3067463 1.2426548 4289771956
0.64563042 0.30604687 1.2396343 4289903542
0.64750761 0.30581662 1.238613 4289706163
0.64938104 0.30558637 1.2375917 4289903542
0.65235215 0.30582535 1.2385697 4290758338
0.65532702 0.30606434 1.2395476 4290165944
0.65664226 0.30559948 1.2375269 4291021252
0.65794998 0.30513456 1.2355062 4290824128
0.65886271 0.30350083 1.2284666 4279112974
0.66182816 0.30373982 1.2294446 4278718216
0.66592509 0.30444807 1.2324215 4279836697
0.67003322 0.30515638 1.2353983 4289048487
0.67301744 0.30539539 1.236376 4288653728
0.67714435 0.30610371 1.2393527 4288324763
0.68013984 0.30634272 1.2403305 4288193177
0.68199265 0.30611244 1.2393094 4288258970
0.68326664 0.30564749 1.2372891 4288127384
0.68511009 0.30541718 1.236268 4288193177
0.68810743 0.30565622 1.2372458 4288127384
0.69052786 0.30566061 1.2372241 4288126871
0.69411337 0.30613431 1.2392011 4288257943
0.69712204 0.30637336 1.2401787 4288192151
0.69954801 0.30637774 1.240157 4288126614
0.70138586 0.30614743 1.2391361 4287928723
0.70380998 0.30615181 1.2391145 4287928723
0.70623416 0.30615619 1.2390928 4287731344
0.70925212 0.30639526 1.2400703 4285954933
0.71286958 0.30686903 1.242047 4280428321
0.7158969 0.3071081 1.2430245 4280823079
0.71712965 0.3066431 1.2410045 4281020971
0.71895623 0.30641276 1.2399837 4280955178
0.72017586 0.30594769 1.2379638 4281020971
0.72199303 0.30571735 1.236943 4281086764
0.72441345 0.30572173 1.2369214 4280955694
0.72744268 0.3059608 1.2378988 4280824108
0.73169708 0.30666935 1.2408743 4280560936
0.73473752 0.30690846 1.2418517 4280495143
0.73655289 0.30667812 1.2408309 4280495143
0.73713177 0.3059783 1.2378123 4280691752
0.73646307 0.30480894 1.2327958 4281020717
0.73639566 0.30387431 1.2287785 4280954924
0.64399356 0.31200057 1.2547612 4289114538
0.64536691 0.31153205 1.2527399 4289508784
0.64510876 0.31035408 1.2477195 4289640370
0.64537507 0.30941254 1.2436991 4289574577
0.64617151 0.30870748 1.2406784 4289706163
0.64805055 0.30847538 1.239657 4289705393
0.64992589 0.30824324 1.2386358 4290429116
0.65234816 0.30824763 1.2386142 4291087046
0.65477043 0.30825198 1.2385925 4290034358
0.65663826 0.30801985 1.2375712 4290758081
0.65405172 0.30589569 1.2285537 4292008148
0.66946357 0.30733648 1.2344432 4280100384
0.67301351 0.30781388 1.2364205 4289114280
0.67600149 0.30805477 1.2373983 4288653985
0.67785054 0.30782261 1.2363772 4288193690
0.67969584 0.30759045 1.2353562 4288193434
0.68153745 0.30735826 1.2343353 4288193177
0.68452919 0.30759916 1.2353131 4288193177
0.68752462 0.30784008 1.2362908 4288127384
0.69052386 0.30808097 1.2372686 4288061591
0.69294429 0.30808535 1.2372469 4288192407
0.69594914 0.30832627 1.2382246 4288192151
0.69778508 0.30809408 1.2372037 4288126102
0.7002055 0.30809844 1.237182 4288388761
0.70262587 0.30810282 1.2371604 4288059539
0.7050463 0.30810717 1.2371389 4282993992
0.7080605 0.30834812 1.2381164 4278915082
0.7122699 0.30906221 1.2410923 4278915082
0.71529537 0.30930316 1.2420698 4280033819
0.71652621 0.3088344 1.2400498 4280889385
0.71835095 0.30860218 1.239029 4280757799
0.72017187 0.30836996 1.2380083 4280955178
0.7219891 0.30813774 1.2369875 4280889385
0.72501642 0.3083787 1.2379649 4280955178
0.72804755 0.30861968 1.2389424 4280758569
0.73108238 0.30886066 1.2399198 4280692521
0.73350841 0.30886501 1.2398981 4280429350
0.73531997 0.30863279 1.2388774 4280495143
0.73651147 0.30816394 1.2368577 4280429350
0.73645908 0.30722183 1.2328401 4280495143
0.73763186 0.30675295 1.2308205 4280561190
0.64618742 0.31326991 1.2497637 4289377452
0.64645749 0.31232089 1.245743 4289705647
0.64834785 0.31208694 1.2447217 4289705393
0.64914048 0.31137624 1.2417009 4289705393
0.65047073 0.31090388 1.2396799 4290165944
0.65289491 0.31090826 1.2396582 4290363577
0.65531904 0.31091264 1.2396365 4289771440
0.65663427 0.31044024 1.2376157 4291021251
0.65571672 0.30901435 1.2315966 4291086789
0.67002529 0.30998966 1.235487 4278849805
0.67300951 0.3102324 1.2364649 4280758314
0.67542803 0.31023678 1.2364433 4289114280
0.67727524 0.31000271 1.2354221 4288522399
0.67969191 0.3100071 1.2354006 4288193690
0.68210852 0.31001145 1.235379 4287996055
0.68452519 0.3100158 1.2353574 4288061591
0.68752068 0.3102586 1.2363352 4288192920
0.69051993 0.31050137 1.2373129 4288258200
0.69294029 0.31050575 1.2372913 4288126102
0.69536072 0.3105101 1.2372698 4288059796
0.69719476 0.31027603 1.2362487 4288388247
0.69902509 0.31004196 1.2352278 4286546300
0.70144176 0.31004632 1.2352062 4280098586
0.7050423 0.31052756 1.2371832 4279243790
0.70805651 0.31077039 1.2381608 4279047181
0.7128616 0.31172854 1.2421361 4278718216
0.71588892 0.3119714 1.2431136 4278981388
0.71772116 0.31173733 1.2420927 4280889385
0.7189483 0.31126478 1.2400726 4280889385
0.72077113 0.31103069 1.2390518 4280889385
0.72319525 0.31103507 1.2390301 4280692006
0.72561944 0.31103945 1.2390085 4280823592
0.72804356 0.3110438 1.2389868 4280692006
0.72985703 0.3108097 1.2379661 4280626983
0.7322793 0.31081408 1.2379445 4280626983
0.73408711 0.31057996 1.2369237 4280495397
0.73527485 0.31010735 1.2349041 4280429604
0.73645514 0.30963472 1.2328843 4280429350
0.73824799 0.30940059 1.2318637 4280495397
0.73692733 0.30797395 1.2258482 4280560420
0.6456421 0.31547257 1.2488087 4289179303
0.64591032 0.31451607 1.2447881 4289376682
0.64779878 0.31428021 1.2437665 4289508268
0.64913654 0.31380412 1.2417455 4289705647
0.65046674 0.31332803 1.2397244 4290100405
0.65234023 0.31309214 1.238703 4289771440
0.65476251 0.31309652 1.2386813 4289442475
0.65663034 0.31286064 1.2376601 4290100405
0.65626913 0.31166372 1.2326404 4289836720
0.67428517 0.31217474 1.2344886 4280758569
0.67727131 0.31241935 1.2354665 4288785315
0.67968792 0.31242374 1.2354449 4288391069
0.68210459 0.31242809 1.2354233 4287864725
0.68452126 0.31243244 1.2354017 4287930261
0.68693787 0.31243679 1.2353802 4288061078
0.68935454 0.31244117 1.2353586 4287994772
0.69177121 0.31244552 1.2353369 4287862929
0.69418782 0.31244987 1.2353153 4287993232
0.69660449 0.31245425 1.2352937 4284571226
0.69843292 0.31221828 1.2342728 4279441426
0.70084774 0.31222263 1.2342513 4278981387
0.70444638 0.31270763 1.2362283 4278916364
0.70805258 0.31319264 1.2382053 4278717959
0.7128576 0.31415832 1.2421807 4280165918
0.71588498 0.31440303 1.2431582 4284113498
0.71771717 0.31416708 1.2421373 4283981912
0.72014695 0.31417146 1.2421156 4280823592
0.72197354 0.31393552 1.2410947 4280626212
0.72379637 0.31369954 1.2400738 4280823079
0.7262224 0.31370392 1.2400521 4280626213
0.72803956 0.31346795 1.2390313 4280692520
0.72985303 0.31323197 1.2380105 4280625700
0.73166275 0.31299597 1.2369897 4280626213
0.73408318 0.31300035 1.2369682 4280363811
0.73527092 0.31252399 1.2349483 4280560420
0.73706937 0.31228799 1.2339276 4280495397
0.7401042 0.31253269 1.2349051 4280495397
0.74065506 0.31181595 1.2318864 4280494627
0.58611208 0.31973523 1.2574224 4284903537
0.58906257 0.31998166 1.2584007 4284969330
0.64617938 0.31815568 1.2498534 4288521372
0.64644951 0.31719166 1.2458324 4288850338
0.64833987 0.31695396 1.2448109 4289113510
0.64967948 0.31647411 1.2427897 4289442475
0.65101159 0.31599426 1.2407686 4289837233
0.65233624 0.31551442 1.2387475 4290034612
0.65475851 0.3155188 1.2387258 4289705647
0.65718079 0.31552315 1.2387042 4290363577
0.65849042 0.31504327 1.2366832 4289968307
0.67840993 0.31532031 1.2375098 4280758569
0.68083036 0.31532469 1.2374883 4288390557
0.68267572 0.3150869 1.2364671 4288324252
0.68451726 0.31484908 1.2354461 4288258459
0.68635511 0.31461129 1.2344251 4287797139
0.68935061 0.31485781 1.2354028 4288059541
0.69176722 0.31486216 1.2353812 4287071620
0.69359946 0.31462434 1.2343603 4279375376
0.69601423 0.31462869 1.2343388 4279375888
0.69784081 0.31439087 1.2333177 4278718472
0.69966364 0.31415302 1.2322968 4279180306
0.70325857 0.31464177 1.234274 4284970603
0.70686096 0.3151305 1.2362511 4285496947
0.71106654 0.31586146 1.2392274 4285430128
0.71408826 0.31610805 1.240205 4285560687
0.71711373 0.31635463 1.2411826 4287138949
0.72014296 0.31660122 1.2421602 4284047191
0.72196954 0.31636339 1.2411392 4280428577
0.72379237 0.31612557 1.2401183 4280691493
0.72561145 0.31588772 1.2390975 4280625700
0.72742677 0.31564987 1.2380766 4280626213
0.72923839 0.31541201 1.2370558 4280626213
0.73165876 0.31541637 1.2370342 4280692006
0.73346472 0.31517851 1.2360134 4280428834
0.73465061 0.3146984 1.2339935 4280494627
0.73644722 0.31446052 1.2329729 4280626213
0.7394802 0.3147071 1.2339504 4280626213
0.74189496 0.31471145 1.2339288 4280626213
0.58267063 0.32169902 1.2554889 4284903024
0.58512288 0.32170346 1.2554669 4285166196
0.58856404 0.32219565 1.2574456 4285429368
0.59151644 0.32244399 1.2584238 4285823356
0.59596711 0.32342401 1.2624027 4285889405
0.5979324 0.32318455 1.2613804 4285954942
0.59838814 0.32221338 1.2573577 4285889149
0.6008442 0.32221782 1.2573358 4286021246
0.60228878 0.32173443 1.2553136 4285889403
0.60524863 0.32198277 1.2562917 4286020989
0.60821223 0.32223111 1.25727 4286152575
0.61169094 0.32272339 1.2592483 4286218366
0.61363751 0.3224839 1.2582262 4286086780
0.61506522 0.32200047 1.2562041 4285890169
0.61700243 0.32176095 1.2551821 4286021755
0.61841708 0.3212775 1.2531601 4286349950
0.62086558 0.32128194 1.2531383 4286481793
0.62331414 0.32128635 1.2531164 4286613892
0.62418932 0.32055891 1.2500947 4286613892
0.63860178 0.31936991 1.2449425 4287666833
0.64211416 0.31986225 1.2469205 4287535247
0.64455146 0.31986666 1.2468987 4287139719
0.64535916 0.31913909 1.2438775 4287600270
0.64724571 0.31889951 1.242856 4288323993
0.64912856 0.3186599 1.2418345 4288784544
0.65100765 0.31842029 1.240813 4289310888
0.65288299 0.31818068 1.2397916 4290034611
0.65585971 0.31842905 1.2407697 4289639853
0.65828574 0.3184334 1.240748 4290034612
0.66071177 0.31843778 1.2407264 4289968819
0.68069124 0.31871682 1.2415525 4280889386
0.6819728 0.31823313 1.2395318 4278981134
0.68382186 0.31799349 1.2385106 4279639064
0.68509024 0.31750977 1.2364899 4287797653
0.68635112 0.31702605 1.2344693 4288586655
0.68934661 0.31727445 1.2354472 4286875011
0.69234586 0.31752285 1.236425 4280492319
0.69417989 0.31728315 1.235404 4279311122
0.69718289 0.31753159 1.2363819 4278390790
0.69842505 0.3170478 1.2343614 4279971105
0.70024973 0.3168081 1.2333405 4285695609
0.70325458 0.31705654 1.2343183 4285891191
0.70685697 0.31754902 1.2362955 4285429612
0.71106255 0.31828561 1.2392719 4285626735
0.71408427 0.31853408 1.2402495 4286218617
0.71710974 0.31878254 1.2412271 4287271305
0.72074026 0.31927508 1.243204 4287402122
0.72317195 0.31927946 1.2431823 4280953895
0.72499853 0.31903976 1.2421614 4280757030
0.72621441 0.31855595 1.2401412 4280757286
0.72742283 0.31807211 1.238121 4280428321
0.7292344 0.31783238 1.2371001 4280692006
0.73165482 0.31783676 1.2370785 4280560420
0.73407519 0.31784111 1.237057 4280494114
0.73526299 0.31735727 1.235037 4280560419
0.7352069 0.31638515 1.2310189 4280626213
0.73761606 0.3163895 1.2309973 4280626213
0.74064714 0.31663796 1.231975 4280494627
0.58266658 0.32415128 1.2555338 4285363059
0.58511889 0.32415572 1.2555119 4285560438
0.58856004 0.32465166 1.2574906 4284968301
0.59151238 0.32490188 1.2584689 4284310371
0.59496665 0.32539785 1.2604474 4283652441
0.59742832 0.32540229 1.2604254 4284178785
0.59888607 0.32491517 1.2584031 4284375651
0.60084015 0.32467383 1.2573808 4284376164
0.60279047 0.32443246 1.2563587 4284902508
0.60473704 0.32419109 1.2553366 4285428851
0.6076988 0.32444131 1.2563149 4285363057
0.61066425 0.32469153 1.2572931 4286284159
0.61158067 0.32395858 1.2542708 4286415743
0.61300093 0.32347137 1.2522488 4286415743
0.61544758 0.32347581 1.2522268 4286547329
0.61737543 0.32323441 1.251205 4286810501
0.61877882 0.32274717 1.2491831 4286942087
0.62069726 0.32250577 1.2481612 4287205259
0.622612 0.32226434 1.2471393 4287139466
0.62399662 0.32177708 1.2451177 4287139466
0.62643015 0.32178149 1.2450958 4287205259
0.62886369 0.32178587 1.2450742 4287271052
0.63076526 0.32154441 1.2440524 4287205259
0.63266307 0.32130298 1.2430308 4287271306
0.63455719 0.32106152 1.2420092 4287271306
0.63644749 0.32082003 1.2409877 4287402892
0.6383341 0.32057858 1.239966 4287468684
0.63967562 0.32009125 1.2379447 4287600270
0.64155281 0.31984976 1.2369232 4287205512
0.64397132 0.31985411 1.2369016 4286810754
0.64748377 0.3203502 1.2388796 4286284410
0.65100366 0.32084629 1.2408576 4288258200
0.65342969 0.32085067 1.2408359 4287468684
0.65585572 0.32085505 1.2408142 4289639853
0.65717286 0.32036766 1.238793 4289574060
0.68011594 0.3208988 1.2405975 4279967514
0.68196881 0.32065728 1.2395762 4281941305
0.68381786 0.32041574 1.238555 4279506965
0.68508631 0.31992829 1.2365342 4279638551
0.68634719 0.31944081 1.2345136 4283782740
0.68818128 0.31919923 1.2334925 4280427039
0.6905942 0.31920359 1.2334709 4279441171
0.69242263 0.31896201 1.2324499 4278981645
0.6948337 0.31896636 1.2324284 4283194706
0.69665653 0.31872478 1.2314074 4287077261
0.6984756 0.31848317 1.2303865 4286154875
0.70265871 0.31922534 1.2333632 4285693811
0.70566541 0.31947565 1.234341 4285626991
0.70986724 0.32021785 1.2373176 4285889906
0.7128852 0.32046819 1.2382953 4286548095
0.71590692 0.3207185 1.239273 4287271049
0.71953368 0.3212148 1.24125 4288257688
0.72256476 0.32146513 1.2422277 4285428076
0.72438949 0.32122356 1.2412066 4280362272
0.72621042 0.32098195 1.2401856 4280757286
0.72802764 0.32074037 1.2391647 4280690980
0.72984111 0.32049876 1.2381438 4280691749
0.73165083 0.32025716 1.237123 4280494626
0.73345679 0.32001552 1.2361021 4280559906
0.73402643 0.31928194 1.2330829 4280428833
0.73396659 0.31830233 1.2290647 4280626213
0.73513186 0.31781468 1.2270449 4280692006
0.73815542 0.31806499 1.2280226 4280494627
0.73931134 0.31757733 1.2260028 4280428834
0.7392084 0.31659764 1.221985 4280494627
0.58412969 0.32611269 1.2535563 4279046929
0.58707267 0.32636476 1.2545347 4278783757
0.58952308 0.32636917 1.2545128 4278652171
0.59296983 0.32686889 1.2564914 4278652171
0.59592408 0.32712096 1.2574698 4278586378
0.59838009 0.3271254 1.2574478 4278454792
0.60133994 0.3273775 1.2584262 4278520585
0.60329217 0.32713425 1.257404 4278586378
0.60574818 0.32713869 1.257382 4278586378
0.60820419 0.32714313 1.2573601 4278586376
0.6106602 0.32714754 1.2573382 4278652169
0.61208987 0.32665664 1.2553159 4278717962
0.61402708 0.32641336 1.2542939 4278915341
0.61596054 0.32617012 1.2532718 4279047181
0.61840904 0.32617453 1.25325 4278783755
0.6208576 0.32617894 1.2532281 4279112720
0.62226099 0.32568797 1.2512062 4280757545
0.62418127 0.3254447 1.2501843 4282336577
0.62504524 0.32470599 1.2471623 4283915609
0.62642616 0.32421499 1.2451406 4285692020
0.62779957 0.32372397 1.2431188 4287139466
0.62969738 0.32348064 1.2420971 4287468431
0.6315915 0.3232373 1.2410754 4287271306
0.6334818 0.32299396 1.2400539 4279244560
0.63483083 0.32250291 1.2380323 4281613108
0.63617235 0.32201183 1.2360109 4283718484
0.63750637 0.32152072 1.2339895 4285823860
0.63883293 0.3210296 1.2319682 4286942340
0.64178711 0.3212817 1.2329465 4287337098
0.64693284 0.32252473 1.2379242 4287073926
0.6515485 0.32352006 1.2419019 4286547582
0.65397638 0.32352445 1.2418802 4285560687
0.65585172 0.32328108 1.2408587 4285560687
0.65495116 0.32179895 1.2348384 4289179302
0.68036354 0.32135129 1.2326019 4282203964
0.68219763 0.32110783 1.2315807 4280164638
0.68518561 0.32135999 1.2325588 4278783754
0.68817735 0.32161212 1.2335368 4279441682
0.68884254 0.32087308 1.2305167 4279178510
0.68949652 0.32013401 1.2274966 4279048720
0.6924845 0.32038614 1.2284746 4285365874
0.69429982 0.32014266 1.2274537 4287074951
0.69670147 0.32014701 1.2274323 4286088312
0.70206279 0.32139042 1.232408 4285824883
0.70566142 0.32189041 1.2343854 4285627505
0.71045893 0.32288608 1.2383614 4286482043
0.7134788 0.32313827 1.2393391 4287205511
0.71530348 0.32289481 1.2383181 4287337098
0.71772575 0.32289916 1.2382965 4288389529
0.72075123 0.32315138 1.2392741 4288718495
0.72317541 0.32315576 1.2392526 4280757286
0.72620648 0.32340798 1.2402302 4280757285
0.72924131 0.32366019 1.2412077 4280625699
0.73105854 0.32341674 1.2401868 4280692005
0.73287201 0.32317325 1.2391659 4280560419
0.73283839 0.32218617 1.2351472 4280428833
0.73217356 0.32095122 1.2301295 4280494626
0.73210812 0.31996411 1.2261112 4280560420
0.73450786 0.31996843 1.2260897 4280626213
0.73815149 0.32046852 1.2280667 4280494627
0.7393074 0.3199771 1.2260469 4280494627
0.73983014 0.3192378 1.2230281 4280428834
0.5904749 0.32807541 1.2515349 4278586376
0.59441984 0.32882839 1.254514 4278586376
0.59737217 0.32908234 1.2554923 4278520583
0.6008321 0.32958585 1.257471 4278586376
0.60328811 0.32959026 1.257449 4278586376
0.60574412 0.3295947 1.2574271 4278652169
0.60820019 0.32959914 1.2574052 4278783755
0.61014485 0.32935402 1.2563831 4278784009
0.61208582 0.32910889 1.255361 4278915595
0.61350799 0.32861421 1.2533387 4279441939
0.61543959 0.32836908 1.2523166 4279441939
0.61840504 0.32862306 1.2532949 4279507732
0.6203329 0.3283779 1.252273 4279441939
0.62173438 0.32788318 1.2502509 4279178767
0.62417728 0.32788756 1.250229 4279178767
0.62504125 0.32714325 1.247207 4279376146
0.62642217 0.3266485 1.2451851 4280099869
0.62726551 0.32590416 1.2421633 4280231455
0.62809759 0.32515979 1.2391416 4280362787
0.62998605 0.32491454 1.23812 4280165662
0.63187081 0.32466933 1.2370983 4280165662
0.63321418 0.32417449 1.2350768 4279705111
0.63401067 0.32343006 1.2320554 4279836697
0.64419419 0.32369706 1.2329692 4282205244
0.64880049 0.32469988 1.2369471 4285297515
0.64956695 0.32395539 1.2339259 4285625967
0.68759269 0.32377535 1.2325815 4279047438
0.68767351 0.322781 1.2285616 4279376402
0.68773931 0.32178661 1.224542 4286218616
0.6901353 0.32179093 1.2245207 4288258455
0.69253135 0.32179525 1.2244992 4286943108
0.69669753 0.32254863 1.2274764 4285692784
0.70146692 0.32355174 1.2314528 4285363819
0.71224201 0.32605743 1.2414042 4285955699
0.71466988 0.32606182 1.2413825 4286679168
0.71649837 0.32581648 1.2403613 4286942340
0.71772182 0.32532144 1.2383409 4287402891
0.72074723 0.32557553 1.2393186 4288258200
0.72377646 0.3258296 1.2402964 4284442206
0.72680944 0.32608372 1.241274 4280691492
0.73045492 0.32658753 1.243251 4280757285
0.73288655 0.32659191 1.2432293 4280560419
0.73409313 0.32609683 1.2412089 4280560419
0.73467773 0.32535201 1.2381895 4280494626
0.73463482 0.32435745 1.2341708 4280428833
0.73519504 0.32361257 1.2311515 4280560419
0.73636407 0.32311743 1.2291315 4280692005
0.73876947 0.32312179 1.22911 4280560420
0.73992729 0.32262662 1.2270901 4280692006
0.74045193 0.32188168 1.2240711 4280494627
0.59291565 0.33052459 1.2515579 4280099869
0.59536046 0.330529 1.2515361 4280560420
0.59830904 0.3307848 1.2525145 4280889385
0.60176706 0.33129206 1.2544932 4280494627
0.60421741 0.33129647 1.2544713 4279902490
0.60717726 0.3315523 1.2554497 4279376146
0.61014086 0.33180815 1.256428 4278915595
0.61208183 0.33156115 1.2554059 4278981388
0.61350399 0.33106273 1.2533836 4279178767
0.61491865 0.33056426 1.2513614 4279047181
0.61684459 0.33031726 1.2503394 4278981387
0.61928749 0.33032164 1.2503176 4279112973
0.62173039 0.33032605 1.2502956 4279178766
0.62469774 0.3305819 1.251274 4279441938
0.62608987 0.33008343 1.249252 4281613108
0.62694633 0.32933345 1.2462299 4280165662
0.62726152 0.32833204 1.2422079 4280034076
0.6280936 0.32758203 1.239186 4279836954
0.62891448 0.32683203 1.2361643 4279376916
0.63079548 0.32658491 1.2351427 4279573525
0.63267267 0.32633778 1.2341211 4279902490
0.68526602 0.32518017 1.2286272 4280099613
0.68592191 0.32442984 1.225607 4279376402
0.6966936 0.32495028 1.2275203 4284705630
0.71406835 0.32823813 1.2404275 4285034597
0.715895 0.32799092 1.2394065 4285429100
0.71471131 0.32648578 1.2333882 4285560687
0.71591789 0.32598695 1.2313678 4286284410
0.72074723 0.32699767 1.2353438 4283718483
0.72860783 0.32726234 1.2362784 4280626212
0.73163891 0.32751831 1.2372562 4280560419
0.73344493 0.32727107 1.2362353 4280494626
0.73339826 0.326269 1.2322165 4280494626
0.73457295 0.32577011 1.2301964 4280626212
0.73574013 0.32527122 1.2281764 4280626212
0.73814362 0.32527554 1.2281549 4280560420
0.73867577 0.324525 1.2251357 4280692006
0.73857099 0.32352281 1.2211174 4280692006
0.72612202 0.32765737 1.2283063 4280494626
0.72913998 0.32791519 1.2292842 4280428833
0.73092908 0.32766604 1.2282634 4280494626
0.73209631 0.3271634 1.2262433 4280494626
0.73325598 0.32666075 1.2242233 4280494626
0.73378623 0.32590458 1.221204 4280494627
0.73030889 0.3298142 1.2273082 4280428833
0.73209232 0.32956317 1.2262872 4280428833
0.73201197 0.32854605 1.2222686 4280494626
