# .PCD v0.7 - Point Cloud Data file format
VERSION 0.7
FIELDS x y z rgba
SIZE 4 4 4 4
TYPE F F F U
COUNT 1 1 1 1
WIDTH 557
HEIGHT 1
VIEWPOINT 0 0 0 1 0 0 0
POINTS 557
DATA ascii
0.59658611 0.28754619 1.3527584 4281942339
0.59922206 0.28755093 1.3527349 4282139462
0.60185808 0.28755569 1.3527113 4282138948
0.6049661 0.28776306 1.3536875 4281349432
0.60760403 0.2877678 1.3536639 4281283126
0.61024189 0.28777257 1.3536403 4281283125
0.61240214 0.28757471 1.3526171 4281282869
0.61455858 0.28737685 1.351594 4281148973
0.59441024 0.29038188 1.3538301 4281679167
0.59751451 0.29059112 1.3548063 4282008389
0.59968603 0.29039142 1.353783 4281942853
0.60232389 0.29039615 1.3537594 4281745217
0.60496181 0.29040092 1.3537358 4282007875
0.60759968 0.29040569 1.3537123 4282205253
0.6107133 0.29061493 1.3546884 4282335811
0.61335307 0.29061967 1.3546648 4282072640
0.61551332 0.29041997 1.3536416 4282204483
0.61766982 0.2902202 1.3526183 4281809470
0.61982256 0.29002047 1.3515952 4281479735
0.62197155 0.2898207 1.3505721 4281151026
0.62411678 0.28962097 1.3495489 4281151283
0.62625825 0.2894212 1.3485259 4283191379
0.62888676 0.28942594 1.3485024 4283257172
0.63151526 0.28943068 1.3484789 4282139202
0.59440595 0.29301974 1.3538785 4281153076
0.59751022 0.29323086 1.3548548 4281284408
0.60014999 0.29323563 1.3548312 4281284666
0.6027897 0.29324037 1.3548076 4281350715
0.60542947 0.29324514 1.354784 4281350457
0.60806924 0.29324991 1.3547604 4281876543
0.61070901 0.29325467 1.3547368 4282270788
0.61334872 0.29325944 1.3547133 4281941568
0.61598849 0.29326418 1.3546897 4282073154
0.6181469 0.29306257 1.3536664 4282072898
0.62078476 0.29306734 1.3536428 4282007105
0.6229375 0.29286572 1.3526196 4282072898
0.62508649 0.29266408 1.3515965 4282138691
0.62772059 0.29266885 1.351573 4282073155
0.63035476 0.29267359 1.3515494 4282402120
0.63298887 0.29267836 1.3515259 4282270532
0.6351285 0.29247668 1.3505027 4282139202
0.6362716 0.29186225 1.3474807 4281876541
0.5948661 0.29586583 1.3549268 4281021492
0.59797227 0.29607883 1.355903 4281021751
0.60014564 0.29587537 1.3548796 4280890165
0.60278541 0.29588011 1.354856 4280758579
0.60542512 0.29588488 1.3548324 4280429870
0.60806489 0.29588965 1.3548088 4279969319
0.61070466 0.29589441 1.3547853 4279903269
0.61382204 0.29610741 1.3557614 4280100649
0.61646366 0.29611218 1.3557378 4280758579
0.61910528 0.29611695 1.3557142 4281087544
0.62174696 0.29612172 1.3556906 4281613888
0.62390345 0.29591823 1.3546673 4281877060
0.62654316 0.29592296 1.3546438 4282206027
0.62918293 0.29592773 1.3546202 4282140232
0.63182271 0.2959325 1.3545966 4282008646
0.63446248 0.29593727 1.354573 4282074438
0.63660771 0.29573375 1.3535498 4281745473
0.63924557 0.29573852 1.3535262 4281679678
0.63989043 0.29491016 1.3495045 4281745471
0.59486181 0.29850557 1.3549752 4278784531
0.59796792 0.29872045 1.3559515 4278982168
0.60014129 0.29851511 1.354928 4278719254
0.60278106 0.29851988 1.3549044 4278653719
0.60589284 0.29873472 1.3558807 4278522646
0.60853446 0.29873949 1.3558571 4278325781
0.61117607 0.29874426 1.3558335 4278325524
0.61429536 0.29895914 1.3568096 4278325525
0.61693883 0.2989639 1.356786 4278260247
0.61958236 0.29896867 1.3567624 4278326042
0.62222588 0.29897344 1.3567388 4278589214
0.62438422 0.29876807 1.3557155 4278786593
0.62702584 0.29877284 1.3556919 4280234039
0.62966752 0.29877761 1.3556683 4280891969
0.63230914 0.29878238 1.3556447 4281352262
0.63495076 0.29878715 1.3556211 4281615176
0.6370979 0.29858178 1.3545978 4281417796
0.63973767 0.29858652 1.3545743 4281417538
0.64038438 0.29775068 1.3505523 4281549122
0.6400159 0.29649448 1.3445313 4281811524
0.640912 0.29042774 1.3154061 4282139716
0.64142561 0.28959167 1.3113853 4282139460
0.64192426 0.28875554 1.3073647 4282073922
0.64189088 0.28770921 1.3023448 4282204995
0.64339542 0.28729343 1.3003232 4282139202
0.64385092 0.28645724 1.296303 4282073409
0.59439296 0.30093336 1.3540237 4278652689
0.59796357 0.30136207 1.3559999 4278719254
0.600137 0.30115485 1.3549764 4278917149
0.60277671 0.30115962 1.3549529 4279049507
0.60588849 0.30137634 1.3559291 4279510317
0.60900402 0.3015931 1.3569053 4279642160
0.61164749 0.30159786 1.3568817 4279905588
0.61476862 0.30181462 1.3578579 4280431677
0.617414 0.30181938 1.3578343 4280629570
0.62005937 0.30182418 1.3578107 4280892744
0.6227048 0.30182895 1.3577871 4280958537
0.62486506 0.30162171 1.3567637 4280695365
0.62750852 0.30162647 1.3567401 4280826951
0.63015205 0.30163124 1.3567165 4280892744
0.63230479 0.301424 1.3556931 4280892743
0.63494641 0.30142877 1.3556695 4280892742
0.63758808 0.30143353 1.3556459 4280826690
0.63973331 0.30122626 1.3546227 4280891969
0.64038008 0.30038291 1.3506006 4280892224
0.64001155 0.29911548 1.3445795 4281417797
0.63911861 0.29763597 1.3375589 4281549382
0.63983548 0.29468146 1.3234954 4281877318
0.63986963 0.29362589 1.3184747 4282140489
0.64141917 0.29320642 1.3164526 4282271817
0.64193469 0.29236284 1.3124317 4282139975
0.64243519 0.29151922 1.308411 4282074182
0.64292073 0.29067558 1.3043903 4282204998
0.64442897 0.29025605 1.3023686 4282204996
0.64540899 0.28962442 1.2993476 4282139203
0.6463778 0.28899279 1.2963268 4282139202
0.64838427 0.28878528 1.2953048 4282204995
0.65091342 0.28878984 1.2952822 4282139202
0.59345967 0.30314353 1.3520721 4282205766
0.59702653 0.30357599 1.3540485 4281745732
0.59966439 0.30358073 1.354025 4281154367
0.60230225 0.3035855 1.3540014 4281286470
0.60494018 0.30359027 1.3539778 4281221193
0.60852581 0.30402273 1.3559541 4281353552
0.61116743 0.3040275 1.3559304 4281091151
0.61428666 0.30424613 1.3569067 4280959822
0.61693019 0.3042509 1.356883 4281091153
0.61957371 0.30425566 1.3568594 4280960082
0.62221718 0.30426043 1.3568358 4280828753
0.62437558 0.30405131 1.3558124 4280762960
0.6270172 0.30405608 1.3557888 4280960340
0.62965882 0.30406085 1.3557652 4280894289
0.63180971 0.30385172 1.3547419 4280828495
0.63444948 0.30385649 1.3547183 4280894287
0.63659471 0.30364737 1.353695 4280893772
0.63923264 0.30365211 1.3536714 4280893259
0.6398775 0.30280125 1.3496492 4280761158
0.63900703 0.30130866 1.3426282 4280826694
0.63811034 0.29981601 1.3356074 4280826436
0.63920283 0.29917899 1.3325853 4280891970
0.63977838 0.29832801 1.3285638 4281089349
0.63983124 0.29726309 1.3235427 4281285958
0.6398654 0.29619813 1.3185219 4281483591
0.64141494 0.29577494 1.3164998 4281746248
0.64141721 0.29470992 1.3114792 4281812294
0.64191592 0.2938588 1.3074583 4281943110
0.64291656 0.29322159 1.304437 4282008645
0.6444248 0.29279831 1.3024154 4282074179
0.64644635 0.29258895 1.3013932 4281416761
0.64846408 0.29237959 1.3003711 4281679675
0.6499536 0.29195628 1.2983495 4281876542
0.65248841 0.29196084 1.2983268 4281876030
0.65396667 0.29153749 1.2963054 4282204995
0.65490735 0.29090017 1.2932847 4282139202
0.65583676 0.29026285 1.290264 4282204995
0.59299082 0.30556193 1.3511205 4283456090
0.59748858 0.30642956 1.3550969 4283456349
0.60012829 0.30643433 1.3550733 4281878349
0.60182786 0.30600765 1.3530499 4281023815
0.60493582 0.30622813 1.3540262 4280958282
0.6080476 0.30644861 1.3550025 4280893519
0.61116308 0.30666912 1.3559788 4280762705
0.61428231 0.30688962 1.3569552 4280762962
0.61692584 0.30689439 1.3569316 4280828757
0.61956936 0.30689916 1.356908 4280828758
0.62172961 0.30668816 1.3558844 4280762966
0.62437123 0.30669293 1.3558608 4280894551
0.62701285 0.3066977 1.3558372 4280829015
0.62965453 0.30670246 1.3558136 4280697173
0.63180536 0.30649146 1.3547903 4280631635
0.63444513 0.30649623 1.3547667 4280697171
0.63659042 0.30628523 1.3537434 4280696912
0.6387319 0.3060742 1.3527201 4280762448
0.63937497 0.30521587 1.3486978 4280762191
0.63900274 0.3039259 1.3426763 4280696141
0.63810605 0.30242014 1.3356552 4280761931
0.6391986 0.30177748 1.332633 4280695880
0.63977408 0.300919 1.3286113 4280761158
0.63982701 0.29984471 1.32359 4280760644
0.63935173 0.2985546 1.3175695 4280628799
0.64089936 0.29812762 1.3155473 4280562746
0.64089978 0.29705322 1.3105266 4280759865
0.64191169 0.29641041 1.3075051 4286352783
0.64239538 0.29555178 1.3034842 4286813074
0.64442062 0.29534057 1.302462 4286878608
0.64592141 0.2949135 1.3004403 4286549128
0.6479373 0.29470226 1.2994181 4285956477
0.64994949 0.29449102 1.298396 4284114017
0.65248424 0.29449558 1.2983733 4282797900
0.65501899 0.29450017 1.2983507 4281547833
0.65649354 0.29407308 1.2963293 4281350454
0.65742856 0.29343012 1.2933084 4281613627
0.65888625 0.29300299 1.2912871 4281811005
0.59298652 0.30819419 1.3511688 4284442727
0.59748423 0.30906931 1.3551453 4283916899
0.600124 0.30907407 1.3551217 4283193953
0.60229361 0.30886123 1.3540982 4281418575
0.60493153 0.30886599 1.3540746 4281090383
0.6075694 0.30887076 1.354051 4280827985
0.61068302 0.30909312 1.3550274 4280762963
0.61380041 0.3093155 1.3560038 4280829015
0.61644202 0.30932027 1.3559802 4280763480
0.61860228 0.30910739 1.3549566 4280698201
0.62124205 0.30911216 1.354933 4280698202
0.62388182 0.30911693 1.3549095 4280697688
0.62652153 0.3091217 1.3548859 4280763224
0.6291613 0.30912644 1.3548623 4280631639
0.63180107 0.30913121 1.3548387 4280697431
0.63444084 0.30913597 1.3548151 4280697431
0.63658607 0.3089231 1.3537918 4280631638
0.63872761 0.30871019 1.3527685 4280565588
0.63937062 0.30784434 1.3487461 4280565842
0.63949859 0.30676082 1.343724 4280500049
0.63910574 0.30545959 1.3377024 4280433998
0.64020205 0.3048113 1.3346801 4280565584
0.6402756 0.30372766 1.3296585 4280565325
0.64033043 0.30264401 1.3246371 4280498760
0.63985699 0.30134264 1.3186163 4280564293
0.64140654 0.30091193 1.316594 4280563775
0.64140886 0.29982817 1.3115731 4283261030
0.64190751 0.29896206 1.3075519 4286024075
0.64290822 0.29831359 1.3045304 4286287500
0.64389759 0.29766512 1.301509 4287339416
0.64539653 0.29723433 1.2994874 4288128673
0.64741057 0.29702118 1.2984651 4288851880
0.64889634 0.29659036 1.2964435 4289048747
0.6519537 0.29681262 1.2974204 4289443506
0.65395838 0.29659951 1.2963983 4288719783
0.65542918 0.29616866 1.2943767 4287469716
0.65636045 0.29552007 1.2913558 4286087550
0.65781438 0.29508919 1.2893345 4284047967
0.59298217 0.31082642 1.351217 4284770663
0.59747988 0.31170905 1.3551937 4284311399
0.6005879 0.31193328 1.3561702 4283391073
0.60275942 0.31171858 1.3551465 4281878865
0.60539919 0.31172335 1.355123 4281089868
0.60756505 0.31150863 1.3540994 4280893776
0.61020297 0.31151336 1.3540759 4280697424
0.61331844 0.31173763 1.3550522 4280763476
0.61595821 0.3117424 1.3550286 4280763478
0.61811662 0.31152764 1.3540052 4280697944
0.6212377 0.3117519 1.3549815 4280697687
0.62387747 0.31175667 1.3549579 4280697686
0.62603021 0.31154191 1.3539344 4280763479
0.62866813 0.31154668 1.3539109 4280763224
0.63081527 0.31133193 1.3528875 4280631638
0.63345128 0.3113367 1.3528639 4280763224
0.63608724 0.31134143 1.3528404 4280631638
0.63822693 0.31112668 1.351817 4280565845
0.63986456 0.31069237 1.349794 4280565844
0.64049453 0.30981898 1.3457716 4280500307
0.6396035 0.30828699 1.33875 4280434257
0.64070165 0.30763307 1.3357275 4280434259
0.64027137 0.30632055 1.3297061 4280434512
0.6403262 0.30522749 1.3246845 4280434252
0.63985276 0.30391487 1.3186635 4280499784
0.6414023 0.30348042 1.3166411 4280367171
0.64140463 0.3023873 1.31162 4284248691
0.64190334 0.30151367 1.3075987 4286024586
0.64290404 0.3008596 1.3045771 4286616464
0.64389342 0.3002055 1.3015556 4287339671
0.64487165 0.29955137 1.2985343 4288062365
0.64636117 0.29911682 1.2965125 4288457122
0.64784324 0.29868221 1.2944908 4288851880
0.65037048 0.29868677 1.2944683 4289312431
0.65289778 0.29869133 1.2944458 4289311918
0.65436482 0.29825673 1.2924242 4289377198
0.65476036 0.29738292 1.2884037 4289246127
0.65620869 0.29694828 1.2863824 4289246127
0.59344238 0.31368002 1.3522655 4284639329
0.59794194 0.31457013 1.3562423 4284179294
0.60105181 0.31479624 1.3572187 4283588190
0.60322523 0.31457967 1.3561951 4282734429
0.60586685 0.31458443 1.3561715 4280893512
0.60803461 0.31436783 1.3551478 4280893775
0.61019862 0.31415126 1.3541243 4280828242
0.61331409 0.31437737 1.3551006 4280762963
0.61595386 0.31438214 1.3550771 4280829014
0.61859363 0.3143869 1.3550535 4280763478
0.6212334 0.31439164 1.3550299 4280631892
0.62387311 0.31439641 1.3550063 4280631638
0.62602592 0.31417978 1.3539828 4280697431
0.62866378 0.31418455 1.3539593 4280697688
0.63130164 0.31418931 1.3539357 4280631895
0.63344693 0.31397268 1.3529123 4280631895
0.63608295 0.31397742 1.3528887 4280500308
0.63871896 0.31398219 1.3528652 4280434516
0.64035851 0.31354412 1.3508421 4280500309
0.64099032 0.31266326 1.3468194 4280368723
0.64110512 0.31156096 1.3417971 4280500306
0.64271283 0.31112286 1.3397743 4280500053
0.64229006 0.30979908 1.3337525 4280434259
0.64184475 0.30847526 1.327731 4280302412
0.64137703 0.30715141 1.3217098 4280302152
0.64293218 0.30671319 1.3196874 4280301121
0.64294016 0.30561069 1.314666 4284445557
0.64292938 0.30450815 1.3096448 4285958534
0.64341682 0.30362704 1.3056235 4286748047
0.64492702 0.30318874 1.3036015 4287602586
0.64486748 0.30208611 1.2985808 4288325536
0.64583445 0.30142635 1.2955594 4288720294
0.64731461 0.30098802 1.2935376 4289312431
0.64984 0.30099258 1.2935151 4289378224
0.65130889 0.30055422 1.2914934 4289246127
0.65277034 0.30011585 1.2894719 4289180332
0.65422428 0.29967746 1.2874504 4289048746
0.59250909 0.31586769 1.3503135 4284704355
0.5960722 0.31631887 1.3522903 4284376157
0.59917456 0.31654686 1.3532668 4283916890
0.60181051 0.31655163 1.3532432 4283522655
0.60444653 0.31655636 1.3532197 4281089096
0.60708255 0.31656113 1.3531961 4280958284
0.60876709 0.3161194 1.3511726 4280827211
0.61139935 0.31612414 1.3511491 4280762190
0.61451107 0.31635213 1.3521255 4280828241
0.61714524 0.3163569 1.352102 4280828497
0.62026256 0.31658489 1.3530784 4280828754
0.62241346 0.3163664 1.352055 4280697170
0.62456065 0.31614789 1.3510314 4280565840
0.62670404 0.31592938 1.350008 4280828501
0.62884367 0.31571087 1.3489846 4280894038
0.63147217 0.31571561 1.3489611 4280762709
0.63410068 0.31572035 1.3489376 4280696915
0.63672918 0.31572509 1.3489141 4280565586
0.63885945 0.31550655 1.3478909 4280565842
0.64048588 0.31506473 1.3458678 4280500050
0.64110082 0.31417632 1.3418452 4280566099
0.64270854 0.31373447 1.3398222 4280500052
0.64279151 0.31262273 1.3348 4280499532
0.6428557 0.31151095 1.3297781 4280236361
0.64290124 0.31039914 1.3247561 4280367177
0.64446199 0.30995721 1.3227336 4280432448
0.64447564 0.30884534 1.3177122 4284182383
0.64447051 0.30773345 1.3126907 4286155911
0.6439296 0.30639821 1.3066698 4286681740
0.64544165 0.30595618 1.3046478 4287404950
0.64538407 0.3048442 1.2996269 4288259743
0.64583027 0.3039555 1.2956058 4288851623
0.64731044 0.30351341 1.293584 4289444017
0.64930952 0.30329463 1.2925619 4289509556
0.65024835 0.3026292 1.2895406 4289443763
0.65011567 0.30151707 1.2845204 4289509299
0.65156025 0.30107492 1.2824988 4289509297
0.5906468 0.31759772 1.346361 4284639327
0.59326971 0.31760243 1.3463377 4284507998
0.5963608 0.31783226 1.3473144 4284179549
0.59945571 0.3180621 1.348291 4283851105
0.60255432 0.31829193 1.3492677 4281154113
0.60518283 0.31829667 1.3492442 4280891713
0.60733557 0.31807631 1.3482206 4280760642
0.60948461 0.31785595 1.3471971 4280958280
0.61210936 0.31786066 1.3471737 4280893258
0.61521548 0.31809053 1.3481503 4280761672
0.61784214 0.31809527 1.3481268 4280761674
0.62046874 0.31810001 1.3481033 4280827724
0.62212139 0.31765449 1.3460799 4280696395
0.62425542 0.31743407 1.3450565 4280696652
0.62638575 0.31721365 1.3440331 4280565323
0.62851226 0.31699327 1.3430098 4280565323
0.63063502 0.31677282 1.3419865 4280762702
0.63325042 0.31677756 1.3419632 4280631631
0.63586581 0.31678227 1.3419398 4280500045
0.63798106 0.31656182 1.3409166 4280893771
0.63908863 0.31589106 1.3378937 4280762184
0.64119267 0.31567061 1.3368707 4280630600
0.64177579 0.31477466 1.3328482 4280499268
0.64234388 0.31387866 1.3288258 4280564296
0.64340645 0.31320783 1.3258034 4280366662
0.64548051 0.31298733 1.3247805 4280235067
0.64549786 0.31186607 1.3197588 4281484357
0.64549649 0.31074482 1.3147372 4286090118
0.64495939 0.30939832 1.3087161 4286747279
0.64595634 0.30872738 1.3056942 4287404950
0.64590061 0.30760601 1.3006731 4287996058
0.64634871 0.30670983 1.2966518 4288522402
0.64730632 0.3060388 1.2936304 4289048748
0.64825267 0.30536774 1.2906089 4289575092
0.64865953 0.30447146 1.286588 4289838264
0.58832014 0.31908575 1.3414081 4284704609
0.59093362 0.31909046 1.3413849 4284573281
0.59401536 0.31932214 1.3423617 4284310878
0.59710085 0.31955385 1.3433385 4283982688
0.60066205 0.32001251 1.3453153 4283062103
0.60328311 0.32001725 1.345292 4282865241
0.6054284 0.31979498 1.3442684 4282733659
0.60756987 0.31957272 1.3432449 4282602588
0.61018717 0.31957746 1.3432215 4282339416
0.61280441 0.31958216 1.3431982 4282273623
0.61542165 0.3195869 1.3431748 4282142295
0.61755383 0.31936461 1.3421514 4283655274
0.61968225 0.31914231 1.341128 4283655530
0.62180692 0.31892002 1.3401047 4283786861
0.62392777 0.31869772 1.3390814 4283392104
0.62555236 0.31824839 1.3370582 4283655532
0.62766391 0.3180261 1.3360349 4283261031
0.62977165 0.31780377 1.3350117 4283261030
0.63237393 0.31780845 1.3349885 4283129445
0.63647652 0.31849423 1.3379649 4282997858
0.63858241 0.31827191 1.3369417 4282866785
0.64068455 0.31804958 1.3359185 4282734943
0.6417715 0.31737316 1.3328959 4282669151
0.64233965 0.31646967 1.3288734 4282603358
0.64340222 0.31579319 1.3258508 4282339928
0.64547628 0.3155708 1.3248279 4282208339
0.64600688 0.31466725 1.3208058 4282207823
0.64600736 0.31353661 1.315784 4284970869
0.64547217 0.31217891 1.3097626 4286483850
0.64698988 0.31172937 1.3077403 4287404180
0.64693791 0.31059864 1.3027191 4288193439
0.64686716 0.30946788 1.2976979 4288522402
0.64730215 0.30856416 1.2936766 4288719781
0.64877486 0.30811456 1.2916548 4289048746
0.6481272 0.30675665 1.2856344 4289509299
0.58692241 0.32101274 1.3384554 4284573023
0.58953029 0.32101744 1.3384321 4283455057
0.59260643 0.32125098 1.339409 4280692266
0.59568626 0.32148454 1.3403859 4280824111
0.5987699 0.3217181 1.3413627 4283850848
0.60138339 0.32172281 1.3413393 4284048485
0.60399687 0.32172754 1.341316 4283983205
0.60613281 0.32150337 1.3402926 4284048999
0.60874444 0.32150808 1.3402692 4284114535
0.61135608 0.32151282 1.340246 4284180586
0.61396772 0.32151753 1.3402226 4283852135
0.61609423 0.32129335 1.3391992 4283983720
0.61821705 0.32106918 1.3381759 4283983464
0.62033606 0.32084501 1.3371525 4284049515
0.62196064 0.32039192 1.3351293 4283720550
0.62407029 0.32016772 1.334106 4283786856
0.6256817 0.31971464 1.3320829 4283655270
0.62827837 0.31971931 1.3320596 4283589734
0.63087499 0.31972399 1.3320364 4283523941
0.63347161 0.31972867 1.3320132 4283523939
0.6350643 0.31927556 1.3299903 4283326562
0.63765723 0.31928024 1.329967 4283326562
0.63873291 0.31859815 1.3269442 4283326564
0.64030498 0.31814498 1.3249215 4283326564
0.64186954 0.3176918 1.3228987 4283326563
0.643938 0.31746754 1.3218758 4283260511
0.64548939 0.31701434 1.3198532 4283259996
0.64600319 0.31610325 1.3158311 4283457374
0.64650196 0.31519213 1.3118091 4285233527
0.64802337 0.31473887 1.3097867 4286877836
0.64797515 0.31359878 1.3047652 4287798681
0.6473856 0.31222972 1.2987441 4288193437
0.64887142 0.3117764 1.2967221 4288653988
0.64824438 0.31040725 1.2907014 4288719781
0.64812309 0.30926701 1.2856805 4288917161
0.58719432 0.32247171 1.3334787 4279178512
0.58979279 0.32247639 1.3334554 4278784269
0.59286141 0.3227118 1.3344325 4281877056
0.59546179 0.3227165 1.3344092 4284377191
0.59853601 0.32295191 1.3353862 4284180326
0.60113829 0.32295662 1.3353629 4284311913
0.60374057 0.3229613 1.3353397 4284246120
0.60682225 0.32319674 1.3363166 4284377450
0.60942644 0.32320145 1.3362933 4284443244
0.61203057 0.32320613 1.3362701 4284311658
0.61414957 0.32298008 1.3352467 4284312428
0.61529094 0.32229251 1.3322233 4284115049
0.61788756 0.32229719 1.3322001 4284180842
0.61901206 0.32160959 1.3291768 4284114793
0.62111044 0.32138351 1.3281536 4283983721
0.62320513 0.3211574 1.3271304 4283983719
0.62529606 0.32093132 1.3261074 4283852390
0.62788141 0.32093596 1.3260843 4283720547
0.62996674 0.32070985 1.3250612 4283655009
0.63255024 0.3207145 1.3250381 4283720546
0.63462991 0.32048839 1.3240151 4283589216
0.63670582 0.32026225 1.3229921 4283589218
0.63827038 0.31980532 1.3209693 4283457376
0.64033693 0.31957918 1.3199464 4283457376
0.64239973 0.31935301 1.3189236 4283523168
0.64394557 0.31889606 1.316901 4283456861
0.64496881 0.31820828 1.3138785 4283391323
0.64598078 0.31752047 1.3108562 4283456858
0.64801919 0.31729427 1.3098335 4285233011
0.64849168 0.31637561 1.3058116 4287272337
0.64790404 0.31499529 1.2997904 4288061851
0.64939177 0.31453821 1.2977682 4288588195
0.64876658 0.31315783 1.2917473 4288719779
0.64864713 0.31200823 1.2867262 4288851367
0.59474099 0.32369331 1.3274322 4284246119
0.59780401 0.32393059 1.3284092 4284246120
0.60134834 0.32440048 1.3303865 4284377451
0.60490012 0.32487041 1.3323637 4284245865
0.6074968 0.32487509 1.3323405 4284245865
0.61009341 0.32487977 1.3323172 4284246379
0.61123478 0.32418656 1.3292937 4284246635
0.61285186 0.323726 1.3272704 4284115562
0.61495024 0.32349801 1.3262471 4284246379
0.6165542 0.32303742 1.3242239 4284180585
0.61864322 0.32280943 1.3232008 4284246378
0.62072855 0.32258144 1.3221776 4284114792
0.62281007 0.32235345 1.3211546 4284048998
0.62488788 0.32212543 1.3201317 4283983204
0.62696195 0.32189742 1.3191086 4284115045
0.62953418 0.32190207 1.3190857 4283917667
0.63160264 0.32167405 1.3180628 4283852132
0.63366729 0.321446 1.3170398 4283786082
0.63623577 0.32145065 1.3170168 4283786083
0.63829488 0.3212226 1.315994 4283720290
0.64035016 0.32099456 1.3149712 4283917153
0.6418885 0.32053384 1.3129486 4283785567
0.64341933 0.3200731 1.310926 4283917153
0.64494264 0.31961235 1.3089035 4283719772
0.64697731 0.31938425 1.3078808 4283390550
0.64848751 0.31892347 1.3058584 4284245857
0.64842248 0.31776461 1.3008367 4286614405
0.64991206 0.31730378 1.2988145 4287996569
0.64981514 0.31614485 1.2937931 4288391327
0.64969945 0.3149859 1.2887719 4288654499
0.64903498 0.31359419 1.282751 4288982951
0.60345751 0.32676354 1.3294107 4284509293
0.60604846 0.32676822 1.3293875 4284509037
0.60767305 0.3263039 1.3273641 4284509037
0.60880506 0.32560506 1.3243405 4284443244
0.62338901 0.32399598 1.3171787 4284311911
0.62545747 0.32376608 1.3161558 4284443497
0.62752211 0.32353619 1.3151329 4284246118
0.62958306 0.32330626 1.3141099 4284114532
0.63214594 0.32331091 1.314087 4284114532
0.63420123 0.32308099 1.3130642 4284180325
0.63625282 0.32285106 1.3120414 4284180325
0.63881195 0.32285568 1.3120185 4284443497
0.64034462 0.32239118 1.3099958 4284509288
0.64238495 0.32216123 1.3089731 4284772460
0.64442152 0.32193127 1.3079504 4284772460
0.64645427 0.32170132 1.3069278 4285035886
0.64744192 0.32100222 1.3039055 4285562230
0.64789575 0.32006854 1.2998835 4285956986
0.64938343 0.31960398 1.2978612 4286549123
0.64981097 0.31867024 1.2938393 4287470225
0.64969534 0.3175019 1.288818 4288259228
0.64903086 0.31609893 1.282797 4288719779
0.60297376 0.32911819 1.328458 4284837744
0.60556293 0.32912284 1.3284348 4284706158
0.60766882 0.32889116 1.3274115 4284508780
0.60880083 0.32818669 1.3243878 4284574829
0.63573974 0.32399625 1.3060657 4284903792
0.63777441 0.32376441 1.305043 4284969582
0.63980532 0.32353258 1.3040203 4285364851
0.64234948 0.32353717 1.3039976 4285496183
0.64437479 0.32330534 1.3029749 4285956988
0.64639634 0.32307348 1.3019524 4286220160
0.64736897 0.32236871 1.2989302 4286680709
0.64937931 0.32213685 1.2979076 4286614916
0.65033317 0.32143205 1.2948855 4286614916
0.6507476 0.32049081 1.2908638 4287075209
0.65008688 0.3190766 1.2848425 4287996311
0.64274722 0.32394564 1.2949996 4286680711
0.64527452 0.3239502 1.2949771 4286943883
0.64780176 0.32395476 1.2949545 4287075468
0.64980268 0.32372099 1.2939321 4287141260
0.65021527 0.32277223 1.2899101 4287074954
0.65061289 0.32182345 1.2858883 4287009416
