# .PCD v0.7 - Point Cloud Data file format
VERSION 0.7
FIELDS x y z rgba
SIZE 4 4 4 4
TYPE F F F U
COUNT 1 1 1 1
WIDTH 462
HEIGHT 1
VIEWPOINT 0 0 0 1 0 0 0
POINTS 462
DATA ascii
-0.45240664 0.18985321 1.297361 4288455588
-0.45105249 0.19041519 1.30136 4288521125
-0.44910523 0.19069847 1.3033482 4288521125
-0.45404461 0.19194286 1.2944133 4288257951
-0.45328921 0.19279478 1.3004235 4288060572
-0.45192945 0.19336428 1.3044225 4287928731
-0.44910938 0.1932276 1.3033946 4287402388
-0.44744179 0.19365589 1.306388 4287270802
-0.46308711 0.19515699 1.2995543 4287534228
-0.45937169 0.19458915 1.2955098 4287928986
-0.45537472 0.19387819 1.2904599 4287073677
-0.45375404 0.19431202 1.2934539 4286942091
-0.45300055 0.19517519 1.2994642 4287402642
-0.4513517 0.19560906 1.302458 4287533973
-0.44853538 0.19547051 1.3014301 4287731353
-0.44572279 0.19533195 1.3004022 4287205009
-0.4434846 0.19547962 1.3013849 4286612872
-0.44209298 0.19605666 1.3053839 4286678665
-0.44012323 0.19634749 1.307372 4286415493
-0.46369186 0.19796856 1.3016118 4284573541
-0.46027115 0.1975382 1.2985725 4286613126
-0.45597196 0.19667289 1.2925169 4286810505
-0.45346346 0.19667742 1.2924945 4287073677
-0.4521262 0.19726187 1.2964941 4287797400
-0.45077398 0.19784634 1.3004935 4288060573
-0.44825044 0.1978509 1.3004709 4287731351
-0.44515255 0.19756547 1.2984375 4287205008
-0.44263279 0.19757001 1.2984149 4286349700
-0.44096336 0.19800955 1.3014088 4285757563
-0.43900111 0.19830412 1.3033969 4285757563
-0.43759075 0.19888869 1.3073958 4285823356
-0.47604424 0.1991452 1.2927423 4290363327
-0.47322601 0.19900289 1.2917142 4290165946
-0.47195065 0.19959474 1.2957144 4285823349
-0.47035435 0.20003977 1.2987089 4284441697
-0.46813866 0.20019116 1.2996919 4284704868
-0.46531481 0.20004886 1.2986639 4285231212
-0.46159378 0.19946603 1.294619 4286415232
-0.45818615 0.19903003 1.2915797 4287138955
-0.45419666 0.1983003 1.2865295 4287270541
-0.45169938 0.1983048 1.2865072 4287402384
-0.45066622 0.19904359 1.2915126 4287994779
-0.44990528 0.19992927 1.2975233 4287928986
-0.44767645 0.20008068 1.2985063 4286810505
-0.44458228 0.19979149 1.2964728 4285955196
-0.44178095 0.19964916 1.2954448 4285626231
-0.4398337 0.19994743 1.2974333 4285494390
-0.43759739 0.20009886 1.2984163 4284770668
-0.43619642 0.20069093 1.3024154 4284375910
-0.43533608 0.20157678 1.3084251 4284704618
-0.48043472 0.20134728 1.2908216 4291087046
-0.47824341 0.20150049 1.2918049 4290889667
-0.47573677 0.20150501 1.2917825 4290231480
-0.47230104 0.20106342 1.288743 4290231480
-0.47010782 0.20121664 1.2897264 4287731346
-0.46852279 0.20166728 1.292721 4285889142
-0.46601427 0.20167179 1.2926986 4285823349
-0.46350574 0.20167632 1.2926762 4285494384
-0.46039659 0.20138341 1.2906425 4285823349
-0.45669803 0.20079304 1.2865977 4285823349
-0.45331103 0.20035139 1.2835586 4286349694
-0.45081937 0.20035587 1.2835363 4286284159
-0.44979185 0.20110403 1.2885419 4287665556
-0.4493275 0.20214967 1.2955583 4286678918
-0.44710243 0.20230295 1.2965415 4286152575
-0.44429922 0.20215875 1.2955134 4285560438
-0.44149974 0.20201454 1.2944854 4284836715
-0.43955436 0.20231657 1.296474 4284375908
-0.43703836 0.20232111 1.2964516 4284112737
-0.43620056 0.20321818 1.3024617 4284507496
-0.43506241 0.20396653 1.3074663 4285033583
-0.4336296 0.20456615 1.3114653 4285822586
-0.48294359 0.20384751 1.2908899 4291613133
-0.47980818 0.20355089 1.2888559 4290889410
-0.47699371 0.20340484 1.2878277 4290231480
-0.47418299 0.20325877 1.2867997 4289836722
-0.47137603 0.20311271 1.2857716 4289376169
-0.46888062 0.20311721 1.2857493 4285625968
-0.4673031 0.20357345 1.2887442 4287007621
-0.46571431 0.20402972 1.291739 4285757556
-0.46411428 0.20448601 1.2947335 4283849559
-0.461602 0.20449054 1.2947111 4284375903
-0.45819438 0.20404328 1.2916718 4286678658
-0.45420483 0.20329481 1.2866212 4287468433
-0.45111817 0.2029981 1.2845876 4287205261
-0.44950312 0.20345442 1.2875822 4287139468
-0.44845876 0.20421198 1.2925878 4286678918
-0.4465284 0.20451774 1.2945764 4285165680
-0.44401613 0.20452227 1.294554 4284441957
-0.44150385 0.2045268 1.2945316 4284244322
-0.43927506 0.20468195 1.2955146 4284375910
-0.43760565 0.20513837 1.2985086 4284375910
-0.43760324 0.20649858 1.3075354 4284507496
-0.43617791 0.20710568 1.3115346 4284573032
-0.43308187 0.206809 1.3095011 4284901997
-0.43026739 0.20666294 1.3084729 4285033583
-0.48326492 0.2065047 1.2919416 4291414982
-0.47886631 0.20559458 1.2858843 4290362294
-0.47574398 0.20529419 1.2838504 4289901743
-0.47262919 0.2049938 1.2818165 4289639341
-0.47014129 0.20499828 1.2817943 4289310376
-0.46857688 0.20546013 1.2847893 4286744449
-0.46730718 0.20607446 1.2887901 4284704866
-0.46602249 0.20668881 1.2927907 4285362796
-0.46502501 0.20745565 1.2977968 4284310110
-0.45939231 0.2071598 1.2957405 4287797139
-0.4548021 0.20609702 1.2886784 4288060569
-0.45112225 0.20549162 1.2846334 4287534226
-0.4492144 0.20580107 1.2866224 4286678917
-0.44846287 0.20672049 1.2926338 4285626230
-0.44624344 0.2068775 1.293617 4285033837
-0.44402024 0.20703451 1.2946001 4285099375
-0.44122264 0.20688656 1.2935721 4285230961
-0.43956262 0.20734857 1.2965662 4284968047
-0.43845454 0.20811562 1.3015715 4284968047
-0.4381668 0.20934021 1.309593 4284902254
-0.43308601 0.20934938 1.3095477 4284375910
-0.42972338 0.20889641 1.3065085 4284178531
-0.42773303 0.20920603 1.3084967 4284178274
-0.48422065 0.20947427 1.2950053 4290691514
-0.47887039 0.20808996 1.28593 4290165170
-0.47543463 0.20763151 1.2828902 4289902513
-0.46328986 0.2078083 1.2837847 4284441694
-0.45599255 0.20921542 1.292747 4288455069
-0.45201048 0.20844819 1.2876962 4287731347
-0.44951132 0.20845269 1.2876738 4287270541
-0.44846699 0.20922899 1.2926798 4286415488
-0.44566938 0.20907915 1.2916517 4284244063
-0.44316274 0.20908368 1.2916293 4282862411
-0.4406561 0.20908819 1.2916069 4283059534
-0.43871638 0.20940146 1.2935957 4284573030
-0.43733233 0.21002349 1.2975955 4284441957
-0.43705213 0.21126308 1.3056175 4284310116
-0.4350749 0.2115764 1.3076059 4283915359
-0.43115845 0.21080905 1.3025557 4283915359
-0.428083 0.21050483 1.3005221 4284244324
-0.42746499 0.21159014 1.3075379 4284375910
-0.49047023 0.21134822 1.2910949 4290690488
-0.48892835 0.21182127 1.2940904 4291019966
-0.47950515 0.21089773 1.2879877 4290625721
-0.47575217 0.21027745 1.2839417 4290955200
-0.45959345 0.20967957 1.2797852 4289244585
-0.45348814 0.21172845 1.2927706 4288191897
-0.45039394 0.21142051 1.2907368 4287862678
-0.44905302 0.21204996 1.2947372 4280888620
-0.44596258 0.21174201 1.2927034 4280296227
-0.44287965 0.21143407 1.2906697 4284111709
-0.44037488 0.21143858 1.2906473 4282203712
-0.43815356 0.21159935 1.2916305 4282467397
-0.4362101 0.21191637 1.2936194 4283980893
-0.43481857 0.21254592 1.2976192 4284112480
-0.43230066 0.21255046 1.2975967 4284046945
-0.42923084 0.21224248 1.2955631 4284375910
-0.42671672 0.21224701 1.2955407 4284310117
-0.42665249 0.21365796 1.3045678 4284441701
-0.49168026 0.21321626 1.2871392 4291282625
-0.48918298 0.21322078 1.2871168 4292072398
-0.48829052 0.21401554 1.2921244 4292006861
-0.47170666 0.21198322 1.2789358 4290034098
-0.45989975 0.21232179 1.2808365 4289705136
-0.45981643 0.21359101 1.2888607 4288323229
-0.45910621 0.21454409 1.294873 4289770675
-0.45378697 0.21439505 1.2938224 4290889156
-0.4506909 0.21408337 1.2917885 4286020474
-0.44963908 0.21487844 1.2967947 4279178002
-0.44625577 0.21440864 1.2937551 4283125582
-0.44345817 0.21425505 1.292727 4285164653
-0.44066432 0.21410146 1.2916989 4284243295
-0.4378742 0.21394786 1.2906709 4283124814
-0.43565103 0.21411049 1.2916541 4284901739
-0.43314439 0.21411502 1.2916317 4284375653
-0.43063775 0.21411954 1.2916094 4284507496
-0.42840707 0.2142822 1.2925925 4284310117
-0.42617264 0.21444486 1.2935756 4284244324
-0.42475113 0.21508196 1.2975755 4283849820
-0.42358494 0.21587723 1.3025806 4284836715
-0.42159462 0.21619809 1.304569 4286678919
-0.41959679 0.21651897 1.3065574 4286678919
-0.41653258 0.21620722 1.3045238 4286875785
-0.41347587 0.21589547 1.3024904 4287270543
-0.4907102 0.21523376 1.2841668 4292730071
-0.48821855 0.21523824 1.2841445 4292861657
-0.48765272 0.21620232 1.2901584 4293256928
-0.46953818 0.2146299 1.279965 4289639854
-0.45960161 0.21464783 1.2798762 4290231226
-0.46042123 0.21641195 1.2909182 4286283646
-0.45290694 0.21642551 1.2908511 4289902774
-0.4501093 0.21627004 1.2898229 4279112722
-0.44935223 0.21723446 1.2958351 4279309845
-0.44625992 0.21691902 1.2938012 4284638821
-0.44317508 0.21660356 1.2917674 4279506710
-0.44038308 0.2164481 1.2907392 4278716938
-0.43731138 0.21613261 1.2887055 4283651158
-0.43537354 0.21645713 1.2906945 4284374881
-0.43286878 0.21646164 1.2906721 4285164911
-0.43064186 0.21662617 1.2916553 4285230960
-0.42841119 0.21679071 1.2926385 4285230960
-0.42590266 0.21679524 1.2926161 4284902252
-0.42366636 0.21695977 1.2935994 4285297266
-0.42196703 0.21744436 1.2965935 4286349954
-0.4205249 0.218089 1.3005933 4286678919
-0.41853455 0.21841361 1.3025818 4286744712
-0.41600728 0.21841817 1.3025593 4286875785
-0.41321719 0.21826269 1.3015312 4286546820
-0.48974013 0.21723999 1.2811942 4292137934
-0.48757696 0.21740627 1.282178 4293782759
-0.48605198 0.21789618 1.285174 4294374896
-0.48674938 0.21951875 1.2952121 4294506739
-0.46705812 0.21711853 1.2799884 4289508014
-0.46518591 0.21744667 1.281978 4289442221
-0.46330619 0.21777482 1.2839676 4284705127
-0.46111679 0.21794115 1.2849512 4286020989
-0.45892361 0.21810749 1.2859348 4286086782
-0.45612973 0.21795015 1.2849067 4285297266
-0.45452601 0.21844019 1.2879019 4284770920
-0.45025852 0.2174736 1.2818447 4284770920
-0.44806349 0.21763994 1.2828282 4278586376
-0.44790149 0.21893929 1.2908523 4280494373
-0.44568583 0.21910568 1.2918357 4282731335
-0.4434664 0.21927206 1.292819 4279046414
-0.44038719 0.21895285 1.2907852 4279703832
-0.43759894 0.21879549 1.289757 4283914584
-0.43509606 0.21880001 1.2897347 4280032797
-0.43287289 0.21896641 1.2907181 4281217071
-0.43064597 0.21913281 1.2917013 4284375392
-0.42786336 0.21897544 1.2906733 4284967786
-0.42481038 0.21865618 1.2886397 4286349953
-0.41891816 0.2196411 1.2946061 4286481540
-0.4174723 0.22029325 1.2986059 4286744199
-0.49570167 0.22020803 1.2843027 4288387736
-0.49288341 0.22004886 1.2832743 4288453529
-0.49006894 0.21988967 1.282246 4291282626
-0.48822674 0.22022152 1.284236 4293848552
-0.48605606 0.22038968 1.2852198 4293322208
-0.48579621 0.22153996 1.29224 4293716966
-0.46763778 0.2212442 1.2900714 4287863191
-0.46543899 0.22141242 1.2910548 4283718234
-0.46232978 0.22108951 1.2890207 4284639336
-0.45862734 0.22043917 1.2849747 4284639336
-0.45553687 0.22011621 1.2829406 4286349954
-0.45186073 0.21946582 1.2788949 4283389269
-0.44849426 0.21897912 1.2758552 4283323474
-0.44631046 0.21914731 1.2768389 4283586646
-0.4455778 0.22013418 1.2828517 4280494118
-0.44366622 0.22046615 1.2848411 4280888620
-0.44203439 0.22096187 1.2878361 4278717451
-0.4392499 0.22080263 1.286808 4280098333
-0.43646914 0.22064339 1.28578 4283453776
-0.43397376 0.22064789 1.2857577 4279506453
-0.43203783 0.2209799 1.2877468 4280822313
-0.42953867 0.2209844 1.2877245 4283783000
-0.42593563 0.22033387 1.2836795 4286217598
-0.49621528 0.22170195 1.2783334 4287400586
-0.49504879 0.22236858 1.282336 4288585116
-0.4928875 0.22253861 1.28332 4285229673
-0.49072245 0.22270864 1.2843039 4284703585
-0.48919937 0.2232098 1.2873001 4290493110
-0.48670208 0.2232143 1.2872777 4292137936
-0.48548123 0.22388104 1.2912799 4292467413
-0.46891338 0.22308025 1.2861155 4287994777
-0.46641797 0.22308476 1.2860932 4286744710
-0.4645308 0.22342043 1.288083 4285297266
-0.46172941 0.22325934 1.2870547 4284112992
-0.45833108 0.22276707 1.2840146 4283455063
-0.45494401 0.2222748 1.2809745 4284375908
-0.45127156 0.22161688 1.2769287 4283126097
-0.44820359 0.22129016 1.2748947 4282928718
-0.44514313 0.2209634 1.2728609 4282994509
-0.44296309 0.22113347 1.2738447 4282862923
-0.4407793 0.22130354 1.2748284 4283060302
-0.43887898 0.22163923 1.2768179 4281941564
-0.43697116 0.22197494 1.2788074 4280230433
-0.43448889 0.22197942 1.2787852 4282532931
-0.43172503 0.22181827 1.2777573 4281677622
-0.42952436 0.22198838 1.2787409 4285822581
-0.42704207 0.22199285 1.2787187 4285559666
-0.42373186 0.22150043 1.2756793 4285823095
-0.42070702 0.22117361 1.2736459 4286481026
-0.41632852 0.22001858 1.2665839 4286612613
-0.49721041 0.22468457 1.2813977 4289769391
-0.49439591 0.22452164 1.2803693 4290624700
-0.49289158 0.22502837 1.2833657 4287795602
-0.49072656 0.22520028 1.2843497 4283519569
-0.4895263 0.22587448 1.288352 4283585106
-0.48702717 0.22587898 1.2883297 4287401098
-0.48548535 0.22638579 1.2913258 4288716958
-0.48520118 0.22756235 1.2983463 4288191127
-0.47296149 0.22640838 1.2912139 4289178792
-0.46799389 0.22507328 1.2831433 4289047465
-0.46519813 0.22491032 1.282115 4289705395
-0.46301436 0.22508226 1.2830987 4290494913
-0.46082681 0.22525421 1.2840825 4287073422
-0.45773447 0.22492377 1.2820483 4286415493
-0.4546496 0.22459333 1.2800142 4285625977
-0.45157224 0.22426286 1.2779801 4283586394
-0.44820765 0.22376491 1.2749401 4283060304
-0.44485432 0.22326693 1.2719003 4282665546
-0.44180322 0.22293642 1.2698665 4282862924
-0.43962693 0.22310835 1.2708503 4283126095
-0.4377341 0.22344778 1.27284 4283389267
-0.43583381 0.22378723 1.2748296 4283126095
-0.43335903 0.22379169 1.2748075 4285493873
-0.43032104 0.22346115 1.2727737 4285493873
-0.42785004 0.22346561 1.2727517 4284836200
-0.42593473 0.22380508 1.2747412 4284441442
-0.42290798 0.22347453 1.2727076 4284836200
-0.41988873 0.22314397 1.270674 4285954681
-0.41578808 0.22214331 1.2646177 4285954681
-0.49787521 0.22750914 1.2834558 4286743683
-0.49341455 0.22649789 1.2773961 4285954167
-0.4896296 0.22582519 1.2733489 4284967529
-0.48813277 0.22633754 1.2763455 4286546304
-0.48791614 0.22752711 1.2833669 4287993750
-0.48606834 0.22787021 1.285357 4286677634
-0.48580855 0.22905985 1.2923779 4285822068
-0.48488808 0.22991093 1.2973863 4286874756
-0.47765163 0.23009387 1.2983249 4286744194
-0.47327533 0.22908247 1.292266 4286744194
-0.46830583 0.22773236 1.2841949 4286546818
-0.46489623 0.22722887 1.2811545 4286218366
-0.46210611 0.22706401 1.2801263 4287928986
-0.45992419 0.22723784 1.2811102 4289639604
-0.45773855 0.22741166 1.2820939 4287139216
-0.45525065 0.22741614 1.2820717 4284639082
-0.45216954 0.22708194 1.2800375 4282731085
-0.44880119 0.22657837 1.2769974 4282731085
-0.44485837 0.22573607 1.2719456 4282796878
-0.44151628 0.22523245 1.2689058 4282994511
-0.43818542 0.22472881 1.265866 4283060303
-0.43630198 0.22507197 1.2678559 4283652183
-0.43441105 0.22541514 1.2698456 4284836200
-0.43166217 0.22525023 1.2688178 4285165165
-0.42807221 0.22457717 1.2647724 4285625716
-0.42533645 0.22441222 1.2637446 4285428337
-0.42343804 0.22475541 1.2657343 4284704614
-0.42153209 0.22509861 1.2677239 4285362800
-0.41907045 0.22510305 1.267702 4285955194
-0.41579211 0.22459932 1.2646627 4285955194
-0.412525 0.22409557 1.2616235 4286152573
-0.49243316 0.2284629 1.2744226 4288389535
-0.48501447 0.22847629 1.2743564 4286284157
-0.48414651 0.22933665 1.2793654 4280954668
-0.48421711 0.23071058 1.2873929 4283190861
-0.48330602 0.231571 1.2924016 4287664528
-0.48143011 0.2319179 1.2943915 4288322458
-0.47954667 0.23226482 1.2963814 4286743683
-0.47734416 0.23244055 1.2973651 4287270541
-0.47389892 0.23193149 1.2943242 4287007369
-0.46923351 0.2307376 1.287259 4287007369
-0.46551228 0.23005728 1.2832123 4286810503
-0.46150196 0.22920573 1.2781597 4287007882
-0.45932379 0.22938141 1.2791436 4285560438
-0.45714191 0.22955711 1.2801275 4282533960
-0.45495623 0.22973281 1.2811114 4281941825
-0.45217362 0.22956607 1.2800831 4282073155
-0.44851053 0.22888565 1.276037 4282402374
-0.44486243 0.2282052 1.2719909 4283126097
-0.4415203 0.22769596 1.2689511 4283455062
-0.43876767 0.22752917 1.2679231 4283455062
-0.4368805 0.22787608 1.269913 4286020989
-0.43470046 0.22805177 1.2708968 4287073164
-0.43081576 0.2272 1.2658453 4286349439
-0.4272314 0.22651944 1.2617998 4286546818
-0.42394179 0.2260101 1.2587605 4286218366
-0.42205274 0.22635701 1.2607502 4285889401
-0.42070818 0.22704647 1.2647517 4286086780
-0.41852626 0.22722216 1.2657355 4285955194
-0.41606838 0.2272266 1.2657136 4285823608
-0.41279939 0.22671722 1.2626743 4285428850
-0.49952179 0.23074938 1.2735279 4288783525
-0.49837974 0.23144597 1.2775313 4287336334
-0.49623156 0.23162347 1.2785155 4287007882
-0.49112329 0.23024364 1.2704427 4287139468
-0.4837271 0.23025697 1.2703767 4285428850
-0.48254564 0.23095363 1.2743796 4282138687
-0.48230654 0.23216949 1.2814013 4287598992
-0.48077223 0.23269315 1.2843977 4288388252
-0.47954205 0.2333899 1.2884003 4287269516
-0.47829685 0.23408668 1.2924027 4281282610
-0.46892974 0.23306178 1.2862986 4287599506
-0.4649044 0.23220088 1.2812458 4287402640
-0.45968133 0.23064761 1.2721686 4287205261
-0.45660773 0.2303059 1.2701343 4287139468
-0.45624489 0.23152198 1.2771548 4284770922
-0.45376635 0.23152645 1.2771327 4282928718
-0.45128784 0.23153092 1.2771106 4283191892
-0.44821984 0.23118918 1.2750764 4283126097
-0.44428074 0.23032813 1.2700242 4283652441
-0.44152436 0.23015946 1.2689962 4285297266
-0.43934995 0.23033702 1.2699802 4286809992
-0.43745902 0.23068769 1.27197 4286744199
-0.43470451 0.23051903 1.2709421 4286481025
-0.43081978 0.22965787 1.2658904 4286349439
-0.42808026 0.22948919 1.2648625 4286481025
-0.42562425 0.22949362 1.2648406 4285888888
-0.42289037 0.22932492 1.2638128 4285560179
-0.42016023 0.22915621 1.262785 4285757815
-0.41770795 0.22916064 1.262763 4285955194
-0.41471118 0.22881877 1.2607296 4286152060
-0.41226268 0.22882318 1.2607076 4285954683
-0.49472916 0.23200049 1.2665064 4287138700
-0.49326235 0.23252966 1.2695036 4289507760
-0.49014184 0.23218428 1.2674688 4290889669
-0.48735547 0.23201379 1.2664405 4291942357
-0.48554704 0.23236807 1.2684312 4289968566
-0.48469973 0.23324713 1.2734408 4288981671
-0.4828707 0.23360145 1.2754313 4286875783
-0.48071504 0.23378085 1.2764155 4284967272
-0.47919011 0.23431011 1.2794122 4284638053
-0.47923076 0.23571409 1.2874399 4283782744
-0.47798747 0.23641837 1.2914425 4285230190
-0.4683181 0.23520726 1.2843322 4288125850
-0.4636845 0.23398706 1.2772667 4288126363
-0.45564821 0.23365055 1.2751881 4287007882
-0.45257646 0.23330508 1.2731538 4284836714
-0.45099527 0.23383445 1.27615 4285297266
-0.44822389 0.23366395 1.2751218 4285428852
-0.44428477 0.23279351 1.2700695 4285889403
-0.44123739 0.232448 1.2680354 4286086269
-0.43906486 0.23262742 1.2690194 4285954683
-0.43688858 0.23280685 1.2700033 4286086269
-0.43385246 0.23246132 1.2679694 4285888888
-0.43195778 0.23281574 1.2699593 4286217853
-0.42949238 0.2328202 1.2699373 4286349439
-0.42730674 0.23299964 1.2709212 4285954682
-0.42372799 0.23230407 1.2668755 4285888890
-0.41961226 0.23125845 1.2608182 4285823097
-0.41688961 0.23108786 1.2597904 4285888888
-0.41362622 0.23056722 1.2567511 4286283647
-0.49161455 0.23410924 1.2645167 4287007882
-0.49080285 0.23499762 1.2695267 4287534225
-0.48931921 0.23553243 1.2725239 4288192156
-0.48717481 0.23571369 1.2735082 4287928982
-0.48534951 0.23607174 1.2754989 4288060568
-0.48287475 0.23607621 1.2754767 4287797139
-0.48008084 0.23590386 1.2744483 4286941576
-0.47824246 0.23626193 1.2764388 4286941062
-0.47828877 0.23768091 1.2844669 4288059289
-0.44981286 0.23560369 1.2721709 4286942089
-0.44734371 0.23560815 1.2721488 4285034092
-0.44370309 0.23490518 1.2681025 4284770407
-0.44095042 0.23473278 1.2670745 4285494130
-0.4379124 0.23438349 1.2650404 4286415232
-0.43402016 0.23350359 1.2599883 4285954681
-0.43128815 0.23333114 1.2589605 4286612611
-0.43111134 0.23475052 1.2669866 4286744197
-0.4303413 0.2358162 1.2730005 4286678405
-0.41989228 0.23388384 1.2618691 4286085499
-0.41607127 0.23300382 1.2568176 4283059021
-0.49080691 0.23746112 1.269572 4285099885
-0.48567644 0.23872517 1.2765505 4287665556
-0.4825578 0.23837228 1.2745157 4287336334
-0.44498977 0.23664749 1.2641451 4284770920
-0.44312137 0.23700936 1.2661355 4285559923
-0.44066346 0.2370138 1.2661135 4287204748
-0.4373382 0.23648202 1.2630733 4286941576
-0.42234668 0.23632981 1.2619358 4284967017
-0.41879228 0.2356192 1.2578901 4284242781
-0.44253963 0.23910604 1.2641683 4286809990
-0.44037649 0.23929107 1.2651525 4287467920
-0.43763134 0.2391149 1.2641244 4287664785
-0.42040554 0.23751579 1.2549387 4290625216
