# .PCD v0.7 - Point Cloud Data file format
VERSION 0.7
FIELDS x y z rgba
SIZE 4 4 4 4
TYPE F F F U
COUNT 1 1 1 1
WIDTH 331
HEIGHT 1
VIEWPOINT 0 0 0 1 0 0 0
POINTS 331
DATA ascii
-0.22721304 0.28644887 1.1140742 4278651140
-0.22489524 0.28620818 1.1130488 4278980105
-0.22300456 0.28670132 1.1150413 4278651396
-0.22124562 0.28743914 1.1180397 4278782981
-0.2290979 0.28812677 1.1121215 4278651142
-0.22678198 0.28788418 1.111096 4278848519
-0.22446981 0.28764161 1.1100706 4278914312
-0.22230251 0.28764552 1.1100513 4278716933
-0.22055295 0.28838891 1.1130499 4278848774
-0.21851741 0.28863934 1.1140363 4278848773
-0.22880796 0.28980106 1.1101491 4278651142
-0.22664066 0.289805 1.1101297 4278716933
-0.22418736 0.28931215 1.1080983 4278914312
-0.2220238 0.28931606 1.108079 4278848774
-0.22013876 0.28981671 1.1100717 4278782981
-0.2183836 0.29056576 1.1130702 4278914312
-0.22591981 0.29072109 1.105139 4278651141
-0.22361888 0.29047474 1.1041137 4278914312
-0.22160396 0.29072887 1.1051005 4278848518
-0.22014232 0.29198399 1.1101115 4278782981
-0.21838716 0.29273868 1.1131102 4278848519
-0.22132523 0.29238254 1.1031278 4278914567
-0.2197281 0.29339492 1.1071329 4278782981
-0.21811596 0.29440734 1.1111379 4278914055
-0.21945311 0.29504859 1.1051604 4278782981
-0.21798213 0.29632249 1.1101716 4278979848
-0.21973518 0.29771826 1.1072123 4278782983
-0.21826045 0.29900151 1.1122236 4279045640
-0.21757706 0.29988381 1.1072326 4279243275
-0.21677056 0.30246526 1.1172748 4279440396
-0.18531299 0.29529801 1.0888555 4280231455
-0.18318506 0.29530185 1.0888364 4279968029
-0.18116452 0.29556349 1.0898234 4279968029
-0.17914024 0.29582515 1.0908102 4280033822
-0.21918519 0.30100307 1.1032667 4279507218
-0.21771799 0.3023051 1.1082785 4279375117
-0.2089486 0.30647889 1.1242796 4284309331
-0.20675506 0.30648285 1.1242601 4284375125
-0.18509418 0.29690659 1.0868826 4279836184
-0.18253291 0.2958717 1.0828398 4279770391
-0.18041623 0.29587552 1.0828209 4279704598
-0.17819402 0.29561967 1.0817961 4279836186
-0.17628652 0.29614285 1.083789 4279836186
-0.17467684 0.29744512 1.0887995 4279836186
-0.219328 0.30341876 1.1043124 4279507218
-0.21758415 0.30420715 1.107312 4280954664
-0.21637113 0.30604157 1.1143361 4282796609
-0.21473093 0.30709153 1.1183414 4283322696
-0.21268041 0.30735695 1.1193281 4283520073
-0.20831206 0.30736485 1.1192892 4284243796
-0.2061279 0.30736879 1.1192696 4284441175
-0.20406801 0.30763426 1.1202562 4284375384
-0.20188195 0.3076382 1.1202368 4284507741
-0.18520881 0.2992923 1.0879276 4279704083
-0.18231782 0.29746529 1.0808667 4279440656
-0.18009749 0.29720753 1.0798419 4279374863
-0.17788091 0.29694977 1.078817 4279573012
-0.17608269 0.29773828 1.081816 4279836184
-0.17457855 0.29931149 1.0878326 4279836184
-0.21703808 0.30531529 1.1033266 4282533439
-0.21556154 0.30663607 1.1083385 4282993731
-0.21379896 0.30743012 1.1113379 4283454282
-0.21011011 0.30875489 1.1163301 4284112212
-0.20793156 0.30875883 1.1163107 4284375384
-0.20575301 0.30876276 1.1162912 4284572763
-0.20357446 0.30876669 1.1162717 4284441690
-0.20151833 0.30903402 1.1172584 4284441691
-0.19909684 0.30851114 1.1152267 4279375375
-0.18812956 0.30325845 1.0950279 4279770133
-0.1852123 0.30141836 1.0879666 4279243277
-0.18232128 0.29957819 1.0809054 4278585347
-0.17999354 0.29905516 1.0788746 4278782727
-0.17777884 0.29879552 1.0778497 4279309072
-0.17598249 0.29958963 1.0808488 4279769623
-0.17437847 0.30091065 1.0858597 4279967000
-0.2167668 0.30693895 1.1013534 4282467903
-0.21515849 0.30800384 1.1053593 4282862661
-0.21353519 0.30906877 1.1093651 4283322954
-0.20959406 0.30987239 1.1123451 4284112212
-0.20742302 0.30987629 1.1123258 4284309591
-0.20512581 0.30961496 1.1113001 4284506970
-0.20295663 0.30961886 1.1112808 4284572764
-0.20066506 0.30935749 1.1102552 4284506972
-0.19825669 0.30883083 1.1082236 4284572765
-0.19561851 0.30777359 1.1041797 4279440911
-0.19287854 0.30645105 1.0991298 4279769876
-0.19038714 0.30565906 1.0960923 4279638290
-0.18779397 0.30460173 1.0920489 4279835669
-0.18510462 0.3032791 1.0869995 4278782725
-0.18232475 0.30169111 1.0809442 4278519298
-0.179997 0.30116433 1.0789132 4278453761
-0.17788783 0.30116811 1.0788944 4278782727
-0.17619328 0.30223316 1.0828996 4281217067
-0.21434884 0.308559 1.0993611 4282928454
-0.20881817 0.3104406 1.1063473 4284244057
-0.20678641 0.31071162 1.1073344 4284441436
-0.20462473 0.31071553 1.1073151 4284704608
-0.20221448 0.31018513 1.1052833 4284836194
-0.19993415 0.30992186 1.1042578 4284835937
-0.1974165 0.30912429 1.10122 4283651663
-0.19479142 0.30805951 1.0971761 4279440655
-0.19206457 0.30672759 1.0921261 4279704083
-0.1897012 0.30619711 1.0900948 4279375118
-0.18700622 0.30486509 1.0850452 4280229914
-0.18444115 0.30380023 1.0810019 4279308812
-0.18189107 0.30273533 1.0769587 4284111701
-0.17967823 0.30247194 1.0759337 4287532937
-0.17768021 0.30274293 1.076921 4287664781
-0.17598943 0.30381548 1.0809263 4282796099
-0.20817214 0.31125531 1.1013554 4284310107
-0.2062778 0.31179723 1.1033489 4284507486
-0.20412362 0.31180111 1.1033295 4284770658
-0.20172088 0.31126693 1.1012979 4284836451
-0.19944803 0.31100181 1.1002724 4285099623
-0.19681732 0.30992955 1.0962284 4283454798
-0.19420162 0.30885726 1.0921843 4279309582
-0.19136734 0.30724689 1.0861282 4279506704
-0.18901521 0.30671266 1.0840969 4279177739
-0.18621843 0.3051022 1.0780411 4279111433
-0.18366647 0.30402982 1.0739976 4282532669
-0.18123879 0.30322644 1.0709605 4283519564
-0.17914461 0.30323023 1.0709418 4286677629
-0.1772615 0.30377212 1.0729353 4288256918
-0.1756819 0.30512121 1.0779469 4280164380
-0.17428713 0.30700845 1.0849705 4279244048
-0.2075261 0.31205127 1.0963632 4284507486
-0.20564112 0.31259692 1.0983567 4284704865
-0.20362249 0.31287169 1.0993439 4284836451
-0.20135152 0.31260467 1.0983185 4284968037
-0.1989619 0.31206673 1.0962867 4285165416
-0.1967003 0.31179968 1.0952613 4284704608
-0.19408646 0.31071991 1.0912173 4279506704
-0.19125403 0.30909827 1.0851609 4279638804
-0.18890376 0.30856028 1.0831295 4278849288
-0.18610884 0.30693859 1.0770735 4278717188
-0.18344757 0.30558777 1.0720239 4278848517
-0.18102364 0.30477875 1.0689867 4279308812
-0.1789332 0.30478254 1.0689679 4279967255
-0.1771594 0.30559909 1.0719676 4280690978
-0.17568536 0.30722851 1.0779855 4280098585
-0.17439239 0.30939981 1.0860155 4279901977
-0.20700994 0.31310126 1.0923771 4284836451
-0.20526052 0.31392342 1.095377 4284968037
-0.2032475 0.31420004 1.0963643 4285099623
-0.20098215 0.31393114 1.0953388 4285231466
-0.19859815 0.31338945 1.093307 4285231466
-0.19610108 0.31257495 1.0902691 4285494381
-0.19337794 0.31121486 1.0852188 4281678644
-0.19067353 0.30985475 1.0801685 4279244559
-0.18833263 0.309313 1.0781372 4279507731
-0.18566011 0.30795282 1.0730872 4279112460
-0.18311749 0.30686542 1.0690436 4279112460
-0.18080847 0.30632359 1.0670127 4278783495
-0.17882921 0.30660015 1.0680002 4278849031
-0.1770573 0.30742234 1.071 4279507218
-0.17548147 0.30879018 1.0760119 4280362527
-0.17398869 0.31043085 1.0820298 4280165405
-0.17217365 0.31125313 1.0850292 4279968282
-0.20462379 0.31468937 1.0903844 4285889139
-0.20262016 0.31496787 1.0913717 4285954932
-0.20036419 0.31469706 1.0903462 4285889395
-0.19798954 0.31415159 1.0883145 4285560687
-0.19550183 0.31333145 1.0852766 4285231722
-0.19290672 0.31223667 1.0812324 4284310620
-0.1903266 0.31114182 1.0771884 4280560419
-0.18799132 0.31059629 1.075157 4279441938
-0.1853244 0.30922672 1.070107 4279441938
-0.18289858 0.3084065 1.0670695 4279770903
-0.1808119 0.30841026 1.0670509 4279309839
-0.17883264 0.3086887 1.0680385 4279309839
-0.17695518 0.30924183 1.0700321 4279638804
-0.17527758 0.31034434 1.0740381 4279770646
-0.17348316 0.31117219 1.0770379 4279639317
-0.17157757 0.31172538 1.0790313 4281547314
-0.20398703 0.31543657 1.0853913 4286481276
-0.20199278 0.31571692 1.0863787 4286481276
-0.19987048 0.31572077 1.0863597 4286415483
-0.1973809 0.314895 1.0833217 4286349946
-0.19502312 0.31434575 1.08129 4285823859
-0.19255416 0.31351998 1.0782522 4284902757
-0.18997966 0.31241763 1.074208 4284902757
-0.18765 0.31186834 1.0721767 4283652690
-0.18498868 0.31048939 1.0671265 4280494626
-0.18267965 0.30994007 1.0650953 4279047180
-0.18059671 0.30994383 1.0650767 4279112973
-0.17862122 0.31022415 1.0660642 4279770903
-0.1767475 0.310781 1.0680581 4279178766
-0.1748663 0.31133789 1.0700519 4280297247
-0.17287581 0.31161824 1.0710393 4282205244
-0.17108141 0.31245172 1.0740392 4284639585
-0.16937381 0.3135618 1.078045 4285823859
-0.20335025 0.31616503 1.0803978 4286612862
-0.20136537 0.31644726 1.0813855 4286941827
-0.19925244 0.31645107 1.0813665 4286941827
-0.19689466 0.31589806 1.0793349 4287008133
-0.19454436 0.31534505 1.0773033 4286613375
-0.1920829 0.31451362 1.0742652 4286613375
-0.18974949 0.31396061 1.0722338 4286284410
-0.18707879 0.3125723 1.0671834 4285824113
-0.18453988 0.3114624 1.0631394 4285692527
-0.18223834 0.3109093 1.0611082 4285166184
-0.18038152 0.31146988 1.0631022 4285165671
-0.17840977 0.31175208 1.06409 4286086518
-0.17653982 0.31231269 1.0660839 4285560174
-0.1745587 0.31259489 1.0670716 4286612862
-0.17257382 0.31287709 1.0680591 4286679168
-0.17078505 0.31371617 1.0710591 4286744961
-0.16918115 0.3151122 1.0760714 4287073926
-0.2030976 0.31771556 1.0784236 4287073413
-0.20111647 0.31799963 1.0794113 4287204999
-0.19913159 0.31828371 1.0803989 4287468171
-0.19689812 0.31800723 1.0793736 4287402378
-0.19454782 0.31745049 1.0773419 4287204999
-0.19208634 0.31661344 1.0743039 4287204999
-0.18963611 0.31577635 1.0712659 4287007618
-0.18696728 0.31437868 1.0662153 4286679166
-0.18443024 0.31326127 1.0621712 4286810495
-0.18201938 0.31242412 1.0591336 4286876288
-0.1799477 0.31242788 1.0591152 4286744702
-0.17798345 0.31271192 1.0601029 4286942081
-0.17601545 0.31299597 1.0610907 4286942081
-0.17414738 0.31356031 1.0630847 4287204998
-0.17206821 0.31356406 1.0630661 4287204999
-0.17028882 0.31440878 1.0660663 4287205512
-0.1686943 0.31581414 1.0710788 4287534477
-0.16717723 0.31749985 1.0770973 4287731856
-0.20246075 0.31841215 1.0734296 4287336585
-0.20048901 0.31869808 1.0744174 4287468171
-0.19851351 0.318984 1.0754051 4287665550
-0.19641183 0.31898779 1.0753863 4287731343
-0.19418959 0.31870943 1.0743611 4287731343
-0.19161505 0.3175846 1.0703166 4287665291
-0.18917231 0.31674188 1.0672786 4287533448
-0.18651095 0.31533483 1.0622278 4287467655
-0.1839814 0.31420991 1.0581838 4287401862
-0.18168923 0.3136493 1.0561525 4287467655
-0.17962317 0.31365302 1.0561341 4287336069
-0.17744967 0.31337458 1.0551093 4287468425
-0.17549105 0.31366047 1.0560971 4287402632
-0.17363237 0.31422856 1.0580913 4287600011
-0.17156255 0.31423229 1.0580728 4287666061
-0.16979256 0.31508261 1.0610732 4287731597
-0.16820744 0.31649733 1.0660859 4287863184
-0.16660357 0.31791207 1.0710984 4288126101
-0.16479231 0.31876245 1.0740985 4288323480
-0.19568065 0.31938532 1.0693858 4288060308
-0.19346966 0.31910506 1.0683607 4288191380
-0.19102503 0.31825674 1.0653225 4288059794
-0.18859167 0.31740838 1.0622846 4287993999
-0.1860546 0.31627595 1.0582402 4287927693
-0.18364561 0.31542757 1.0552025 4287861900
-0.18135905 0.3148632 1.0531712 4287796107
-0.17929861 0.31486693 1.0531528 4287993486
-0.17713074 0.31458658 1.052128 4287927693
-0.17507218 0.31459031 1.0521096 4288125585
-0.17311731 0.31487808 1.0530975 4288125585
-0.17115869 0.31516585 1.0540855 4288191378
-0.16939621 0.31602177 1.057086 4287994769
-0.16772053 0.31716177 1.0610926 4288126100
-0.16612604 0.31858587 1.0661055 4288323480
-0.16422987 0.31915781 1.0680994 4288389273
-0.19494943 0.31976032 1.0633849 4288323480
-0.19274969 0.31947818 1.0623598 4288520345
-0.19043501 0.31891012 1.0603282 4288322966
-0.18812782 0.31834203 1.0582967 4288322965
-0.18571317 0.31748801 1.0552588 4288256658
-0.18330979 0.316634 1.0522209 4288256658
-0.18114005 0.31635177 1.0511961 4288322451
-0.17897405 0.31606957 1.0501713 4288388244
-0.17691924 0.31607327 1.0501529 4288388757
-0.17475885 0.31579104 1.0491282 4288322964
-0.17280962 0.31608069 1.0501162 4288323477
-0.17085662 0.31637034 1.0511042 4288257941
-0.16899982 0.31694591 1.0530986 4288257943
-0.16733167 0.31809342 1.0571054 4288389273
-0.16593708 0.32009879 1.0641311 4288520859
-0.19458552 0.32097617 1.0604032 4288718238
-0.19227082 0.32040435 1.0583717 4288651931
-0.18996362 0.31983253 1.0563401 4288586138
-0.18778075 0.31954846 1.055315 4288651929
-0.18548667 0.31897661 1.0532836 4288585880
-0.18320011 0.31840473 1.0512521 4288519830
-0.18092103 0.31783286 1.0492208 4288585623
-0.17886809 0.31783658 1.0492026 4288520087
-0.17670771 0.31755248 1.0481777 4288454550
-0.17465664 0.31755617 1.0481594 4288520343
-0.17260559 0.31755987 1.0481411 4288455320
-0.17065635 0.31785139 1.0491291 4288520858
-0.1688033 0.31843072 1.0511236 4288586652
-0.1671389 0.31958571 1.0551306 4288586652
-0.16545951 0.32074073 1.0591376 4288915617
-0.19155079 0.32073623 1.05237 4288717981
-0.18937352 0.32045031 1.051345 4288717724
-0.18731685 0.320454 1.0513266 4288783515
-0.18514521 0.32016805 1.0503018 4288717722
-0.18297733 0.31988209 1.0492768 4288651929
-0.18081319 0.31959611 1.048252 4288717722
-0.17865281 0.31931016 1.0472271 4288586136
-0.17649618 0.31902418 1.0462024 4288651929
-0.17444886 0.31902787 1.0461841 4288651931
-0.17240156 0.31903154 1.0461658 4288652445
-0.17045607 0.31932494 1.0471539 4288784032
-0.16850683 0.31961831 1.0481421 4288718238
-0.16675 0.32049111 1.0511429 4288652445
-0.1650781 0.3216536 1.05515 4288784031
-0.18264146 0.32106039 1.0462948 4288783515
-0.17821887 0.32019311 1.0432386 4288783515
-0.17617719 0.32019681 1.0432204 4288717722
-0.17413549 0.3202005 1.0432022 4288915103
-0.17209381 0.32020417 1.0431839 4289046689
-0.17015395 0.32049942 1.0441722 4288915103
-0.16821034 0.32079467 1.0451603 4288981410
-0.16636106 0.32138151 1.0471549 4288981410
-0.16460048 0.3222599 1.0501559 4289047203
-0.16264001 0.32255518 1.0511439 4289112996
-0.17564327 0.32077134 1.0382251 4288915102
-0.17361094 0.320775 1.0382069 4288980896
-0.17168234 0.3210721 1.0391953 4288980896
-0.16974999 0.32136923 1.0401837 4289112482
-0.16781388 0.32166633 1.0411719 4289178275
-0.1659721 0.32225689 1.0431666 4289178532
-0.16412282 0.32284749 1.0451612 4289112996
-0.16217172 0.32314461 1.0461495 4289112996
-0.17543168 0.32221305 1.0362492 4289046689
-0.1735087 0.322512 1.0372376 4289178275
-0.17158197 0.32281098 1.038226 4289112482
-0.16954966 0.32281464 1.0382079 4289244068
-0.16771726 0.32340893 1.0402027 4289244068
-0.16587737 0.32400325 1.0421976 4289309861
-0.16393377 0.32430226 1.0431858 4289309861
-0.16198641 0.32460126 1.0441741 4289310375
