# .PCD v0.7 - Point Cloud Data file format
VERSION 0.7
FIELDS x y z rgba
SIZE 4 4 4 4
TYPE F F F U
COUNT 1 1 1 1
WIDTH 276
HEIGHT 1
VIEWPOINT 0 0 0 1 0 0 0
POINTS 276
DATA ascii
-0.32677877 0.21175392 1.0755899 4280428321
-0.32538512 0.21231671 1.0785884 4280428321
-0.32351074 0.21250685 1.0795752 4280362528
-0.32186544 0.21288332 1.0815678 4280230942
-0.32044369 0.21344616 1.084566 4280296735
-0.31878155 0.21382266 1.0865585 4280296735
-0.31665736 0.21382649 1.0865394 4280296735
-0.31498399 0.21420303 1.0885317 4280165151
-0.31307957 0.21439321 1.0895183 4283520853
-0.31139305 0.21476977 1.0915105 4284770920
-0.3288089 0.21215613 1.0666136 4280691493
-0.3267222 0.2121599 1.066595 4280494114
-0.32511258 0.21254006 1.0685879 4280494114
-0.32373208 0.21310845 1.0715866 4280494114
-0.3218708 0.21330044 1.0725737 4280362528
-0.32047155 0.21386884 1.0755721 4280296735
-0.31906104 0.21443729 1.0785705 4280296735
-0.31741017 0.21481752 1.0805631 4280362528
-0.31552452 0.21500956 1.0815499 4280296481
-0.31363511 0.2152016 1.0825367 4280362530
-0.31174195 0.21539365 1.0835235 4280296483
-0.31006667 0.21577393 1.0855159 4287402127
-0.30816415 0.21596599 1.0865024 4283719002
-0.30647576 0.21634629 1.0884948 4288061340
-0.30499589 0.21691486 1.0914925 4286942857
-0.32784322 0.21348253 1.0626284 4280362528
-0.32624483 0.21386643 1.0646216 4280165149
-0.32463896 0.21425033 1.0666146 4280165149
-0.32278892 0.21444418 1.0676018 4280099356
-0.32163945 0.21520828 1.0716063 4280033563
-0.32024211 0.21578231 1.074605 4280099356
-0.3188335 0.21635637 1.0776035 4280099356
-0.31718448 0.21674035 1.0795962 4279967772
-0.3153007 0.21693425 1.080583 4280033308
-0.31341317 0.21712817 1.0815698 4279901979
-0.31152189 0.21732208 1.0825566 4283651926
-0.30984852 0.21770611 1.0845491 4287402127
-0.30794784 0.21790005 1.0855358 4288192156
-0.30604345 0.21809399 1.0865225 4286678917
-0.30456734 0.21866816 1.0895203 4287140238
-0.30307999 0.21924236 1.0925182 4288587684
-0.32432505 0.21441378 1.0566127 4279704598
-0.32273418 0.2148014 1.0586059 4279836184
-0.32113579 0.21518904 1.0605992 4279770391
-0.31976467 0.21576867 1.0635982 4279901977
-0.31861523 0.21654026 1.0676028 4279836184
-0.31721976 0.21711992 1.0706015 4279901977
-0.31581303 0.21769959 1.0736002 4279835414
-0.3139405 0.21789534 1.0745871 4279835414
-0.31228963 0.21828309 1.0765799 4279835416
-0.31040773 0.21847886 1.0775667 4279440658
-0.30874372 0.21886663 1.0795594 4279572759
-0.30663267 0.21887043 1.0795405 4284441442
-0.30495742 0.21925822 1.0815331 4289902261
-0.3034907 0.21983801 1.0845312 4289113258
-0.30179858 0.22022581 1.0865235 4286547331
-0.29988667 0.22042164 1.0875101 4288060570
-0.29839185 0.22100149 1.090508 4289902772
-0.29667723 0.22138934 1.0925001 4282270784
-0.32240522 0.21493112 1.0486033 4279770391
-0.32082933 0.21532248 1.0505967 4279770391
-0.31924596 0.21571384 1.0525901 4279770391
-0.31788987 0.21629906 1.0555893 4279770391
-0.31652251 0.21688429 1.0585884 4279770391
-0.31537494 0.21766338 1.0625932 4279638805
-0.31421238 0.2184425 1.0665979 4279638805
-0.31235299 0.2186401 1.0675851 4279901207
-0.31071523 0.21903157 1.0695781 4279901207
-0.30884647 0.21922919 1.0705651 4279769623
-0.3071956 0.21962069 1.0725579 4279440658
-0.30531746 0.21981832 1.0735449 4278980107
-0.30387136 0.2204037 1.0765432 4279177486
-0.30241403 0.22098909 1.0795416 4279309842
-0.30073127 0.22138064 1.081534 4289112999
-0.29882875 0.22157833 1.0825208 4288389533
-0.29692248 0.22177602 1.0835075 4288981670
-0.29542953 0.22236148 1.0865055 4279902236
-0.29433864 0.22333473 1.0915146 4279968029
-0.29261464 0.22372635 1.0935068 4280034076
-0.32072571 0.21561417 1.0415993 4279770391
-0.3194015 0.21620496 1.0445989 4279770391
-0.31759274 0.21640435 1.0455866 4279836184
-0.31624976 0.21699515 1.0485859 4279901977
-0.31489557 0.217586 1.0515853 4279770391
-0.31376114 0.21837255 1.0555904 4279704598
-0.3126117 0.21915916 1.0595952 4279704598
-0.31076542 0.21935861 1.0605826 4279770391
-0.30891541 0.21955808 1.0615698 4279967000
-0.30728516 0.21995328 1.0635629 4279901209
-0.30564743 0.22034849 1.0655559 4279835416
-0.3037824 0.22054799 1.066543 4279901209
-0.30256736 0.2213347 1.0705473 4279835416
-0.3013373 0.22212143 1.0745516 4279374865
-0.29987812 0.22271246 1.0775499 4278849291
-0.29798308 0.22291201 1.0785369 4278651912
-0.29608431 0.22311155 1.0795237 4280823081
-0.29439035 0.22350688 1.0815161 4279770393
-0.29330882 0.22448948 1.0865256 4280165151
-0.29159424 0.22488484 1.0885178 4279967772
-0.29027793 0.22567172 1.0925213 4279836184
-0.31868926 0.21765766 1.0416185 4280165149
-0.3168861 0.21785891 1.0426062 4280099356
-0.31578356 0.21865292 1.0466118 4280099356
-0.3144331 0.21924937 1.0496112 4280099356
-0.3130714 0.21984585 1.0526105 4280099356
-0.31169847 0.22044232 1.0556098 4280099356
-0.30985969 0.22064365 1.0565972 4280099356
-0.30801716 0.22084498 1.0575845 4280033563
-0.30639443 0.22124392 1.0595777 4279967000
-0.30476418 0.22164287 1.0615709 4279967002
-0.30290666 0.22184423 1.0625581 4279967002
-0.30169913 0.22263843 1.0665627 4279900952
-0.30047661 0.22343265 1.0705671 4279966489
-0.29902491 0.22402927 1.0735656 4279835416
-0.29713741 0.22423069 1.0745527 4279835416
-0.29545656 0.22462973 1.0765452 4279572244
-0.29397672 0.22522642 1.0795436 4280164381
-0.29269233 0.22602075 1.0835475 4280165151
-0.29098335 0.22641984 1.0855398 4280099356
-0.2896727 0.22721423 1.0895435 4279967770
-0.31570613 0.21890332 1.0376137 4280296735
-0.31461298 0.21970481 1.0416195 4280362528
-0.31350482 0.22050633 1.0456251 4280230942
-0.31215063 0.22110841 1.0486246 4280230942
-0.3107852 0.22171052 1.0516241 4280230942
-0.30872664 0.22171423 1.0516056 4280296735
-0.3068935 0.22191741 1.0525931 4280296735
-0.30528012 0.22232008 1.0545864 4280165149
-0.30365929 0.22272277 1.0565797 4280099356
-0.30181113 0.22292598 1.0575671 4280164635
-0.3008309 0.22392714 1.0625777 4280230172
-0.29961589 0.22472885 1.0665823 4280098843
-0.2981717 0.2253311 1.069581 4279901979
-0.29629168 0.22553436 1.0705681 4279901465
-0.29482874 0.22613665 1.0735667 4279967002
-0.29335457 0.22673894 1.076565 4279835416
-0.29228246 0.22774027 1.0815749 4279901979
-0.29057726 0.22814311 1.0835674 4280033565
-0.28906745 0.22874548 1.0865655 4280033565
-0.28794849 0.22974689 1.0915749 4280033565
-0.31187776 0.22114429 1.0386207 4279967770
-0.31076774 0.2219533 1.0426264 4279901977
-0.30964273 0.22276236 1.0466321 4279901977
-0.30782083 0.2229674 1.0476196 4280099356
-0.3059952 0.22317244 1.0486072 4280033563
-0.30416581 0.2233775 1.0495948 4280033563
-0.30277601 0.22398527 1.0525941 4280165149
-0.30093536 0.22419034 1.0535816 4280033563
-0.29974473 0.22499952 1.0575866 4280165149
-0.29853907 0.22580871 1.0615914 4280033563
-0.29731846 0.22661792 1.0655961 4280033563
-0.29544595 0.22682306 1.0665833 4280165149
-0.29399052 0.22743094 1.069582 4279967770
-0.29273239 0.22824024 1.0735863 4280033563
-0.29145926 0.22904955 1.0775907 4279836186
-0.28996634 0.2296575 1.0805891 4279836186
-0.28846216 0.23026548 1.0835873 4279967772
-0.28714779 0.23107487 1.0875912 4279901979
-0.2860176 0.23208568 1.0926006 4280033565
-0.30961588 0.22297892 1.0376339 4279836184
-0.30781272 0.22318581 1.0386217 4279770391
-0.30646044 0.22379912 1.0416214 4279836184
-0.30509686 0.22441249 1.0446211 4279836184
-0.30349854 0.22482263 1.0466146 4279836184
-0.3018927 0.22523278 1.0486082 4279901977
-0.29983976 0.22523648 1.0485898 4279901977
-0.29844058 0.2258499 1.0515891 4279901977
-0.29724622 0.22666657 1.0555943 4279901977
-0.29603684 0.22748326 1.0595993 4279836184
-0.29438788 0.2278935 1.0615923 4279967770
-0.29294184 0.228507 1.0645913 4280033563
-0.29148453 0.22912051 1.0675901 4280033563
-0.29022267 0.2299373 1.0715946 4280033563
-0.28874102 0.23055086 1.0745932 4279901977
-0.28745103 0.23136771 1.0785974 4279836184
-0.28614604 0.23218457 1.0826015 4279901979
-0.28462687 0.2327982 1.0855998 4280033565
-0.28289917 0.23320858 1.0875922 4280099358
-0.30600917 0.22542875 1.0396469 4279770391
-0.30487481 0.22625281 1.0436527 4279704598
-0.30327836 0.22666669 1.0456463 4279704598
-0.3016744 0.2270806 1.04764 4279704597
-0.29962331 0.22708429 1.0476216 4279704598
-0.29800811 0.22749822 1.0496151 4279704598
-0.29660144 0.22811727 1.0526145 4279836186
-0.29518354 0.22873634 1.0556138 4279704599
-0.29354209 0.22915031 1.0576071 4279770391
-0.29231396 0.22997454 1.0616119 4279770391
-0.29086232 0.23059367 1.0646108 4279836184
-0.28981277 0.23162308 1.0696214 4279836184
-0.28833488 0.23224226 1.0726202 4279901977
-0.28704864 0.2330666 1.0766245 4279901977
-0.28574741 0.23389097 1.0806288 4279836186
-0.28423202 0.23451021 1.0836272 4279967772
-0.28231075 0.23471917 1.084614 4280033565
-0.3035256 0.22705452 1.0376539 4279967770
-0.30238751 0.2278861 1.0416598 4279901720
-0.30079103 0.22830373 1.0436536 4279835414
-0.29874748 0.22830741 1.0436354 4279901207
-0.2967039 0.22831111 1.043617 4279967001
-0.29509246 0.22872877 1.0456107 4279835929
-0.29368767 0.22935344 1.0486102 4279770136
-0.29184705 0.22956413 1.0495977 4279836186
-0.29042354 0.23018885 1.052597 4279901977
-0.2891973 0.23102057 1.0566021 4279901977
-0.28816277 0.23205933 1.061613 4279836184
-0.2856316 0.23372293 1.0696224 4279967770
-0.28434348 0.23455477 1.0736269 4280033563
-0.28284124 0.23517962 1.0766256 4279901979
-0.30082595 0.22846393 1.034655 4280098588
-0.29968598 0.22930302 1.038661 4280098588
-0.29787162 0.22951554 1.0396488 4280032795
-0.29583555 0.2295192 1.0396305 4279967002
-0.29401553 0.22973175 1.0406184 4279835416
-0.29262015 0.23036203 1.0436181 4279835416
-0.29078889 0.23057458 1.0446057 4279770393
-0.2891643 0.23099601 1.0465993 4279836186
-0.2877408 0.23162635 1.0495987 4279967770
-0.28630602 0.2322567 1.052598 4279967770
-0.28465521 0.23267819 1.0545914 4280033563
-0.29902428 0.23070501 1.0356801 4280098588
-0.2969957 0.23070866 1.0356619 4280164381
-0.295403 0.23113379 1.0376559 4280164381
-0.29358676 0.2313482 1.0386437 4279967002
-0.29198095 0.23177335 1.0406376 4279967002
-0.29036763 0.23219852 1.0426313 4279836186
-0.28853637 0.23241295 1.043619 4279901979
-0.28690994 0.23283814 1.0456127 4279967772
-0.28506932 0.23305258 1.0466002 4280033565
-0.28322494 0.23326704 1.0475879 4279967770
-0.28157973 0.23369227 1.0495813 4279901977
-0.28032917 0.23453903 1.0535865 4279770391
-0.29655942 0.23231199 1.033687 4279836185
-0.29475254 0.23252825 1.034675 4280033563
-0.29337403 0.23316976 1.037675 4279967772
-0.29198429 0.23381127 1.0406749 4280033565
-0.29015866 0.23402756 1.0416627 4279967516
-0.2883293 0.23424387 1.0426505 4279836185
-0.28649616 0.23446019 1.0436382 4279901979
-0.28445262 0.23446387 1.04362 4279901724
-0.28261384 0.23468019 1.0446076 4279967770
-0.2809743 0.23510915 1.0466013 4279901976
-0.27952829 0.23575078 1.0496007 4279836184
-0.27807105 0.23639241 1.0526 4279901977
-0.29229704 0.23412962 1.0326819 4279901977
-0.29134506 0.23520572 1.0376941 4279901979
-0.28952506 0.23542389 1.038682 4279967770
-0.28791174 0.23585655 1.0406759 4280033565
-0.28608239 0.23607473 1.0416638 4280033565
-0.28404257 0.23607841 1.0416455 4279901978
-0.28200278 0.23608209 1.0416273 4279901979
-0.28016588 0.23630027 1.0426151 4279967770
-0.27852634 0.23673299 1.0446086 4279901977
-0.27687928 0.23716572 1.0466022 4279901977
-0.27522475 0.23759846 1.0485958 4279901977
-0.2735627 0.23803122 1.0505892 4279967770
-0.28984904 0.23572347 1.0306888 4279902490
-0.2882545 0.23615985 1.0326829 4279770904
-0.28707331 0.23702899 1.036689 4279705111
-0.28546003 0.2374654 1.0386831 4279770647
-0.28342584 0.23746908 1.0386648 4279770391
-0.28139165 0.23747274 1.0386467 4279836184
-0.27956042 0.2376928 1.0396345 4279967770
-0.27772543 0.23791286 1.0406222 4279967769
-0.27608588 0.23834932 1.042616 4280099356
-0.27404419 0.238353 1.0425978 4280033563
-0.27239338 0.23878948 1.0445913 4280165149
-0.27073509 0.23922598 1.0465848 4280033563
-0.2819823 0.23797546 1.0316597 4279573525
-0.27996123 0.23797911 1.0316416 4279573525
-0.27814311 0.23820101 1.0326296 4279704598
-0.27632126 0.23842293 1.0336176 4279836184
-0.27469483 0.23886311 1.0356115 4279967770
-0.2728636 0.23908505 1.0365993 4279967770
-0.27102861 0.23930699 1.0375872 4280033563
-0.26957703 0.23996548 1.0405868 4279967770
