# .PCD v0.7 - Point Cloud Data file format
VERSION 0.7
FIELDS x y z rgba
SIZE 4 4 4 4
TYPE F F F U
COUNT 1 1 1 1
WIDTH 215
HEIGHT 1
VIEWPOINT 0 0 0 1 0 0 0
POINTS 215
DATA ascii
-0.40493292 0.40619841 0.86881107 4291938238
-0.40360263 0.40664443 0.86980754 4291741115
-0.40189278 0.4066475 0.86979222 4291675066
-0.40018296 0.4066506 0.86977696 4291412664
-0.39884517 0.40709662 0.87077338 4291149492
-0.39750361 0.40754265 0.87176973 4291149236
-0.39615834 0.40798867 0.87276602 4291083443
-0.3927274 0.40799487 0.87273538 4290886064
-0.39028656 0.40711206 0.8706969 4290886064
-0.40720177 0.40656585 0.86583751 4292529858
-0.40511799 0.40612411 0.86481053 4292463808
-0.40379706 0.40657198 0.86580712 4292463806
-0.4009617 0.40524065 0.86275667 4292266426
-0.39926496 0.40524372 0.86274147 4292200890
-0.39756826 0.40524676 0.86272633 4292200633
-0.3962436 0.40569463 0.86372286 4291871925
-0.39491516 0.40614253 0.86471939 4291805621
-0.3932147 0.4061456 0.86470419 4291740085
-0.39151424 0.40614867 0.86468899 4291542706
-0.39017832 0.40659654 0.8656854 4291345327
-0.38847598 0.40659961 0.8656702 4291213741
-0.38713446 0.40704751 0.86666662 4291082668
-0.38578916 0.40749544 0.86766297 4291017132
-0.38444012 0.40794334 0.86865926 4290885805
-0.38273215 0.40794644 0.868644 4290886318
-0.38067088 0.40750468 0.86761725 4290886319
-0.40867394 0.40602875 0.86083984 4286738535
-0.40698099 0.40603179 0.8608247 4287328104
-0.40528801 0.40603486 0.86080956 4287328361
-0.40321362 0.40559125 0.85978264 4287263082
-0.40152252 0.40559429 0.85976756 4287002476
-0.4002091 0.40604401 0.86076421 4287660659
-0.39851615 0.40604708 0.86074907 4287464050
-0.39682317 0.40605012 0.86073399 4288779656
-0.39550227 0.40649986 0.86173058 4289370766
-0.39380741 0.40650293 0.86171544 4289634449
-0.39211258 0.40650597 0.8617003 4289963927
-0.39041772 0.40650904 0.86168516 4290291356
-0.3887229 0.40651208 0.86167002 4291015588
-0.38739073 0.40696186 0.86266649 4291344812
-0.38605481 0.40741161 0.86366296 4291344297
-0.38507408 0.40830809 0.86567104 4291345583
-0.38337174 0.40831116 0.86565584 4291214767
-0.3816694 0.40831423 0.86564064 4291411375
-0.37996706 0.4083173 0.86562538 4291410864
-0.37931901 0.40966055 0.86864483 4291279791
-0.40764716 0.40457895 0.85380262 4287793279
-0.40596732 0.40458196 0.8537876 4287530106
-0.40467265 0.40503353 0.85478449 4287398776
-0.40299094 0.40503657 0.85476941 4287332213
-0.40130922 0.40503961 0.85475439 4286870636
-0.39962751 0.40504265 0.85473937 4286608490
-0.39832348 0.40549421 0.8557362 4286542182
-0.39626405 0.4050487 0.85470933 4286475103
-0.39458233 0.40505174 0.85469431 4286802012
-0.39290062 0.40505478 0.85467929 4286933596
-0.3912189 0.40505782 0.85466427 4286933087
-0.38953719 0.40506086 0.85464925 4286933345
-0.38785547 0.40506387 0.85463423 4287065182
-0.3865383 0.40551549 0.85563087 4287131225
-0.3852174 0.40596709 0.85662752 4287328604
-0.38389274 0.40641871 0.85762411 4287592038
-0.38256434 0.40687034 0.8586207 4287657325
-0.38087511 0.4068734 0.85860562 4287854958
-0.37918589 0.40687644 0.85859054 4287921781
-0.37785 0.40732807 0.85958701 4288186493
-0.37756464 0.40912551 0.86361825 4288582275
-0.40904617 0.40400073 0.84880352 4279635720
-0.4069849 0.40355334 0.84777659 4282070060
-0.40453842 0.40265554 0.84573781 4289374628
-0.40326065 0.40310895 0.84673488 4289571230
-0.40197912 0.40356237 0.84773189 4289309085
-0.40069383 0.40401581 0.8487289 4289308058
-0.39940479 0.40446922 0.84972584 4289111192
-0.398112 0.40492266 0.85072279 4288848789
-0.39681548 0.40537611 0.85171968 4289176471
-0.39476356 0.40492871 0.85069287 4289176473
-0.39271539 0.40448129 0.84966606 4289110422
-0.39104307 0.4044843 0.84965116 4289175187
-0.38937071 0.40448734 0.8496362 4288911757
-0.38806668 0.40494078 0.85063303 4288319364
-0.38639247 0.40494379 0.85061806 4287989628
-0.38508281 0.40539727 0.85161483 4287792761
-0.38340673 0.40540031 0.85159987 4287726197
-0.38209143 0.40585378 0.85259658 4287331693
-0.38041347 0.40585682 0.85258162 4287200112
-0.37909257 0.40631029 0.85357827 4287331439
-0.37776789 0.40676379 0.85457492 4286805095
-0.37714612 0.40811822 0.85759479 4286608742
-0.37686455 0.40992317 0.86162621 4286542181
-0.40787086 0.40431437 0.84579808 4278190080
-0.40542436 0.40341282 0.84375918 4278190080
-0.40376326 0.40341583 0.84374434 4278190080
-0.40210217 0.40341881 0.8437295 4278190080
-0.40082628 0.4038741 0.84472662 4278190080
-0.39992994 0.40478167 0.84673566 4278190080
-0.39864466 0.40523699 0.84773266 4278190080
-0.39773518 0.40614459 0.84974158 4289243042
-0.39681822 0.40705219 0.85175043 4289309092
-0.3947663 0.40660292 0.85072356 4289178274
-0.39271814 0.40615362 0.84969676 4278190080
-0.39104581 0.40615666 0.84968179 4278190080
-0.38937345 0.40615967 0.84966689 4278190080
-0.38770112 0.40616268 0.84965193 4278190080
-0.38566232 0.40571338 0.84862518 4278190080
-0.38399187 0.40571639 0.84861028 4278190080
-0.38232139 0.4057194 0.84859538 4278190080
-0.38029009 0.4052701 0.84756869 4278190080
-0.37898046 0.40572542 0.84856552 4278190080
-0.3780241 0.40663311 0.85057402 4278519045
-0.37670508 0.40708849 0.85157073 4278519045
-0.3771489 0.40980557 0.85762572 4289570203
-0.4124698 0.40551606 0.84486115 4278190080
-0.41080683 0.40551907 0.84484631 4278190080
-0.40835473 0.40461379 0.84280729 4278190080
-0.4059101 0.40370849 0.84076834 4278190080
-0.40386382 0.40325731 0.83974153 4278190080
-0.40221024 0.40326029 0.83972675 4278190080
-0.40055662 0.40326327 0.83971196 4278190080
-0.39890304 0.40326625 0.83969718 4278190080
-0.39763275 0.40372342 0.84069443 4278190080
-0.39674017 0.40463474 0.84270352 4278190080
-0.39621964 0.40600023 0.84572452 4278190080
-0.39531019 0.40691158 0.8477335 4278190080
-0.39364159 0.40691459 0.8477186 4278190080
-0.39122513 0.40600926 0.84567988 4278190080
-0.3891882 0.40555808 0.84465313 4278190080
-0.38789544 0.40601525 0.84565014 4278190080
-0.38623059 0.40601826 0.84563529 4278190080
-0.38493219 0.40647545 0.84663218 4278190080
-0.38326547 0.40647846 0.84661734 4278190080
-0.38123605 0.40602726 0.84559065 4278190080
-0.3795712 0.40603027 0.84557575 4278190080
-0.37826529 0.40648746 0.84657264 4278190080
-0.37731272 0.40739891 0.84858125 4278190080
-0.37635264 0.40831035 0.85058975 4278190080
-0.37644503 0.41058445 0.85563332 4278190080
-0.41587785 0.40351903 0.83685344 4278190080
-0.41463384 0.40397802 0.83785087 4278190080
-0.41298398 0.403981 0.83783615 4278190080
-0.41413549 0.40717602 0.84490651 4278190080
-0.41207421 0.40672302 0.84387952 4278190080
-0.41001666 0.40627 0.84285253 4278190080
-0.40717372 0.40490493 0.83980143 4278190080
-0.40512744 0.40445191 0.83877456 4278190080
-0.4030849 0.40399885 0.83774769 4278190080
-0.40143505 0.40400183 0.83773297 4278190080
-0.39978519 0.40400481 0.83771825 4278190080
-0.39775017 0.40355176 0.8366915 4278190080
-0.39648551 0.40401074 0.83768874 4278190080
-0.39559856 0.40492582 0.83969802 4278190080
-0.39546323 0.40675297 0.84373111 4278190080
-0.39455754 0.40766808 0.8457402 4278190080
-0.39251688 0.40721503 0.84471339 4278190080
-0.39010599 0.40630591 0.84267467 4278190080
-0.38770264 0.40539679 0.84063601 4278190080
-0.38604715 0.40539977 0.84062123 4278190080
-0.38476002 0.40585881 0.8416183 4278190080
-0.38346913 0.40631789 0.84261537 4278190080
-0.38180989 0.40632087 0.84260052 4278190080
-0.37978798 0.40586779 0.84157389 4278190080
-0.37813064 0.4058708 0.84155911 4278190080
-0.37683225 0.40632987 0.84255606 4278190080
-0.37695837 0.40861329 0.8476001 4278190080
-0.37671059 0.41044065 0.85163224 4278190080
-0.4179478 0.40378746 0.83387631 4278190080
-0.41630542 0.40379041 0.83386159 4278190080
-0.41506892 0.40425128 0.83485919 4278190080
-0.4134247 0.40425423 0.83484447 4278190080
-0.41218254 0.40471506 0.83584201 4278190080
-0.41293764 0.40746534 0.84190047 4278190080
-0.41167861 0.40792623 0.84289783 4278190080
-0.40962294 0.40747133 0.84187084 4278190080
-0.40717643 0.40655851 0.83983177 4278190080
-0.40513015 0.40610361 0.83880484 4278190080
-0.40347841 0.40610659 0.83879012 4278190080
-0.40182671 0.40610957 0.83877534 4278190080
-0.3997879 0.40565464 0.83774853 4278190080
-0.39813805 0.40565762 0.83773375 4278190080
-0.39687154 0.40611851 0.83873105 4278190080
-0.39636415 0.40749523 0.84175235 4278190080
-0.39584553 0.40887198 0.84477359 4278190080
-0.39456028 0.4093329 0.84577072 4278190080
-0.39251959 0.408878 0.84474385 4278190080
-0.38973477 0.40750721 0.84169316 4278190080
-0.38696119 0.40613639 0.83864254 4278190080
-0.38530949 0.40613937 0.83862776 4278190080
-0.38402608 0.4066003 0.83962494 4278190080
-0.38273895 0.40706122 0.84062201 4278190080
-0.38071889 0.40660626 0.83959538 4278190080
-0.37870258 0.40615129 0.83856875 4278190080
-0.37705088 0.40615427 0.83855397 4278190080
-0.37575811 0.4066152 0.83955103 4278190080
-0.41181159 0.40405944 0.83082563 4278190080
-0.41218525 0.40636116 0.83587223 4278190080
-0.41213995 0.40820315 0.83990639 4278190080
-0.410815 0.41050795 0.8449378 4278190080
-0.40465361 0.40913764 0.84185684 4278190080
-0.40416312 0.41051996 0.84487838 4278190080
-0.40288723 0.41098273 0.84587562 4278190080
-0.40083718 0.41052595 0.84484869 4278190080
-0.3987909 0.41006917 0.84382176 4278190080
-0.39751124 0.41053197 0.84481895 4278190080
-0.39622784 0.41099474 0.84581614 4278190080
-0.39456299 0.41099775 0.84580123 4278190080
-0.39252234 0.41054097 0.84477437 4278190080
-0.38973749 0.40916455 0.84172356 4278190080
-0.3869639 0.4077881 0.83867282 4278190080
-0.384942 0.40733126 0.83764613 4278190080
-0.38402879 0.40825388 0.83965528 4278190080
-0.38274166 0.40871668 0.84065241 4278190080
-0.38108617 0.40871966 0.84063762 4278190080
-0.3783426 0.40734318 0.83758718 4278190080
-0.37633193 0.40688631 0.83656055 4278190080
-0.37468395 0.40688929 0.83654583 4278190080
