# .PCD v0.7 - Point Cloud Data file format
VERSION 0.7
FIELDS x y z rgba
SIZE 4 4 4 4
TYPE F F F U
COUNT 1 1 1 1
WIDTH 258
HEIGHT 1
VIEWPOINT 0 0 0 1 0 0 0
POINTS 258
DATA ascii
-0.32677877 0.21175392 1.0755899 4280428323
-0.32514849 0.21213037 1.0775826 4280494116
-0.3230412 0.21213417 1.0775638 4280428323
-0.32163256 0.21269698 1.0805621 4280296737
-0.32021269 0.21325982 1.0835603 4280362530
-0.3185524 0.21363632 1.0855527 4280493346
-0.31688464 0.21401285 1.087545 4280361760
-0.33138385 0.21252875 1.0686439 4280888104
-0.32929343 0.21253252 1.0686253 4280757286
-0.32720301 0.21253629 1.0686066 4280559909
-0.32535109 0.21272826 1.0695937 4280559909
-0.32349542 0.21292023 1.0705808 4280362530
-0.32163602 0.21311222 1.0715679 4280362530
-0.32023865 0.21368064 1.0745664 4280362530
-0.31883004 0.21424907 1.0775648 4280428321
-0.31741017 0.21481752 1.0805631 4280559139
-0.31552452 0.21500956 1.0815499 4280427553
-0.31386051 0.21538982 1.0835423 4280427553
-0.31218898 0.2157701 1.0855348 4280032797
-0.31073162 0.21633862 1.0885328 4282599238
-0.3086037 0.21634245 1.0885137 4283652439
-0.30712944 0.216911 1.0915116 4288257949
-0.33041072 0.2138589 1.0646588 4280625189
-0.32857004 0.21405274 1.0656461 4280494116
-0.32672563 0.21424657 1.0666332 4280230944
-0.32487747 0.21444041 1.0676204 4280165149
-0.32302555 0.21463425 1.0686076 4280099356
-0.3214047 0.21501818 1.0706005 4280165149
-0.3200092 0.21559222 1.0735991 4280099356
-0.3188335 0.21635637 1.0776035 4280099356
-0.31741363 0.21693045 1.0806018 4280164379
-0.31552798 0.21712436 1.0815887 4280098588
-0.31363857 0.21731827 1.0825756 4279967002
-0.31196895 0.21770228 1.084568 4284375133
-0.3102918 0.21808632 1.0865605 4283388754
-0.3083874 0.21828027 1.0875471 4287665299
-0.30669716 0.21866432 1.0895394 4286678917
-0.30499941 0.2190484 1.0915316 4287534226
-0.32504624 0.21498962 1.0596304 4279770391
-0.32344973 0.21537726 1.0616236 4279901977
-0.32137245 0.215381 1.061605 4279836184
-0.31999946 0.21596062 1.0646039 4279770391
-0.31884813 0.21673222 1.0686086 4279836184
-0.31768182 0.21750385 1.0726131 4279901977
-0.31604218 0.21789156 1.0746059 4279901464
-0.31416777 0.21808732 1.0755929 4279835414
-0.31228963 0.21828309 1.0765799 4279901207
-0.31040773 0.21847886 1.0775667 4279638037
-0.30896538 0.2190586 1.0805651 4280953897
-0.30685246 0.21906242 1.0805463 4286414716
-0.30517533 0.21945021 1.0825387 4290428605
-0.3034907 0.21983801 1.0845312 4288783780
-0.30179858 0.22022581 1.0865235 4286941576
-0.29988667 0.22042164 1.0875101 4288521121
-0.29839185 0.22100149 1.090508 4290100153
-0.31948259 0.21590766 1.053596 4279638805
-0.31812465 0.21649289 1.0565952 4279770391
-0.31698832 0.21727195 1.0606002 4279704598
-0.31606805 0.2182449 1.0656108 4279770391
-0.31444153 0.21863633 1.0676038 4279704598
-0.31258026 0.21883395 1.0685909 4279704598
-0.31048983 0.21883772 1.0685723 4279769621
-0.30884647 0.21922919 1.0705651 4279769877
-0.30741724 0.21981454 1.0735636 4279572242
-0.30531746 0.21981832 1.0735449 4279045900
-0.30387136 0.2204037 1.0765432 4278848521
-0.30219799 0.22079523 1.0785358 4280953897
-0.30073127 0.22138064 1.081534 4289244074
-0.29882875 0.22157833 1.0825208 4288060057
-0.29713288 0.2219699 1.0845132 4289244331
-0.29563805 0.22255535 1.0875112 4280362789
-0.29413199 0.22314084 1.0905091 4279968029
-0.29240987 0.22353245 1.0925012 4280165408
-0.3194015 0.21620496 1.0445989 4279835928
-0.31759274 0.21640435 1.0455866 4279901207
-0.31648454 0.21719086 1.0495919 4279901207
-0.31536138 0.2179774 1.053597 4279835928
-0.3142232 0.21876398 1.057602 4279836184
-0.31307003 0.21955058 1.061607 4279836184
-0.31099272 0.21955433 1.0615884 4279704598
-0.3091408 0.2197538 1.0625757 4279704598
-0.30750871 0.22014901 1.0645688 4279770391
-0.30586907 0.22054422 1.0665617 4279704598
-0.3040022 0.22074372 1.0675488 4279901207
-0.30256736 0.2213347 1.0705473 4279901209
-0.30112126 0.22192569 1.0735459 4279243279
-0.29987812 0.22271246 1.0775499 4278914314
-0.29819536 0.22310776 1.0795425 4278914314
-0.29671556 0.22369881 1.0825408 4281941562
-0.29501593 0.22409414 1.0845332 4279704600
-0.29330882 0.22448948 1.0865256 4279967772
-0.29138944 0.22468907 1.0875121 4280033822
-0.29007503 0.22547597 1.0915157 4279968029
-0.31868926 0.21765766 1.0416185 4280230942
-0.3168861 0.21785891 1.0426062 4280033563
-0.31554878 0.21845533 1.0456058 4280165149
-0.3144331 0.21924937 1.0496112 4280099356
-0.31330246 0.22004342 1.0536164 4280033563
-0.31192762 0.22063993 1.0566157 4280033563
-0.31008697 0.22084124 1.057603 4280033563
-0.30846798 0.22124018 1.0595963 4279967770
-0.30661798 0.22144152 1.0605836 4279967770
-0.30498585 0.22184047 1.0625767 4279901977
-0.30312645 0.22204183 1.0635639 4279901209
-0.30169913 0.22263843 1.0665627 4279900953
-0.30047661 0.22343265 1.0705671 4280032282
-0.29902491 0.22402927 1.0735656 4279967002
-0.29756197 0.22462593 1.0765641 4279835416
-0.29629821 0.22542024 1.0805682 4280098588
-0.29460233 0.2258193 1.0825607 4280230174
-0.29289898 0.22621839 1.0845531 4280230944
-0.29098335 0.22641984 1.0855398 4280099615
-0.28946978 0.22701658 1.0885378 4279968029
-0.31461298 0.21970481 1.0416195 4280296735
-0.31350482 0.22050633 1.0456251 4280362528
-0.31238168 0.22130787 1.0496305 4280230942
-0.3107852 0.22171052 1.0516241 4280230942
-0.30895391 0.2219137 1.0526115 4280362528
-0.30734432 0.22231635 1.0546049 4280428321
-0.30550367 0.22251956 1.0555923 4280296735
-0.3041026 0.22312173 1.0585914 4280099356
-0.30225071 0.22332494 1.0595788 4280099356
-0.3008309 0.22392714 1.0625777 4280295965
-0.29939985 0.22452937 1.0655766 4280164637
-0.2981717 0.2253311 1.069581 4280032795
-0.29650396 0.22573386 1.0715739 4280032794
-0.29545999 0.22673514 1.0765839 4279901209
-0.29418874 0.22753696 1.080588 4280032795
-0.29269579 0.2281393 1.0835863 4279967772
-0.29078203 0.22834262 1.084573 4280099358
-0.28906745 0.22874548 1.0865655 4280033565
-0.28774744 0.22954738 1.0905691 4279968029
-0.3123436 0.22154696 1.0406327 4279967770
-0.31122983 0.22235599 1.0446384 4279967770
-0.30987188 0.22296369 1.0476379 4280033563
-0.30804813 0.22316875 1.0486256 4279967770
-0.30644602 0.22357515 1.0506191 4280033563
-0.30461287 0.2237802 1.0516067 4280033563
-0.30299768 0.22418663 1.0536 4280099356
-0.30137494 0.22459306 1.0555933 4280099356
-0.29974473 0.22499952 1.0575866 4280165149
-0.29853907 0.22580871 1.0615914 4280099356
-0.2971043 0.22641656 1.0645903 4280165149
-0.29544595 0.22682306 1.0665833 4280033563
-0.29441136 0.22783369 1.0715936 4280033563
-0.29335803 0.22884437 1.0766037 4279901977
-0.29207927 0.22965369 1.0806079 4279836186
-0.29017115 0.22985889 1.0815948 4279967772
-0.28866509 0.23046687 1.0845931 4279967772
-0.28714779 0.23107487 1.0875912 4279968029
-0.28561926 0.2316829 1.0905893 4280099615
-0.30781272 0.22318581 1.0386217 4279836184
-0.30691501 0.22420557 1.0436333 4279770391
-0.30532229 0.22461571 1.045627 4279836184
-0.30349854 0.22482263 1.0466146 4279901977
-0.3018927 0.22523278 1.0486082 4279836184
-0.30005956 0.22543971 1.0495957 4279901977
-0.29865852 0.22605313 1.052595 4279901977
-0.29724622 0.22666657 1.0555943 4279901977
-0.29582268 0.22728002 1.0585934 4279901977
-0.29438788 0.2278935 1.0615923 4279901977
-0.29315227 0.22871023 1.0655971 4280099356
-0.29211017 0.22973026 1.0706075 4280099356
-0.29104936 0.23075032 1.0756178 4280033563
-0.28915063 0.23095739 1.0766047 4279901977
-0.28765395 0.23157097 1.0796032 4279836184
-0.285945 0.23198131 1.0815958 4279967772
-0.28422853 0.23239167 1.0835884 4279967772
-0.28250459 0.23280203 1.0855808 4280165149
-0.30623648 0.22563384 1.0406529 4279704598
-0.30487481 0.22625281 1.0436527 4279770391
-0.30327836 0.22666669 1.0456463 4279770391
-0.3016744 0.2270806 1.04764 4279770391
-0.29984313 0.22728941 1.0486275 4279836184
-0.29822603 0.22770333 1.050621 4279770391
-0.29681751 0.22832239 1.0536203 4279901977
-0.29539773 0.22894146 1.0566196 4279836184
-0.29375437 0.22935542 1.0586128 4279901977
-0.29273483 0.23038478 1.0636237 4279901977
-0.29148796 0.23120905 1.0676284 4279836184
-0.29043278 0.23223847 1.0726389 4279901977
-0.28874445 0.23265253 1.0746317 4279967770
-0.28725156 0.23327173 1.0776303 4279967770
-0.28554636 0.23368582 1.079623 4279901977
-0.28383365 0.23409992 1.0816157 4280033563
-0.28211346 0.23451403 1.0836083 4280033563
-0.30307475 0.22664058 1.0356419 4279967770
-0.30194038 0.22747214 1.0396478 4279836184
-0.30056936 0.22809675 1.0426476 4279704598
-0.29852769 0.22810043 1.0426294 4279836184
-0.29692185 0.22851808 1.044623 4279901977
-0.29552457 0.22914274 1.0476226 4279704598
-0.29390186 0.22956043 1.0496161 4279770391
-0.29227167 0.22997813 1.0516095 4279836184
-0.29105482 0.23080984 1.0556147 4279967770
-0.28982297 0.23164158 1.0596198 4279967770
-0.28264204 0.2349726 1.0756197 4279836184
-0.29946432 0.22909416 1.0376549 4279967770
-0.2976518 0.22930668 1.0386428 4279901977
-0.29605347 0.22972807 1.0406365 4279836184
-0.29444766 0.23014948 1.0426303 4279770391
-0.29283431 0.2305709 1.044624 4279901977
-0.29121351 0.23099232 1.0466176 4279901977
-0.28958517 0.23141377 1.0486112 4279901977
-0.28794935 0.23183523 1.0506046 4279836185
-0.28651273 0.23246558 1.0536039 4280033563
-0.28465521 0.23267819 1.0545914 4279967770
-0.29677591 0.23049793 1.0346559 4280033563
-0.295403 0.23113379 1.0376559 4279901977
-0.29380283 0.23155893 1.0396497 4279836184
-0.2924093 0.23219483 1.0426495 4279836185
-0.29057994 0.23240927 1.0436373 4279967770
-0.28895724 0.23283444 1.0456309 4279836186
-0.28711849 0.23304889 1.0466186 4279967772
-0.285276 0.23326334 1.0476062 4279967772
-0.28322494 0.23326704 1.0475879 4280033565
-0.28157973 0.23369227 1.0495813 4279967770
-0.28032917 0.23453903 1.0535865 4279901977
-0.29475254 0.23252825 1.034675 4279901977
-0.29337403 0.23316976 1.037675 4279967771
-0.29198429 0.23381127 1.0406749 4280033565
-0.29015866 0.23402756 1.0416627 4280099358
-0.28853974 0.23445649 1.0436565 4279967772
-0.28670472 0.23467281 1.0446442 4279901979
-0.28486598 0.23488913 1.0456319 4279836186
-0.28281868 0.23489283 1.0456136 4279901977
-0.2809743 0.23510915 1.0466013 4279901977
-0.27952829 0.23575078 1.0496007 4279967770
-0.27807105 0.23639241 1.0526 4279901979
-0.2925131 0.23434411 1.0336879 4279836186
-0.29134506 0.23520572 1.0376941 4279967773
-0.28973737 0.23563838 1.0396881 4280033565
-0.28812221 0.23607105 1.0416819 4280033565
-0.28629094 0.23628923 1.0426698 4280033565
-0.28445596 0.23650742 1.0436574 4279967772
-0.28241241 0.23651111 1.0436392 4279967772
-0.28036883 0.23651479 1.0436209 4279835930
-0.27832526 0.23651847 1.0436027 4280033307
-0.27668008 0.2369512 1.0455964 4279901979
-0.2748301 0.23716941 1.0465839 4280033565
-0.27336726 0.23781669 1.0495833 4279967772
-0.2882545 0.23615985 1.0326829 4279704600
-0.28707331 0.23702899 1.036689 4279770393
-0.28566858 0.23768178 1.0396891 4279836186
-0.28383923 0.23790184 1.0406768 4279836186
-0.28159648 0.23768912 1.0396527 4279967772
-0.27956042 0.2376928 1.0396345 4280033565
-0.27752435 0.23769647 1.0396162 4280033565
-0.27548829 0.23770013 1.0395981 4280165151
-0.27364954 0.23792021 1.0405859 4280033563
-0.27200249 0.23835669 1.0425795 4280099358
-0.27054152 0.23900959 1.045579 4280033565
-0.2819823 0.23797546 1.0316597 4279770391
-0.27996123 0.23797911 1.0316416 4279638805
-0.27612019 0.23820466 1.0326116 4279770391
-0.27429643 0.23842658 1.0335995 4279967770
-0.27246895 0.2386485 1.0345874 4280033563
-0.27083316 0.23908871 1.0365812 4280033563
