# .PCD v0.7 - Point Cloud Data file format
VERSION 0.7
FIELDS x y z rgba
SIZE 4 4 4 4
TYPE F F F U
COUNT 1 1 1 1
WIDTH 222
HEIGHT 1
VIEWPOINT 0 0 0 1 0 0 0
POINTS 222
DATA ascii
-0.40697542 0.40264589 0.8607626 4291808192
-0.40604907 0.40353477 0.86277097 4291742913
-0.40511519 0.40442365 0.86477935 4291545791
-0.40417382 0.40531257 0.86678761 4291610557
-0.40284729 0.40575856 0.86778408 4291544508
-0.40582266 0.40300447 0.85775822 4292200893
-0.40490192 0.40389711 0.85976672 4292464068
-0.40359226 0.40434495 0.86076337 4292595652
-0.4026584 0.40523759 0.86277181 4292398529
-0.40020633 0.40435106 0.86073315 4292201148
-0.39926496 0.40524372 0.86274147 4292135355
-0.39831612 0.40613639 0.86474973 4292069564
-0.39698771 0.40658426 0.86574626 4291937978
-0.39565554 0.40703216 0.86674273 4291740599
-0.393583 0.4065904 0.86571586 4291674550
-0.39261353 0.40748313 0.86772394 4291477171
-0.39200109 0.40882066 0.87074357 4291213745
-0.39065206 0.40926859 0.87173992 4291213743
-0.38929927 0.40971652 0.87273622 4291279535
-0.38758382 0.40971962 0.8727209 4291213998
-0.38551128 0.40927786 0.87169397 4291017133
-0.38344252 0.4088361 0.8706671 4291017134
-0.38173079 0.4088392 0.87065184 4290951854
-0.38037053 0.40928712 0.87164807 4291017648
-0.40635163 0.4033488 0.85476863 4286933589
-0.40466991 0.40335184 0.85475361 4287393632
-0.40298817 0.40335485 0.85473859 4287525226
-0.40206933 0.40425125 0.85674721 4287331186
-0.40114295 0.40514761 0.85875571 4287398004
-0.39983141 0.40559733 0.85975242 4287989887
-0.39851615 0.40604708 0.86074907 4288450438
-0.39757103 0.4069435 0.86275744 4289371280
-0.39624637 0.40739325 0.86375403 4289897622
-0.39417762 0.40694961 0.86272717 4290424734
-0.39284918 0.40739936 0.8637237 4291082152
-0.39188346 0.40829581 0.86573189 4291344558
-0.39127478 0.40963897 0.86875165 4291345071
-0.3899295 0.41008878 0.86974806 4291476656
-0.38858047 0.41053855 0.87074441 4291673263
-0.38686875 0.41054165 0.87072909 4291673521
-0.38479999 0.41009802 0.86970222 4291476913
-0.38309014 0.41010112 0.86968696 4291477168
-0.38138029 0.41010419 0.86967164 4291279792
-0.3800219 0.41055399 0.87066793 4291411377
-0.40531355 0.40188777 0.84773111 4287727232
-0.40403202 0.40233931 0.84872806 4287266422
-0.40274674 0.40279087 0.84972507 4287003762
-0.4014577 0.40324241 0.85072196 4286674797
-0.40054634 0.40414253 0.85273069 4286411625
-0.39924794 0.40459409 0.85372758 4286477419
-0.39756811 0.40459713 0.85371256 4286871407
-0.39588824 0.40460014 0.85369754 4286674797
-0.39495626 0.40550029 0.8557061 4286213473
-0.39327267 0.40550333 0.85569108 4286475104
-0.39158908 0.40550637 0.855676 4286737503
-0.39027381 0.40595797 0.8566727 4286802518
-0.38932121 0.40685815 0.85868108 4287065686
-0.3883611 0.40775836 0.8606894 4287328348
-0.3873935 0.40865856 0.86269766 4287394406
-0.38605762 0.40911019 0.86369413 4287591786
-0.384359 0.40911326 0.86367899 4287789423
-0.38266042 0.40911633 0.86366379 4288055162
-0.38096184 0.4091194 0.86364859 4288516227
-0.37926322 0.40912247 0.86363345 4289042572
-0.37826753 0.41002271 0.86564142 4289371794
-0.40904617 0.40400073 0.84880352 4280753439
-0.40659407 0.40310293 0.84676462 4283123011
-0.40376055 0.40175474 0.84371388 4289243299
-0.40209946 0.40175775 0.84369904 4289309348
-0.40082353 0.40221113 0.8446961 4289243810
-0.3999272 0.40311497 0.84670508 4289178271
-0.39864191 0.40356839 0.84770209 4289045400
-0.39735287 0.40402183 0.84869903 4288914582
-0.39530471 0.40357441 0.84767228 4289308065
-0.39363614 0.40357742 0.84765732 4289374114
-0.39234146 0.40403086 0.84865427 4288714380
-0.39104307 0.4044843 0.84965116 4288582794
-0.38937071 0.40448734 0.8496362 4288582024
-0.38806668 0.40494078 0.85063303 4288252802
-0.38712534 0.40584469 0.85264158 4287398514
-0.3861765 0.40674862 0.85465002 4287594611
-0.38485748 0.40720209 0.85564673 4287463284
-0.38317388 0.40720513 0.85563171 4287200366
-0.38184923 0.40765864 0.85662836 4287068011
-0.38052082 0.40811214 0.85762495 4286805607
-0.37883347 0.40811518 0.85760987 4286674535
-0.37785277 0.40901917 0.85961807 4286543458
-0.37756744 0.41082409 0.86364943 4286411105
-0.40787086 0.40431437 0.84579808 4278190080
-0.40542436 0.40341282 0.84375918 4278190080
-0.40337434 0.40296355 0.84273237 4278190080
-0.4017151 0.40296653 0.84271753 4278190080
-0.40044108 0.40342182 0.84371465 4278190080
-0.39916331 0.40387711 0.84471178 4278190080
-0.39826322 0.40478468 0.84672076 4278190080
-0.39659649 0.40478769 0.84670585 4278190080
-0.39455208 0.40433839 0.8456791 4278190080
-0.39288723 0.4043414 0.8456642 4278190080
-0.39159632 0.40479672 0.84666121 4278190080
-0.39030167 0.40525204 0.84765816 4278190080
-0.38900328 0.40570736 0.84865505 4278190080
-0.38770112 0.40616268 0.84965193 4278190080
-0.38566232 0.40571338 0.84862518 4278190080
-0.38435644 0.40616873 0.84962207 4278190080
-0.38304678 0.40662405 0.85061884 4278190080
-0.38137254 0.40662709 0.85060388 4278190080
-0.37969834 0.4066301 0.85058892 4278190080
-0.37909532 0.40799013 0.85360909 4289111961
-0.37777066 0.40844551 0.85460579 4288980118
-0.3775022 0.41025791 0.85863739 4289044883
-0.37757021 0.41252267 0.8636806 4289042828
-0.40756559 0.40370551 0.84078312 4278190080
-0.40551743 0.40325433 0.83975631 4278190080
-0.40386382 0.40325731 0.83974153 4278190080
-0.40221024 0.40326029 0.83972675 4278190080
-0.40055662 0.40326327 0.83971196 4278190080
-0.39928824 0.40372044 0.84070921 4278190080
-0.39801607 0.40417758 0.8417064 4278190080
-0.39635873 0.40418056 0.84169155 4278190080
-0.39470139 0.40418357 0.84167677 4278190080
-0.39304402 0.40418655 0.84166193 4278190080
-0.39138669 0.40418953 0.84164715 4278190080
-0.38972935 0.40419251 0.84163237 4278190080
-0.38844407 0.4046497 0.84262943 4278190080
-0.38678485 0.40465268 0.84261459 4278190080
-0.38549393 0.40510988 0.8436116 4278190080
-0.38419929 0.40556705 0.84460855 4278190080
-0.38326547 0.40647846 0.84661734 4278190080
-0.38159874 0.40648147 0.84660244 4278190080
-0.37993202 0.40648448 0.84658754 4278190080
-0.37862423 0.40694168 0.84758443 4278190080
-0.37802684 0.40830734 0.85060471 4278190080
-0.37706304 0.40921879 0.85261321 4278190080
-0.37785831 0.41240135 0.85968012 4278913802
-0.37757298 0.41422129 0.86371177 4279176461
-0.41466039 0.40215105 0.83381683 4278190080
-0.41301805 0.40215403 0.83380216 4278190080
-0.41378811 0.40489301 0.8398605 4278190080
-0.41133413 0.40398398 0.83782142 4278190080
-0.40888765 0.40307492 0.83578241 4278190080
-0.40763798 0.40353391 0.83677983 4278190080
-0.40638459 0.40399289 0.8377772 4278190080
-0.40473473 0.40399587 0.83776248 4278190080
-0.4030849 0.40399885 0.83774769 4278190080
-0.40221295 0.40491387 0.83975708 4278190080
-0.40055934 0.40491688 0.8397423 4278190080
-0.39890575 0.40491986 0.83972752 4278190080
-0.39686882 0.40446681 0.83870077 4278190080
-0.39521709 0.40446979 0.83868599 4278190080
-0.39394495 0.4049288 0.83968323 4278190080
-0.39229137 0.40493178 0.83966845 4278190080
-0.39063776 0.40493476 0.83965367 4278190080
-0.38898417 0.40493774 0.83963889 4278190080
-0.38733056 0.40494072 0.83962411 4278190080
-0.38567698 0.4049437 0.83960938 4278190080
-0.3843917 0.40540275 0.84060645 4278190080
-0.38310269 0.40586182 0.84160352 4278190080
-0.38180989 0.40632087 0.84260052 4278190080
-0.38015068 0.40632388 0.84258574 4278190080
-0.37849146 0.40632686 0.8425709 4278190080
-0.37755013 0.40724203 0.84457964 4278190080
-0.37731546 0.40906936 0.84861189 4278190080
-0.37706578 0.41089675 0.85264397 4278190080
-0.37750775 0.41363633 0.85869938 4278190080
-0.42406479 0.40148342 0.82888788 4278190080
-0.42284888 0.40194419 0.8298856 4278190080
-0.42162925 0.40240502 0.83088332 4278190080
-0.41957921 0.40195009 0.8298564 4278190080
-0.41753289 0.40149519 0.82882953 4278190080
-0.41549036 0.40104026 0.82780266 4278190080
-0.41467464 0.40195894 0.82981259 4278190080
-0.41385144 0.40287766 0.83182245 4278190080
-0.41221285 0.40288061 0.83180785 4278190080
-0.4125846 0.40517294 0.83685422 4278190080
-0.41093665 0.40517592 0.8368395 4278190080
-0.40928867 0.4051789 0.83682477 4278190080
-0.40803716 0.40563977 0.8378222 4278190080
-0.4063873 0.40564275 0.83780748 4278190080
-0.40513015 0.40610361 0.83880484 4278190080
-0.40386924 0.4065645 0.83980221 4278190080
-0.40299356 0.40748328 0.8418116 4278190080
-0.40133619 0.40748626 0.84179682 4278190080
-0.39929366 0.40703136 0.84076995 4278190080
-0.39725485 0.40657642 0.83974308 4278190080
-0.39560127 0.40657941 0.83972836 4278190080
-0.39394766 0.40658239 0.83971357 4278190080
-0.39267176 0.40704331 0.84071076 4278190080
-0.3910163 0.40704629 0.84069598 4278190080
-0.38936082 0.40704927 0.8406812 4278190080
-0.38733327 0.40659431 0.83965445 4278190080
-0.38567969 0.40659732 0.83963966 4278190080
-0.38439441 0.40705824 0.84063685 4278190080
-0.3831054 0.40751916 0.84163392 4278190080
-0.38108346 0.4070642 0.84060723 4278190080
-0.3790653 0.40660924 0.8395806 4278190080
-0.37741169 0.40661222 0.83956581 4278190080
-0.37611705 0.40707317 0.84056288 4278190080
-0.42160034 0.40219986 0.82687849 4278190080
-0.41997114 0.40220281 0.82686394 4278190080
-0.4183419 0.40220574 0.82684934 4278190080
-0.41630122 0.40174893 0.82582247 4278190080
-0.41467386 0.40175188 0.82580793 4278190080
-0.41304654 0.4017548 0.82579339 4278190080
-0.41263667 0.403137 0.8288157 4278190080
-0.41140762 0.40359968 0.82981336 4278190080
-0.4113811 0.40544164 0.8338477 4278190080
-0.41093934 0.4068239 0.83686972 4278190080
-0.39968157 0.40914661 0.84181237 4278190080
-0.39802423 0.40914959 0.84179759 4278190080
-0.39598542 0.40869278 0.84077072 4278190080
-0.39432997 0.40869579 0.84075594 4278190080
-0.39305219 0.40915856 0.84175318 4278190080
-0.39139485 0.40916154 0.84173834 4278190080
-0.38936353 0.40870473 0.84071153 4278190080
-0.38733599 0.40824792 0.83968478 4278190080
-0.3856824 0.4082509 0.83967 4278190080
-0.38439712 0.4087137 0.84066719 4278190080
-0.38274166 0.40871668 0.84065241 4278190080
-0.3807216 0.40825984 0.83962572 4278190080
-0.3783426 0.40734318 0.83758718 4278190080
-0.37669274 0.40734616 0.8375724 4278190080
-0.37504292 0.40734911 0.83755767 4278190080
