# .PCD v0.7 - Point Cloud Data file format
VERSION 0.7
FIELDS x y z rgba
SIZE 4 4 4 4
TYPE F F F U
COUNT 1 1 1 1
WIDTH 209
HEIGHT 1
VIEWPOINT 0 0 0 1 0 0 0
POINTS 209
DATA ascii
0.097018383 0.20079431 1.1966149 4284652219
0.099483415 0.20095739 1.197596 4284455610
0.091974258 0.20264159 1.1936933 4284718012
0.094553277 0.20296726 1.1956766 4284783549
0.097014554 0.2031322 1.1966577 4284652219
0.099479578 0.20329715 1.1976389 4284718782
0.10169037 0.20314063 1.1966159 4284652989
0.091970436 0.20497386 1.1937361 4284651960
0.094426081 0.20514067 1.1947173 4284783802
0.09688548 0.20530748 1.1956985 4284652475
0.099221513 0.2053117 1.1956776 4284718012
0.10155755 0.20531592 1.1956568 4284652732
0.10389358 0.20532013 1.1956359 4284521403
0.066412345 0.2074243 1.1950104 4284849598
0.068643771 0.20726407 1.1939873 4284718012
0.070976049 0.20726827 1.1939664 4284783546
0.07320185 0.20710802 1.1929432 4284849339
0.094175532 0.20714585 1.1927559 4284783546
0.09650594 0.20715006 1.1927351 4284652219
0.098963462 0.20731875 1.1937163 4284652219
0.10129575 0.20732296 1.1936955 4284389817
0.10375889 0.20749165 1.1946768 4284324024
0.10622578 0.20766036 1.1956578 4284324024
0.064272329 0.21008685 1.1970788 4284718012
0.066610239 0.21009107 1.1970578 4284915391
0.068845414 0.20992897 1.1960347 4284652219
0.07107684 0.20976686 1.1950115 4284455095
0.073304512 0.20960474 1.1939883 4284718010
0.075636797 0.20960896 1.1939675 4284718009
0.077969082 0.20961316 1.1939466 4284915132
0.08018925 0.20945103 1.1929235 4284849595
0.082519665 0.20945524 1.1929027 4284849339
0.084965929 0.20962578 1.1938841 4284849339
0.087298214 0.20962998 1.1938633 4284783546
0.09429507 0.2096426 1.1938008 4284849339
0.096627355 0.20964682 1.1937799 4284783805
0.098959632 0.20965102 1.1937591 4284586683
0.10129192 0.20965523 1.1937383 4284389817
0.10375506 0.2098258 1.1947196 4284389817
0.10622195 0.20999639 1.1957008 4284389817
0.10869259 0.21016698 1.196682 4284521403
0.064367481 0.21259293 1.1981241 4284783292
0.066707261 0.21259716 1.1981032 4284849342
0.068944313 0.21243319 1.1970799 4284783805
0.071177617 0.2122692 1.1960566 4284652219
0.073407166 0.21210521 1.1950334 4284849852
0.075632967 0.21194123 1.1940103 4284718266
0.077965252 0.21194543 1.1939894 4284849852
0.080297537 0.21194965 1.1939687 4284784059
0.082629822 0.21195385 1.1939478 4284784059
0.085077964 0.21212627 1.1949291 4284915132
0.087294392 0.21196225 1.1939061 4284717753
0.089626677 0.21196647 1.1938852 4284915132
0.091958962 0.21197067 1.1938645 4284849339
0.09429124 0.21197487 1.1938436 4284849596
0.096498296 0.21181086 1.1928205 4284849852
0.098828703 0.21181506 1.1927998 4284586939
0.10115912 0.21181926 1.1927789 4284455610
0.10362038 0.21199171 1.1937603 4284587196
0.10608539 0.21216416 1.1947415 4284521403
0.10855415 0.21233663 1.1957227 4284389817
0.11089019 0.21234083 1.1957018 4284389817
0.064462624 0.21510276 1.1991694 4284651706
0.066804282 0.21510699 1.1991485 4284651706
0.069043212 0.21494114 1.1981252 4284783292
0.071382992 0.21494538 1.1981043 4284717499
0.07350982 0.21460944 1.1960787 4284784059
0.075737499 0.21444358 1.1950554 4284718266
0.078071661 0.21444778 1.1950345 4284718266
0.080293715 0.21428192 1.1940113 4284784059
0.082739979 0.2144562 1.1949929 4284784059
0.085074134 0.21446042 1.194972 4284717753
0.087290563 0.21429454 1.1939489 4284849339
0.089622848 0.21429874 1.193928 4284848826
0.091955133 0.21430294 1.1939073 4284651960
0.094164066 0.21413705 1.1928841 4284717753
0.096494474 0.21414125 1.1928633 4284784059
0.098824881 0.21414545 1.1928425 4284652473
0.10102632 0.21397954 1.1918195 4284389817
0.1034857 0.21415386 1.1928009 4284521403
0.10594884 0.21432818 1.1937822 4284521403
0.10828112 0.2143324 1.1937613 4284389817
0.11074989 0.21450673 1.1947426 4284521403
0.066901289 0.21762058 1.2001939 4284651706
0.069142096 0.21745287 1.1991706 4284849085
0.071483754 0.21745709 1.1991496 4284783292
0.073612466 0.21711741 1.1971239 4284718012
0.075842023 0.21694967 1.1961006 4284586426
0.078288279 0.21712585 1.1970822 4284652218
0.080514088 0.21695811 1.1960589 4284784059
0.082850121 0.21696232 1.196038 4284783546
0.085186154 0.21696652 1.1960171 4284783546
0.087404467 0.21679877 1.194994 4284586167
0.089738622 0.21680298 1.1949731 4284914876
0.091951311 0.21663521 1.1939499 4284651960
0.094283596 0.21663943 1.1939292 4284915132
0.096615881 0.21664363 1.1939083 4284718266
0.098821066 0.21647586 1.1928853 4284784059
0.10115147 0.21648006 1.1928644 4284652473
0.10348188 0.21648426 1.1928437 4284586425
0.10594501 0.21666045 1.193825 4284586426
0.1082773 0.21666467 1.1938041 4284652219
0.11060958 0.21666887 1.1937833 4284652219
0.069035538 0.21962069 1.1982111 4284717499
0.071375318 0.21962491 1.1981901 4284783292
0.073502161 0.21928148 1.1961644 4284783805
0.075838193 0.2192857 1.1961435 4284718012
0.078174226 0.21928991 1.1961226 4284783805
0.080510259 0.21929413 1.1961018 4284586426
0.082846291 0.21929833 1.1960809 4284652219
0.085066482 0.21912871 1.1950576 4284717754
0.087282918 0.21895908 1.1940345 4284717753
0.089615203 0.21896328 1.1940136 4284849339
0.091947481 0.2189675 1.1939927 4284783546
0.094279766 0.2189717 1.193972 4284915132
0.096486829 0.21880205 1.1929488 4284783546
0.098690145 0.21863239 1.1919258 4284849596
0.10101868 0.21863659 1.1919049 4284520631
0.10347806 0.21881466 1.1928864 4284520631
0.10580847 0.21881886 1.1928655 4284717754
0.10827348 0.21899694 1.1938469 4284717755
0.07126689 0.22178899 1.1972306 4284717499
0.073498324 0.2216175 1.1962072 4284849085
0.075942703 0.22179742 1.1971887 4284717499
0.078280613 0.22180164 1.1971679 4284717499
0.080618523 0.22180586 1.197147 4284717499
0.082842462 0.22163436 1.1961237 4284717499
0.085178494 0.22163858 1.1961029 4284717499
0.087396808 0.22146706 1.1950796 4284717753
0.089730971 0.22147128 1.1950587 4284783290
0.092065126 0.2214755 1.1950378 4284849339
0.094399288 0.2214797 1.1950171 4284849339
0.096733443 0.22148392 1.1949962 4284717753
0.098940514 0.22131239 1.1939731 4284651960
0.1012728 0.22131659 1.1939522 4284586167
0.10360508 0.22132079 1.1939313 4284717753
0.10607008 0.22150075 1.1949128 4284915132
0.10853883 0.22168072 1.1958941 4284717753
0.11087487 0.22168493 1.1958733 4284848826
0.11307256 0.22151338 1.1948502 4284651960
0.076155551 0.22449048 1.1992366 4284849085
0.078497209 0.2244947 1.1992158 4284849085
0.08072678 0.22432134 1.1981924 4284849085
0.082952596 0.22414798 1.1971691 4284783292
0.085174665 0.2239746 1.1961457 4284914619
0.087392986 0.22380121 1.1951225 4284783033
0.089727141 0.22380543 1.1951016 4284717240
0.092182763 0.22398724 1.1960831 4284717753
0.094518796 0.22399145 1.1960622 4284783546
0.096854836 0.22399567 1.1960413 4284717753
0.099190868 0.22399987 1.1960205 4284520374
0.1015269 0.22400409 1.1959996 4284717753
0.10386293 0.22400831 1.1959788 4284849339
0.10633168 0.22419015 1.1969601 4284651960
0.10866959 0.22419436 1.1969392 4284586167
0.1110075 0.22419858 1.1969184 4284783546
0.11320707 0.22402516 1.1958953 4284651960
0.076043375 0.22665267 1.1982771 4284783292
0.078493372 0.22683634 1.1992587 4284849085
0.080722943 0.22666112 1.1982353 4284783292
0.082948759 0.22648586 1.1972119 4284585913
0.085170835 0.22631063 1.1961886 4284651706
0.087389156 0.22613536 1.1951653 4284783292
0.089723311 0.22613958 1.1951444 4284717499
0.092057474 0.22614378 1.1951236 4284783292
0.094514966 0.22632748 1.1961051 4284783292
0.096850999 0.22633168 1.1960843 4284717499
0.099187039 0.2263359 1.1960633 4284651706
0.10152307 0.22634012 1.1960424 4284651706
0.10398994 0.22652382 1.1970239 4284849340
0.10632785 0.22652803 1.197003 4284849339
0.10866576 0.22653225 1.1969821 4284520374
0.11100367 0.22653647 1.1969613 4284586167
0.078599744 0.22935931 1.2003042 4284586426
0.080943272 0.22936355 1.2002833 4284718012
0.083058886 0.2290051 1.1982573 4284520633
0.08528284 0.22882798 1.1972339 4284718012
0.089719489 0.22847372 1.1951872 4284520633
0.092175104 0.22865929 1.1961688 4284585913
0.094634473 0.22884485 1.1971503 4284651706
0.097097591 0.22903043 1.1981319 4284717499
0.099437371 0.22903465 1.1981109 4284783292
0.1016482 0.2288575 1.1970876 4284783292
0.10411694 0.22904308 1.1980692 4284849085
0.10645672 0.22904731 1.1980482 4284586681
0.10879651 0.22905153 1.1980274 4284455094
0.080827348 0.23152386 1.1993237 4284718012
0.083055049 0.23134488 1.1983002 4284718782
0.085163169 0.23098266 1.1962743 4284521403
0.089596078 0.23062465 1.1942276 4284586939
0.092049815 0.23081207 1.1952091 4284652219
0.094630636 0.23118274 1.1971933 4284586426
0.096968547 0.23118696 1.1971724 4284586169
0.099306457 0.23119117 1.1971514 4284651706
0.080711432 0.23368043 1.198364 4284718012
0.082937263 0.23349956 1.1973406 4284587196
0.085043512 0.2331336 1.1953145 4284389817
0.089472674 0.23277183 1.1932678 4284521403
0.092045993 0.23314622 1.1952521 4284587196
0.094503477 0.23333554 1.1962336 4284389817
0.096964709 0.23352486 1.1972152 4284520633
0.082933426 0.23583746 1.1973834 4284521146
0.085039683 0.23546775 1.1953574 4284455610
0.089588426 0.23528919 1.1943132 4284521403
0.092042163 0.23548037 1.1952949 4284652989
0.09462297 0.23585854 1.197279 4284389817
0.09696088 0.23586276 1.1972581 4284718012
0.089584604 0.23762146 1.1943558 4284717499
0.092038333 0.23781452 1.1953377 4284455097
