# .PCD v0.7 - Point Cloud Data file format
VERSION 0.7
FIELDS x y z rgba
SIZE 4 4 4 4
TYPE F F F U
COUNT 1 1 1 1
WIDTH 107
HEIGHT 1
VIEWPOINT 0 0 0 1 0 0 0
POINTS 107
DATA ascii
0.45535657 0.13834752 1.1712525 4283269279
0.4576551 0.13835168 1.171232 4283071898
0.45995364 0.13835582 1.1712115 4282940314
0.46267748 0.13847062 1.1721894 4283203486
0.46540508 0.13858543 1.1731671 4283071645
0.4681364 0.13870025 1.174145 4283203231
0.47000965 0.13859373 1.173126 4282940829
0.47187912 0.13848722 1.1721071 4283072415
0.47374487 0.13838069 1.1710882 4282743450
0.4760434 0.13838485 1.1710677 4283072415
0.45347205 0.14075442 1.1723137 4283137693
0.45577249 0.14075857 1.1722932 4283400865
0.45849442 0.14087525 1.1732711 4283137693
0.46079671 0.14087939 1.1732506 4283203486
0.463099 0.14088355 1.1732299 4283269024
0.46497414 0.14077517 1.1722109 4283137438
0.46727455 0.14077932 1.1721904 4283334817
0.46957496 0.14078347 1.1721698 4283137438
0.47144255 0.14067507 1.1711509 4282940829
0.47374111 0.14067923 1.1711304 4283203231
0.4787766 0.14080007 1.1720877 4283005852
0.48151729 0.14091678 1.1730654 4282874521
0.45346829 0.14305483 1.1723559 4283071900
0.4557687 0.14305897 1.1723354 4283137693
0.45849067 0.14317752 1.1733134 4283137693
0.46079293 0.14318167 1.1732928 4283071900
0.46266994 0.14307143 1.1722738 4283137693
0.46454319 0.14296116 1.1712546 4283203231
0.46684173 0.1429653 1.1712341 4283071645
0.46870935 0.14285503 1.1702151 4283203231
0.47100601 0.14285918 1.1701946 4282940829
0.47647241 0.14309631 1.1721504 4283138207
0.47877282 0.14310047 1.1721299 4283006621
0.48151353 0.14321905 1.1731076 4283071900
0.48425797 0.14333764 1.1740854 4283005852
0.45346451 0.14535522 1.1723981 4283137693
0.45576492 0.14535937 1.1723776 4282808728
0.45848688 0.1454798 1.1733556 4283006107
0.46078917 0.14548396 1.173335 4283006107
0.46309146 0.1454881 1.1733145 4283137693
0.46496657 0.14537597 1.1722953 4283137693
0.46683794 0.14526384 1.1712763 4283006107
0.46913648 0.14526798 1.1712558 4283006107
0.47143504 0.14527212 1.1712352 4283072415
0.47416821 0.14539257 1.1722132 4282875035
0.47690517 0.14551301 1.1731911 4282875035
0.47920746 0.14551717 1.1731704 4282940828
0.48195004 0.14563763 1.1741483 4283137693
0.48425421 0.14564179 1.1741277 4283203231
0.45304295 0.14753748 1.1714417 4282940314
0.45534149 0.14754163 1.1714212 4283071900
0.45806158 0.14766392 1.1723992 4283203486
0.46036199 0.14766808 1.1723787 4283335072
0.4626624 0.14767222 1.1723582 4282940314
0.46496281 0.14767638 1.1723375 4283071900
0.46726322 0.14768052 1.172317 4283137693
0.46913272 0.14756651 1.1712979 4283137693
0.47143126 0.14757065 1.1712774 4283006621
0.47416446 0.14769296 1.1722554 4282875035
0.47690141 0.14781529 1.1732333 4283006621
0.4792037 0.14781944 1.1732126 4283072157
0.48194626 0.14794178 1.1741905 4283335072
0.48425043 0.14794594 1.17417 4283203231
0.48655459 0.1479501 1.1741494 4283203231
0.45533773 0.14984016 1.1714634 4283202973
0.45763627 0.1498443 1.1714427 4283268767
0.4595114 0.14972842 1.1704236 4283202974
0.46180806 0.14973256 1.1704031 4283203231
0.46453187 0.14985675 1.1713812 4282940314
0.46768847 0.15010096 1.1733577 4282940314
0.46999076 0.1501051 1.1733372 4283006107
0.47229305 0.15010926 1.1733166 4283335072
0.47459534 0.15011342 1.1732961 4283072414
0.47689763 0.15011758 1.1732755 4283006621
0.47963831 0.15024178 1.1742535 4283137693
0.48238277 0.15036599 1.1752313 4283137693
0.48468879 0.15037015 1.1752107 4283334817
0.48655081 0.15025425 1.1741916 4283137438
0.45575362 0.15226057 1.1725042 4283202203
0.45721096 0.15202093 1.1704863 4283005594
0.45908421 0.15190317 1.1694671 4283268766
0.46137902 0.15190731 1.1694466 4283466658
0.46452811 0.15215527 1.1714233 4283137693
0.46811372 0.15252514 1.1743987 4283071900
0.4708488 0.15265122 1.1753767 4282940314
0.4735876 0.1527773 1.1763545 4283400865
0.47546086 0.15265954 1.1753354 4283598242
0.4777669 0.15266369 1.1753148 4283203486
0.48007295 0.15266785 1.1752942 4283137693
0.48281926 0.15279394 1.176272 4283071900
0.48512718 0.1527981 1.1762514 4283269024
0.4572072 0.15431759 1.1705284 4283071387
0.45908046 0.15419795 1.1695092 4283137180
0.46094996 0.1540783 1.1684901 4283203486
0.46409717 0.15433002 1.1704669 4283006107
0.46810997 0.15482929 1.1744409 4282940314
0.47084501 0.15495723 1.1754189 4282940314
0.47315106 0.15496139 1.1753983 4283269279
0.47545707 0.15496556 1.1753777 4283269279
0.4773266 0.15484592 1.1743585 4283137693
0.48006916 0.15497388 1.1753365 4283137693
0.48281547 0.15510185 1.1763145 4283005852
0.4851234 0.15510601 1.1762938 4282940059
0.4595001 0.15661837 1.17055 4283137180
0.46179676 0.15662251 1.1705295 4283137693
0.46494773 0.15687798 1.1725063 4283006107
0.46810618 0.15713345 1.1744832 4283071900
