# .PCD v0.7 - Point Cloud Data file format
VERSION 0.7
FIELDS x y z rgba
SIZE 4 4 4 4
TYPE F F F U
COUNT 1 1 1 1
WIDTH 303
HEIGHT 1
VIEWPOINT 0 0 0 1 0 0 0
POINTS 303
DATA ascii
0.080693528 0.19898382 0.49958289 1383188
0.081720456 0.20156354 0.49962097 1646106
0.087883711 0.21601079 0.49983054 1580570
0.098902985 0.23725814 0.49912098 1514775
0.064071335 0.1677127 0.50666034 1974811
0.066179298 0.17468303 0.50470203 1777689
0.069298469 0.1813978 0.50796455 1580311
0.072818264 0.18603891 0.50481737 1580312
0.07686881 0.19484787 0.50599104 1646105
0.080420457 0.19953421 0.50259608 1449238
0.079438478 0.20172353 0.50704592 1646361
0.081797421 0.20581348 0.50559938 1580312
0.086333185 0.21528554 0.50598389 1383190
0.088932171 0.22226642 0.50731236 1383445
0.09172757 0.22603351 0.50502253 1317397
0.09617348 0.23548189 0.50464535 1382932
0.098751672 0.2430907 0.50678635 856333
0.10067245 0.2435959 0.50299984 263428
0.059986155 0.16678132 0.51818228 2106140
0.061418258 0.16714188 0.5152421 2040347
0.063898668 0.17458557 0.51505882 1843739
0.068131007 0.184163 0.51584834 1646104
0.070872627 0.18769777 0.51328516 1646106
0.074419059 0.1957276 0.51438254 1646106
0.078198232 0.20405558 0.51570159 1580568
0.080182992 0.20830947 0.51551169 1514519
0.083599262 0.21515128 0.51498967 1580312
0.087587006 0.22475025 0.51599669 1449239
0.090551272 0.22856633 0.51203924 1448727
0.089579433 0.23074824 0.51708901 1580313
0.093433306 0.23585908 0.51446187 1448726
0.09687636 0.24495551 0.51501083 1185553
0.098619647 0.25083223 0.51687598 0
0.059051793 0.16774821 0.52739209 2237469
0.060313266 0.16857812 0.52321327 2171677
0.059907332 0.17074667 0.52825773 2237726
0.061775532 0.17472082 0.5243547 1975068
0.066747077 0.18581574 0.52609122 1580568
0.068933763 0.19132011 0.52635348 1646106
0.071567461 0.19574438 0.5241819 1514776
0.075146869 0.20403974 0.52591598 1514776
0.079303809 0.2132244 0.52766222 1645849
0.081463441 0.21637551 0.52517283 1645592
0.084864795 0.22509082 0.52505875 1515032
0.088200264 0.23345041 0.52540267 1514775
0.091452099 0.23761827 0.52369946 1449239
0.093837343 0.24542812 0.52511567 1514518
0.096788451 0.25315291 0.52586538 724491
0.056671247 0.16747889 0.53564501 2106397
0.058339812 0.17335229 0.53542107 2172190
0.060645383 0.17676561 0.53398764 2106654
0.064492129 0.18543075 0.53543454 1515031
0.068293378 0.19354853 0.53524476 1514776
0.070902757 0.1982585 0.53437895 1580568
0.073630147 0.20534235 0.53420746 1514775
0.07712961 0.21424496 0.53523535 1580312
0.080087118 0.21911757 0.53196406 1514520
0.079198226 0.22060525 0.53750044 1646105
0.082540497 0.22572581 0.53402013 1580312
0.086203903 0.23476601 0.53553009 1514775
0.089495853 0.24222124 0.53405356 1449238
0.091864936 0.24635914 0.53424704 1514519
0.094421461 0.25420591 0.53511924 1185297
0.096624367 0.2606228 0.53757763 0
0.054442201 0.16716345 0.54424441 2238240
0.056662522 0.17498988 0.54449296 2172190
0.058856651 0.18041363 0.54511452 1514518
0.062306017 0.18660067 0.54540533 1514775
0.066454254 0.19492376 0.54479945 1514775
0.069330826 0.20267779 0.5462622 1448725
0.071234643 0.20563266 0.5444864 1448726
0.074324548 0.21400626 0.54627794 1448982
0.078457296 0.22288418 0.54546726 1580312
0.081283771 0.22801042 0.54393703 1514518
0.083599672 0.23501146 0.54499328 1580311
0.087775804 0.2446392 0.54548103 1514774
0.089725465 0.25240165 0.54949129 1580567
0.09223 0.25538534 0.54408765 1448982
0.095031105 0.26293784 0.54598898 790284
0.05293265 0.16827707 0.55353028 2369569
0.054766707 0.17536226 0.55421996 2303777
0.057624422 0.18368965 0.55618787 1448725
0.061205916 0.18779074 0.55384952 1448981
0.064335681 0.19559526 0.55507904 1383189
0.06797158 0.20490073 0.55577362 1383189
0.070604227 0.20903438 0.55186844 1514518
0.069449648 0.21142949 0.55892414 1448725
0.072919056 0.21565793 0.555197 1448981
0.076871499 0.22480369 0.55444658 1448725
0.079186141 0.23207977 0.55701494 1448726
0.08153028 0.23662338 0.55368823 1514518
0.084738828 0.24529135 0.55481309 1514518
0.088071644 0.2534624 0.55640203 1514518
0.090793706 0.25733456 0.55266368 1514519
0.08967337 0.26184881 0.55866683 1382934
0.092792556 0.26537287 0.55484551 922127
0.093647115 0.27097416 0.55879843 0
0.051426526 0.16908988 0.56473958 2435362
0.052271999 0.17396587 0.56556934 2501155
0.056479059 0.18502483 0.56570089 1514518
0.059122585 0.19220401 0.5686664 1382932
0.061835002 0.19573265 0.56437254 1317396
0.065475523 0.20492543 0.56541884 1382933
0.068258248 0.21259917 0.56680411 1448726
0.07133355 0.21741675 0.56471819 1514518
0.073497251 0.22462507 0.56546444 1448725
0.078171566 0.2348271 0.56527609 1448470
0.080253415 0.23810059 0.56181669 1580313
0.079534829 0.2420463 0.56764662 1382933
0.081811205 0.24551521 0.56439912 1382932
0.085650928 0.2554135 0.56430602 1382933
0.088436075 0.26381806 0.56575888 1382933
0.090783171 0.26814422 0.56334466 1382934
0.089795507 0.27132085 0.5688414 1448725
0.092166103 0.27321339 0.56585425 592648
0.048700441 0.16866952 0.57462972 2369569
0.04897831 0.1724845 0.57739782 2501155
0.051372204 0.1763742 0.57291335 2501155
0.054258186 0.18532774 0.57558542 1382933
0.057811487 0.19470154 0.57499456 1317395
0.061047271 0.198798 0.57127059 1318165
0.058558784 0.20088246 0.57983285 1448725
0.062731043 0.20553966 0.57503366 1317397
0.066274144 0.21523415 0.57525432 1382933
0.070603631 0.21926597 0.57005972 1448725
0.068742394 0.22233829 0.57604307 1317652
0.071197487 0.22550872 0.57343626 1448469
0.075251251 0.23506264 0.57436907 1382933
0.07775598 0.24456353 0.57494289 1251604
0.080357999 0.24800311 0.57169932 1251346
0.079247944 0.25178155 0.57837987 1251603
0.08247868 0.25596195 0.57497293 1251604
0.085713446 0.26486897 0.57541633 1317139
0.088706985 0.27335238 0.57627887 1251090
0.09112002 0.27700973 0.5728513 329220
0.089843325 0.28037283 0.579009 0
0.090779647 0.28110829 0.57801384 0
0.046933867 0.16819657 0.58546424 2500899
0.047572237 0.17378153 0.58503574 2566948
0.050466403 0.17793745 0.58198535 2698277
0.051795576 0.18518254 0.58551174 1317395
0.055425595 0.19533348 0.58542705 1120274
0.058187969 0.20350687 0.5869692 1120273
0.061059501 0.20710443 0.58382529 1251604
0.062821448 0.21448807 0.58509266 1185811
0.067189336 0.22496501 0.58419776 1120273
0.070915245 0.22866151 0.58023125 1383188
0.069456793 0.23345785 0.58776236 1185554
0.072309025 0.23621245 0.58408874 1317140
0.074700631 0.24489495 0.58478147 1251346
0.077987462 0.25472626 0.58542931 1120273
0.080808319 0.25855058 0.58202404 1186066
0.078987017 0.26094332 0.58825213 1186066
0.082652383 0.2652348 0.58460492 1185554
0.085982867 0.27553922 0.58522099 1185810
0.088222459 0.28252956 0.58549303 329477
0.090315931 0.28243828 0.581043 0
0.023613941 0.15765192 0.59675735 2566436
0.027202589 0.16468991 0.59502053 1447954
0.030256743 0.16978325 0.59652013 1053197
0.044885952 0.16804509 0.59566462 2501155
0.0285358 0.17340751 0.59696573 856587
0.031028811 0.17618981 0.59755391 856588
0.045586713 0.17484044 0.5948841 2698021
0.033183202 0.18569563 0.59592831 856587
0.048878107 0.18385129 0.59707266 1448212
0.050364513 0.18673994 0.59279269 922381
0.035844367 0.19473071 0.59714961 856587
0.05265424 0.19456917 0.59451216 791053
0.03774301 0.20278391 0.59880823 790794
0.05657994 0.20469967 0.594868 922638
0.059813559 0.21091804 0.59650898 1120273
0.061302055 0.21596776 0.59402102 1120017
0.06457743 0.22542337 0.59500456 1054224
0.068033651 0.23484132 0.59519172 1119761
0.0701712 0.23921117 0.59143358 1185553
0.06925381 0.24136668 0.59898287 1053967
0.071830943 0.24489729 0.59356886 1119761
0.07517197 0.25523797 0.5955233 1054481
0.078182988 0.26437938 0.59607399 1120017
0.081031576 0.26825005 0.5922972 1119762
0.07956212 0.27123088 0.59860438 1119761
0.082192451 0.27493209 0.59490114 1054225
0.085529245 0.28458658 0.59443843 724747
0.086617388 0.29029498 0.59622335 0
0.025340281 0.15677053 0.60032654 3553586
0.032986961 0.16727225 0.6052292 2763814
0.041670691 0.16856308 0.6065225 2632741
0.028358536 0.17691438 0.60066867 856330
0.033761427 0.17542173 0.60479379 592903
0.042801645 0.17503572 0.60523653 2895143
0.035684247 0.18339102 0.60450029 593160
0.04687652 0.18509293 0.6058355 1118990
0.038804509 0.19542268 0.60314554 724489
0.047409769 0.19369891 0.60805702 395268
0.050855234 0.19622681 0.60467893 461575
0.038397774 0.20320122 0.60096955 790794
0.04139648 0.20529652 0.60307252 725002
0.054439351 0.20546849 0.60501462 527624
0.039894029 0.21116091 0.60519379 790794
0.042559903 0.21502788 0.60663003 790538
0.058212645 0.21462217 0.60530365 659209
0.060342759 0.21738057 0.60152376 988432
0.044716101 0.22247137 0.60718179 790538
0.059707306 0.22135371 0.6062032 527625
0.06210937 0.22534831 0.60453236 791052
0.065135181 0.23477408 0.60480928 856845
0.068516679 0.24409318 0.60498518 988174
0.071016125 0.24906656 0.60394257 922383
0.069891259 0.25102845 0.60865629 856590
0.072563708 0.255905 0.60522097 922639
0.075388052 0.26520789 0.60575515 856846
0.078539424 0.27373743 0.60549426 988175
0.080529496 0.2776719 0.60219067 922894
0.079711795 0.28065336 0.60911119 922895
0.082861923 0.28521886 0.6044991 922895
0.084977984 0.29271188 0.60574585 197891
0.037292853 0.16818586 0.6139698 2961194
0.04398546 0.16804309 0.61444581 2566692
0.037730444 0.17431843 0.6142295 2566435
0.040802799 0.17707326 0.61370564 3092522
0.039286345 0.18448651 0.61271203 395012
0.043007564 0.18544306 0.61514115 658184
0.045492426 0.19477358 0.61553991 329476
0.04668165 0.20394765 0.61669058 263683
0.051723689 0.2059553 0.61326677 263940
0.039562162 0.2130689 0.61123306 856588
0.045116369 0.21658067 0.61353374 527111
0.054952271 0.21475348 0.6152339 329733
0.046218012 0.22564769 0.61258072 724488
0.057482351 0.22438942 0.61624378 329732
0.061021231 0.22858214 0.61249185 461575
0.047066621 0.23531756 0.61553872 725002
0.053633437 0.23349927 0.61914963 395524
0.062426362 0.23524383 0.61533999 329732
0.048571922 0.24297205 0.61405802 724744
0.051679041 0.24467707 0.61737156 658952
0.065968156 0.2446664 0.61499286 461318
0.049910106 0.25014251 0.61482042 593415
0.052928023 0.25462666 0.61712611 658952
0.068731442 0.25374514 0.61634308 461318
0.07073129 0.25689247 0.61245698 593418
0.057128727 0.26552352 0.61803824 527879
0.060262889 0.26602173 0.61735249 461060
0.072258607 0.26517746 0.61503851 461575
0.076202333 0.2746231 0.61534935 724748
0.0791355 0.2829304 0.61603457 856589
0.081271201 0.28721231 0.61371839 856846
0.082415223 0.29431036 0.61502039 527625
0.084085658 0.30071625 0.61844164 0
0.046824098 0.1987951 0.62140846 329477
0.04777519 0.20548646 0.62242275 263683
0.050036669 0.20902582 0.62206727 328963
0.048676658 0.21135572 0.62152207 263683
0.052147511 0.21725667 0.62364393 263684
0.054106459 0.22534658 0.62487334 263683
0.055611625 0.23504032 0.62443894 329219
0.060838133 0.23813207 0.62178946 329220
0.055659961 0.24562731 0.62489665 395269
0.062587686 0.24513935 0.62445045 263684
0.056467619 0.25320441 0.62471986 526854
0.066333607 0.25482544 0.62501115 263684
0.056727622 0.26473469 0.62434882 593415
0.066177242 0.26416385 0.62658924 263683
0.07072711 0.26764667 0.6229564 263683
0.057353962 0.27286887 0.62561691 527623
0.063593209 0.27507934 0.62801468 461061
0.073468968 0.27526617 0.62444007 263940
0.063679136 0.28268772 0.62796289 527110
0.077045903 0.28487742 0.62487102 395269
0.065452553 0.29406947 0.62471038 527622
0.079103857 0.29306629 0.62651443 264196
0.080874361 0.29599965 0.6225667 329990
0.066618249 0.30329663 0.62781417 132098
0.082333632 0.30273321 0.62538463 65793
0.056332886 0.23622832 0.63201141 263428
0.058640774 0.24407309 0.63263464 328964
0.061097551 0.24875271 0.63289845 328965
0.059087466 0.25585085 0.63184631 263683
0.062984057 0.25530481 0.63284922 263428
0.057443168 0.2697446 0.63011533 593415
0.06578353 0.26548925 0.63378155 263428
0.05740881 0.27491671 0.63254428 527879
0.066900015 0.27611321 0.63404804 329220
0.071379423 0.27656549 0.63181567 263428
0.059540432 0.28512564 0.6352545 593415
0.062073939 0.28412387 0.63465399 527623
0.073768966 0.28554708 0.63373297 263427
0.06524273 0.2953856 0.63459325 527366
0.076332629 0.29547152 0.63482589 263427
0.080309279 0.29906493 0.63044775 263940
0.063890979 0.30359945 0.63301188 329988
0.076648176 0.30335838 0.6368463 263427
0.08103811 0.30577213 0.63464195 66049
0.079565503 0.31072783 0.63967007 0
0.080651864 0.31028244 0.63865197 0
0.063237503 0.25920117 0.64087236 328965
0.064523712 0.26373121 0.64094388 328965
0.071747646 0.28607872 0.64291412 328965
0.063398264 0.29421118 0.64201277 527622
0.073431462 0.29530588 0.64411002 263428
0.07708957 0.30562907 0.64269942 263172
0.078975856 0.31164384 0.64319289 0
