# .PCD v0.7 - Point Cloud Data file format
VERSION 0.7
FIELDS x y z rgba
SIZE 4 4 4 4
TYPE F F F U
COUNT 1 1 1 1
WIDTH 1099
HEIGHT 1
VIEWPOINT 0 0 0 1 0 0 0
POINTS 1099
DATA ascii
0.44914556 0.23968822 1.3682064 4282808471
0.45180967 0.23969302 1.3681827 4282545043
0.45483527 0.2398646 1.3691589 4282545043
0.45750126 0.23986942 1.369135 4282545043
0.46016726 0.23987423 1.3691112 4282545043
-0.30066136 0.24486402 1.3980297 4282931301
-0.29828483 0.24520431 1.400015 4282602336
-0.2965548 0.24621548 1.4060193 4282471004
-0.29431739 0.24672353 1.4090092 4282471004
-0.29190901 0.24706389 1.4109942 4282733922
-0.28933525 0.24723655 1.4119745 4281813335
-0.28660175 0.24724148 1.4119501 4281484628
-0.28371415 0.24707867 1.410921 4281682523
-0.28098252 0.2470836 1.4108967 4282669676
-0.27840129 0.24725626 1.4118768 4282933105
-0.27626175 0.24793217 1.4158709 4282736242
-0.27425385 0.24877582 1.4208694 4279907143
-0.27193773 0.24928403 1.4238585 4280170573
-0.26918173 0.24928899 1.423834 4281947241
-0.26656672 0.24946173 1.4248139 4281157725
-0.26380885 0.24946669 1.4247892 4280762967
-0.26091373 0.24930391 1.4237601 4280894298
-0.25815776 0.24930888 1.4237354 4280960604
-0.25526825 0.24914609 1.4227064 4281092192
-0.25225088 0.24881551 1.4206728 4281158499
-0.24924102 0.24848492 1.4186393 4281027424
-0.24636653 0.2483221 1.4176104 4281356391
-0.2436218 0.24832705 1.4175858 4281619564
-0.24100117 0.24849978 1.4185658 4281949044
-0.23825455 0.24850474 1.4185412 4282212729
-0.23550792 0.24850969 1.4185166 4282410367
-0.23276131 0.24851465 1.4184921 4282411138
-0.23013131 0.2486874 1.4194719 4282542724
-0.22738281 0.24869236 1.4194473 4282608776
-0.22463432 0.24869731 1.4194227 4282806155
-0.22188582 0.24870227 1.4193982 4283135120
-0.2190282 0.24853942 1.4183694 4282872718
-0.21628158 0.24854438 1.4183449 4283135890
-0.21342959 0.24838151 1.4173161 4283399064
-0.21068484 0.24838646 1.4172915 4283464857
-0.2079401 0.24839142 1.4172671 4283596700
-0.20519535 0.24839637 1.4172425 4283728286
-0.20235273 0.24823348 1.4162139 4283860385
-0.19960986 0.24823843 1.4161893 4283795362
-0.1969611 0.24841122 1.417169 4283795362
-0.19412412 0.24824832 1.4161403 4283861155
-0.19138125 0.24825327 1.4161159 4283992741
-0.18854988 0.24809037 1.4150872 4284124327
-0.18572225 0.24792747 1.4140587 4284320938
-0.18306789 0.24810027 1.4150382 4284255402
-0.18024401 0.24793735 1.4140098 4284255145
-0.17750488 0.24794228 1.4139853 4284189352
-0.1472538 0.24766085 1.4117085 4284255659
-0.14445992 0.24749787 1.4106802 4284321452
-0.043342266 0.24734426 1.4077703 4284388274
-0.040625263 0.24718115 1.4067427 4284519860
-0.037897389 0.24718606 1.4067183 4284388274
-0.035186008 0.24702296 1.4056908 4284256688
-0.029774491 0.2466967 1.4036359 4284519860
-0.027052242 0.24670161 1.4036115 4284454066
-0.024306005 0.24687457 1.4045902 4284585138
-0.021556018 0.24704754 1.405569 4284782516
0.39745966 0.24309914 1.3737334 4282809243
0.40013316 0.24310397 1.3737096 4282743450
0.40280667 0.24310879 1.3736857 4282940829
0.40548018 0.24311361 1.3736618 4282875036
0.40815368 0.24311844 1.3736379 4282677657
0.41115677 0.24329185 1.3746144 4282677657
0.4135007 0.24312808 1.3735901 4282677657
0.41584086 0.2429643 1.372566 4282677656
0.41817728 0.2428005 1.3715417 4282677656
0.42050993 0.2426367 1.3705176 4282546070
0.4224999 0.24230427 1.3684933 4282874521
0.42550486 0.2424777 1.3694698 4282742935
0.42817086 0.24248251 1.3694459 4282611349
0.43083686 0.24248731 1.3694221 4282808472
0.4331564 0.24232349 1.3683981 4282874265
0.43547219 0.24215966 1.3673741 4282677142
0.43848467 0.2423331 1.3683505 4282677142
0.4407967 0.24216926 1.3673265 4282676886
0.44381291 0.24234271 1.3683029 4282479508
0.44612122 0.24217887 1.3672789 4282610837
0.44842577 0.24201502 1.366255 4282676629
0.45144573 0.24218848 1.3672314 4282610836
0.45410797 0.24219328 1.3672076 4282413457
0.45677024 0.24219808 1.3671838 4282413457
0.45943248 0.24220288 1.3671601 4282545043
0.46172765 0.24203901 1.3661363 4282610836
0.46438804 0.24204381 1.3661125 4282545043
-0.29590526 0.24825937 1.4020501 4281747281
-0.29383701 0.24894263 1.406045 4282076246
-0.291594 0.24945632 1.4090348 4282207578
-0.289024 0.24963084 1.4100152 4282537056
-0.28645024 0.24980536 1.4109955 4281418577
-0.28341037 0.24947108 1.4089618 4282010972
-0.28022575 0.24896717 1.4059232 4282406246
-0.2776539 0.24914169 1.4069036 4282472041
-0.27552375 0.24982508 1.4108979 4282143076
-0.27367187 0.2508477 1.4169014 4281222230
-0.27165273 0.25170076 1.4218999 4281025624
-0.26890048 0.25170574 1.4218752 4281814883
-0.26628926 0.25188032 1.4228553 4280894040
-0.26367426 0.25205493 1.4238353 4280631381
-0.26091826 0.25205988 1.4238106 4280697174
-0.25816226 0.25206485 1.423786 4280696919
-0.25527278 0.2519002 1.4227568 4280894811
-0.25225541 0.25156587 1.4207232 4281092190
-0.24924554 0.25123152 1.4186897 4280961374
-0.24637105 0.25106683 1.4176607 4281027167
-0.2436263 0.25107178 1.4176362 4281290339
-0.24088155 0.25107673 1.4176117 4281619563
-0.2381368 0.25108168 1.4175872 4281949298
-0.23539205 0.25108662 1.4175626 4282212729
-0.23276581 0.25126126 1.4185425 4282278781
-0.23013581 0.25143588 1.4195223 4282344574
-0.22750206 0.25161052 1.4205021 4282542724
-0.22486457 0.25178516 1.4214818 4282937482
-0.22200133 0.25162044 1.420453 4283003275
-0.21914183 0.25145572 1.4194241 4283135120
-0.21628608 0.25129098 1.4183953 4283200913
-0.21353947 0.25129592 1.4183707 4283399062
-0.21079284 0.2513009 1.4183462 4283399062
-0.20804623 0.25130585 1.4183216 4283530905
-0.2052996 0.2513108 1.4182971 4283794079
-0.2024551 0.25114605 1.4172684 4283597213
-0.19961436 0.2509813 1.4162396 4283728799
-0.19687149 0.25098625 1.4162152 4283926948
-0.19412862 0.2509912 1.4161906 4283795362
-0.19138575 0.25099614 1.4161662 4284123557
-0.18855436 0.25083137 1.4151375 4284189350
-0.18581337 0.25083631 1.4151131 4284189351
-0.18315713 0.25101098 1.4160926 4284123558
-0.18033138 0.25084618 1.4150641 4284189350
-0.17750938 0.2506814 1.4140356 4284189350
-0.17469113 0.25051659 1.413007 4284452522
-0.17187662 0.25035179 1.4119786 4284518315
-0.16906588 0.25018698 1.4109502 4284386985
-0.16625887 0.25002217 1.4099218 4284321449
-0.16359888 0.25019684 1.4109013 4284321706
-0.16086538 0.25020176 1.4108769 4284321706
-0.15826765 0.25054622 1.4128603 4284190120
-0.15553041 0.25055116 1.4128358 4284321706
-0.15272902 0.25038633 1.4118075 4284387244
-0.1499314 0.25022149 1.4107792 4284255659
-0.1471979 0.25022644 1.4107548 4284386988
-0.1443474 0.2498918 1.4087226 4284452524
-0.14150438 0.24955717 1.4066906 4284386988
-0.13877839 0.24956208 1.4066663 4284255659
-0.043379333 0.24956428 1.4048107 4284387760
-0.040655211 0.24956919 1.4047863 4284519346
-0.037945699 0.24940421 1.4037588 4284388274
-0.035223451 0.24940911 1.4037344 4284322481
-0.032519564 0.24924411 1.402707 4284388274
-0.029819429 0.24907909 1.4016795 4284322481
-0.027078819 0.24925391 1.4026583 4284585138
-0.024310473 0.24959868 1.4046403 4284519344
-0.021560488 0.24977352 1.405619 4284584624
0.39510012 0.24593827 1.3748069 4282676887
0.3977755 0.2459431 1.3747829 4282677657
0.40012878 0.24577746 1.3737586 4282611864
0.40280229 0.24578227 1.3737347 4282677657
0.40580162 0.24595757 1.3747113 4282875036
0.40847701 0.2459624 1.3746873 4282809243
0.41082281 0.24579674 1.3736631 4282677657
0.41316485 0.24563108 1.3726388 4282809242
0.41550314 0.24546543 1.3716146 4282677656
0.41783768 0.24529976 1.3705904 4282677399
0.42016849 0.24513407 1.3695663 4282940314
0.42249551 0.24496838 1.3685422 4282940314
0.42515966 0.2449732 1.3685184 4282742935
0.42782378 0.244978 1.3684945 4282742935
0.4304879 0.24498281 1.3684708 4282611093
0.43280557 0.24481711 1.3674468 4282677143
0.43546784 0.24482191 1.3674229 4282742935
0.43813008 0.2448267 1.3673992 4282808728
0.44114441 0.24500203 1.3683755 4282545300
0.44380856 0.24500683 1.3683518 4282413716
0.44611683 0.24484111 1.3673278 4282413715
0.44877911 0.24484591 1.3673041 4282610580
0.45144135 0.24485071 1.3672802 4282347407
0.45410362 0.24485552 1.3672564 4282215821
0.45676586 0.24486032 1.3672327 4282281871
0.4594281 0.24486512 1.3672088 4282478993
0.4617233 0.24469937 1.3661851 4282347664
0.46438366 0.24470417 1.3661613 4282413970
0.46704406 0.24470899 1.3661375 4282085004
0.46933171 0.24454322 1.3651137 4282282384
0.56504393 0.24369657 1.3582387 4282281101
0.56680328 0.24335998 1.3562164 4282149770
0.56855518 0.24302338 1.354194 4282083977
-0.29509223 0.2501168 1.3970758 4280826179
-0.29303336 0.25080752 1.4010708 4281681488
-0.29095948 0.25149831 1.4050658 4282207578
-0.28855485 0.25184616 1.407051 4282339677
-0.28598672 0.25202253 1.4080313 4281879126
-0.28295249 0.25168449 1.4059975 4281550163
-0.27962124 0.25100347 1.4019544 4282010459
-0.27705684 0.25117987 1.4029348 4282142559
-0.27508274 0.2520422 1.407934 4280827216
-0.27323648 0.25307608 1.4139376 4280958802
-0.27136776 0.25411001 1.4199411 4281353562
-0.26833349 0.25377196 1.4179072 4281814370
-0.26544777 0.2536054 1.4168781 4280893783
-0.26270488 0.25361034 1.4168535 4280631381
-0.26009926 0.2537868 1.4178337 4280697174
-0.25735453 0.25379175 1.4178091 4280762967
-0.25474328 0.25396824 1.4187891 4280828505
-0.25199667 0.25397319 1.4187646 4280763225
-0.24912028 0.25380662 1.4177356 4280895324
-0.24637555 0.25381157 1.417711 4280698202
-0.2436308 0.25381652 1.4176866 4280961374
-0.24076192 0.25364992 1.4166576 4281421925
-0.2381413 0.25382641 1.4176375 4281816940
-0.23539655 0.25383136 1.417613 4281817712
-0.23277031 0.25400788 1.4185928 4282146936
-0.23025694 0.25435591 1.4205772 4282344574
-0.22762133 0.25453243 1.4215569 4282608516
-0.22498196 0.25470895 1.4225367 4282674309
-0.22211684 0.25454235 1.4215077 4282937482
-0.21925546 0.25437576 1.4204788 4283069068
-0.21639784 0.25420916 1.4194499 4283332499
-0.21364935 0.25421411 1.4194254 4283464085
-0.21090086 0.25421906 1.4194008 4283464085
-0.20825399 0.2543956 1.4203806 4283662234
-0.20540386 0.25422898 1.4193517 4283728540
-0.20255749 0.25406235 1.4183229 4283728797
-0.19971485 0.25389573 1.4172941 4283663006
-0.19697012 0.25390068 1.4172697 4283729312
-0.19422537 0.25390562 1.4172451 4283860385
-0.19148062 0.25391057 1.4172206 4283991971
-0.18873587 0.25391555 1.4171962 4284123557
-0.1859045 0.25374889 1.4161675 4284189350
-0.18324639 0.25392544 1.417147 4284123557
-0.18041876 0.25375879 1.4161185 4284123557
-0.17759489 0.2535921 1.4150898 4284255143
-0.17477475 0.25342545 1.4140613 4284320936
-0.17195837 0.25325876 1.4130328 4284386729
-0.16914575 0.25309208 1.4120044 4284452779
-0.16641037 0.25309703 1.4119799 4284321706
-0.163675 0.25310194 1.4119555 4284387499
-0.16093963 0.25310689 1.411931 4284321706
-0.15827213 0.25328347 1.4129105 4284190120
-0.15553489 0.25328839 1.412886 4284255656
-0.1527335 0.2531217 1.4118577 4284452779
-0.14999814 0.25312662 1.4118333 4284320937
-0.14720239 0.25295991 1.4108049 4284518317
-0.14441037 0.25279319 1.4097766 4284518317
-0.14156549 0.25245482 1.4077445 4284452524
-0.13883762 0.25245973 1.4077201 4284321195
-0.13605686 0.25229299 1.4066919 4284189866
-0.043383799 0.2522884 1.4048606 4284387760
-0.040659677 0.25229332 1.4048363 4284519346
-0.037950162 0.25212643 1.4038087 4284453551
-0.029803652 0.25196937 1.4027326 4284387760
-0.027061172 0.25214607 1.4037114 4284321966
-0.024290957 0.25249457 1.4056934 4284387501
-0.021539101 0.2526713 1.4066721 4284387245
0.36237353 0.2497569 1.3821718 4283335072
0.36506203 0.24976176 1.3821478 4283335072
0.36775053 0.2497666 1.3821237 4283400610
0.36983988 0.24942686 1.3800983 4283203231
0.37222317 0.2492594 1.3790737 4283137438
0.37460271 0.24909194 1.3780491 4283137438
0.37965763 0.24892929 1.3770006 4283005852
0.38233677 0.24893413 1.3769766 4283137438
0.38501588 0.24893896 1.3769526 4283137438
0.38769501 0.24894379 1.3769288 4283071645
0.39005956 0.2487763 1.3759043 4283071647
0.39242035 0.2486088 1.3748798 4283005854
0.39477739 0.24844129 1.3738555 4282809245
0.39745089 0.24844612 1.3738315 4282940829
0.4001244 0.24845095 1.3738077 4282743450
0.40279791 0.24845576 1.3737838 4282809243
0.40547141 0.24846059 1.3737599 4282940829
0.40814492 0.2484654 1.373736 4282940829
0.41015926 0.24812552 1.3717113 4282743450
0.41216609 0.24778563 1.3696866 4282677913
0.4138321 0.24727337 1.3666617 4282678169
0.41615728 0.24710581 1.3656375 4282875035
0.41814163 0.24676587 1.3636131 4282940828
0.42045742 0.24659829 1.3625891 4282809242
0.42311031 0.24660307 1.3625654 4282677399
0.42542049 0.24643548 1.3615414 4282545299
0.4280715 0.24644026 1.3615177 4282611092
0.4307225 0.24644504 1.3614941 4282479763
0.43602452 0.24645461 1.3614466 4282479250
0.43902758 0.24663179 1.3624232 4282479250
0.44203442 0.24680896 1.3633996 4282545043
0.44468918 0.24681376 1.3633759 4282413458
0.44734392 0.24681854 1.3633522 4282479507
0.44999868 0.24682333 1.3633285 4282412944
0.45265344 0.24682812 1.3633047 4282281614
0.4553082 0.24683291 1.3632811 4282347407
0.45796293 0.24683771 1.3632574 4282347664
0.46061769 0.24684249 1.3632337 4282347663
0.46364141 0.24701969 1.36421 4282479505
0.46629804 0.24702449 1.3641863 4282282125
0.46895465 0.24702929 1.3641626 4282150540
0.47161129 0.24703407 1.3641387 4282216590
0.47426793 0.24703887 1.364115 4282348175
0.56018341 0.24650681 1.359334 4281821577
0.56239235 0.24633904 1.3583109 4281952906
0.56459749 0.24617127 1.3572879 4282149515
0.56635499 0.24583091 1.3552655 4282083976
0.56810498 0.24549055 1.3532431 4282149768
-0.29255292 0.25300038 1.3981061 4281615695
-0.29048467 0.25369862 1.4021012 4282734176
-0.28792781 0.25387686 1.4030818 4283194473
-0.28552318 0.25422847 1.4050671 4281944919
-0.28249454 0.25388667 1.4030333 4281681747
-0.27932116 0.25337151 1.3999947 4281879128
-0.27691093 0.25372311 1.4019799 4281944666
-0.2749387 0.25459483 1.4069792 4280563528
-0.27324098 0.25581333 1.4139879 4279182391
-0.27093801 0.25633836 1.4169774 4279840321
-0.26790938 0.25599656 1.4149436 4281945699
-0.26460624 0.255308 1.4109005 4281156440
-0.25394675 0.25567448 1.4128121 4280828760
-0.25147465 0.25602621 1.4147967 4280762967
-0.24886528 0.25620455 1.4157768 4280829017
-0.24625216 0.25638288 1.4167569 4280894810
-0.24350929 0.25638783 1.4167324 4281092190
-0.24064228 0.25621939 1.4157034 4281223776
-0.23790129 0.25622433 1.4156789 4281486948
-0.23528068 0.2564027 1.4166589 4281553511
-0.23265631 0.25658104 1.4176388 4282014062
-0.2300282 0.25675943 1.4186187 4282409077
-0.22739634 0.2569378 1.4195986 4282278520
-0.22464783 0.25694275 1.419574 4282346623
-0.22189935 0.25694773 1.4195495 4282872967
-0.21904172 0.25677925 1.4185206 4282937735
-0.21629509 0.2567842 1.418496 4283331723
-0.21354847 0.25678915 1.4184715 4283464338
-0.21080185 0.2567941 1.4184469 4283397776
-0.20815687 0.25697252 1.4194267 4283595411
-0.20540836 0.25697747 1.4194021 4283661718
-0.20265988 0.25698242 1.4193776 4283662235
-0.19991137 0.25698739 1.419353 4283728540
-0.19716288 0.25699234 1.4193285 4283728799
-0.19432212 0.25682384 1.4182997 4283794592
-0.19157551 0.25682878 1.4182752 4283860385
-0.18882889 0.25683373 1.4182507 4284057251
-0.18608226 0.25683871 1.4182261 4284188837
-0.18333565 0.25684366 1.4182016 4284188837
-0.18050614 0.25667512 1.4171729 4284254630
-0.17768039 0.25650659 1.4161443 4284320423
-0.17477924 0.25616455 1.4141116 4284254630
-0.17204012 0.2561695 1.4140871 4284386729
-0.16915023 0.25582746 1.4120545 4284321706
-0.16641486 0.25583237 1.4120301 4284321706
-0.16375113 0.2560108 1.4130096 4284255913
-0.16101387 0.25601575 1.4129852 4284255913
-0.15827663 0.25602069 1.4129608 4284255913
-0.15553938 0.25602561 1.4129363 4284190120
-0.152738 0.25585705 1.4119079 4284255913
-0.15000263 0.25586197 1.4118835 4284321450
-0.14720687 0.25569341 1.4108551 4284518317
-0.14441486 0.25552478 1.4098268 4284452268
-0.14156996 0.25518265 1.4077945 4284320938
-0.13884209 0.25518757 1.4077702 4284058536
-0.13606133 0.25501898 1.4067419 4284124330
-0.13333534 0.2550239 1.4067175 4284321452
-0.13065848 0.25520235 1.4076971 4284255916
-0.1279306 0.25520727 1.4076726 4284321965
-0.12515734 0.25503865 1.4066445 4284190122
-0.12243134 0.25504357 1.4066201 4284452524
-0.10056633 0.25473574 1.404418 4284124588
-0.087012514 0.25528106 1.4073071 4284387758
-0.032546844 0.25451115 1.4018035 4284387758
-0.029787883 0.25486341 1.4037857 4284256172
-0.027043531 0.25504199 1.4047645 4284321965
-0.024271447 0.25539425 1.4067466 4284321709
-0.021543574 0.25539917 1.4067222 4284387245
0.36505762 0.25245026 1.382197 4283203231
0.36744842 0.25228092 1.3811723 4283071645
0.36983547 0.25211158 1.3801476 4283269024
0.37221876 0.25194228 1.379123 4283334819
0.37459832 0.25177291 1.3780982 4283137438
0.37697411 0.25160357 1.3770736 4283334817
0.37934616 0.25143424 1.376049 4283137438
0.38171446 0.25126487 1.3750246 4283203231
0.38438982 0.2512697 1.3750006 4282940059
0.38737792 0.25144872 1.3759773 4282874266
0.38974059 0.25127935 1.3749528 4283071645
0.39178306 0.25093576 1.3729278 4282874266
0.39413637 0.25076637 1.3719034 4283005852
0.39648589 0.25059697 1.3708789 4283071645
0.3988317 0.25042757 1.3698547 4282940316
0.40182167 0.2506066 1.3708314 4282743450
0.40416372 0.2504372 1.369807 4283006365
0.40650201 0.25026777 1.3687828 4282742935
0.40817741 0.24974991 1.3657576 4282808728
0.46179229 0.24880482 1.3592583 4282084233
0.4651812 0.2491582 1.3612348 4282150282
0.46857759 0.2495116 1.3632112 4282150537
0.47123235 0.24951638 1.3631874 4282150539
0.47426355 0.24969548 1.3641638 4282347662
0.47692019 0.24970028 1.36414 4282413711
0.47919661 0.24953075 1.3631163 4282150283
0.50494629 0.24922994 1.3608795 4282150028
0.5163632 0.24959779 1.3627843 4282018956
0.51901793 0.24960259 1.3627605 4281953163
0.5570935 0.24897674 1.3584068 4281887626
0.55974072 0.24898151 1.3583832 4281952906
0.562388 0.24898627 1.3583596 4281887113
0.5645932 0.24881662 1.3573364 4282083722
0.56590676 0.24829809 1.3543146 4282149769
0.56810069 0.24812843 1.3532915 4282149254
0.56805241 0.24708654 1.3472716 4282083463
-0.29191083 0.25500673 1.3941363 4281615695
-0.28937083 0.25518683 1.395117 4282471004
-0.28714284 0.25571737 1.3981074 4283391852
-0.28474763 0.2560727 1.4000928 4282142298
-0.28188249 0.25590238 1.3990638 4281747540
-0.27902111 0.25573203 1.3980348 4281813335
-0.27661464 0.25608736 1.4000202 4282010459
-0.27494317 0.25731894 1.4070293 4281484630
-0.27339211 0.25872579 1.4150428 4279576633
-0.27079773 0.25890598 1.416023 4280761423
-0.2674852 0.25820991 1.4119797 4281814111
-0.24574512 0.25842464 1.412789 4280631381
-0.24326177 0.25878015 1.4147736 4280960346
-0.24052265 0.25878507 1.4147491 4281026139
-0.23790579 0.25896531 1.4157292 4281223516
-0.23516479 0.25897026 1.4157047 4281618274
-0.2324238 0.25897521 1.4156802 4281618274
-0.22979943 0.25915545 1.4166602 4281881959
-0.22717132 0.2593357 1.4176401 4281816938
-0.22442657 0.25934064 1.4176157 4282409846
-0.22157082 0.25917029 1.4165866 4282870397
-0.21882795 0.25917524 1.4165622 4283329921
-0.21608508 0.25918019 1.4165376 4283461765
-0.2133422 0.25918514 1.4165131 4283462535
-0.21070285 0.25936538 1.417493 4283463307
-0.2079581 0.25937036 1.4174684 4283464079
-0.20531312 0.25955063 1.4184482 4283595411
-0.20256649 0.25955558 1.4184238 4283727512
-0.19991589 0.25973585 1.4194034 4283858843
-0.1971674 0.25974083 1.4193789 4283859613
-0.19432664 0.25957045 1.4183501 4283925407
-0.1916704 0.25975072 1.4193298 4283991201
-0.1889219 0.2597557 1.4193052 4284057251
-0.18617341 0.25976065 1.4192806 4284122787
-0.18350968 0.25994095 1.4202603 4284254373
-0.18067642 0.25977057 1.4192315 4284385702
-0.17784691 0.25960016 1.4182029 4284451496
-0.17494202 0.2592544 1.4161701 4284254373
-0.17219914 0.25925934 1.4161456 4284320423
-0.16938087 0.2590889 1.4151169 4284320937
-0.16656637 0.25891849 1.4140884 4284189351
-0.16382726 0.25892341 1.4140639 4284058534
-0.16108812 0.25892836 1.4140395 4284255913
-0.15834901 0.25893331 1.4140149 4284321706
-0.1556759 0.25911364 1.4149945 4284321706
-0.15287076 0.2589432 1.4139661 4284387499
-0.15013164 0.25894812 1.4139416 4284387242
-0.14733213 0.25877768 1.4129131 4284452522
-0.14453636 0.25860721 1.4118848 4284452524
-0.14174436 0.25843674 1.4108564 4284452524
-0.13901086 0.25844166 1.4108319 4284452268
-0.13622448 0.25827119 1.4098036 4284189866
-0.13349284 0.2582761 1.4097792 4284190379
-0.13076122 0.25828105 1.4097548 4284321709
-0.1280296 0.25828597 1.4097304 4284386988
-0.12525259 0.25811547 1.4087021 4284387245
-0.12247933 0.25794497 1.407674 4284387245
-0.11970981 0.25777444 1.4066458 4284386988
-0.11698382 0.25777936 1.4066215 4284189866
-0.11425782 0.25778428 1.4065971 4284321195
-0.11153182 0.25778919 1.4065727 4284386989
-0.10877168 0.25761867 1.4055446 4284321453
-0.10604756 0.25762358 1.4055203 4284321453
-0.10329305 0.25745305 1.4044923 4284255916
-0.10059931 0.25763342 1.4054717 4284190380
-0.097875193 0.25763834 1.4054472 4284256172
-0.095151067 0.25764325 1.4054229 4284321965
-0.092426941 0.25764817 1.4053986 4284190379
-0.08972384 0.25782853 1.4063779 4284387758
-0.086997844 0.25783345 1.4063536 4284256172
-0.084271848 0.25783837 1.4063292 4284256172
-0.081530452 0.25766781 1.4053013 4284321965
-0.07879281 0.25749725 1.4042734 4284321965
-0.076058917 0.25732666 1.4032456 4284453038
-0.073338546 0.25733158 1.4032212 4284387245
-0.070626065 0.25751197 1.4042004 4284518831
-0.067903817 0.25751689 1.4041761 4284453038
-0.065181568 0.25752181 1.4041518 4284387502
-0.062459324 0.2575267 1.4041275 4284387758
-0.059737075 0.25753161 1.4041032 4284321965
-0.057016306 0.25736102 1.4030755 4284387758
-0.054292578 0.25754145 1.4040545 4284519344
-0.05157556 0.25737083 1.4030268 4284321965
-0.048855186 0.25737575 1.4030025 4284256172
-0.046134815 0.25738063 1.4029782 4284190379
-0.04341444 0.25738555 1.4029539 4284190379
-0.040694069 0.25739047 1.4029295 4284190379
-0.037973695 0.25739536 1.4029053 4284256172
-0.03525332 0.25740027 1.402881 4284256172
-0.032532949 0.25740519 1.4028567 4284256172
-0.029792348 0.25758564 1.4038357 4284255915
-0.027025895 0.25794163 1.4058177 4284255659
-0.024251943 0.25829765 1.4077998 4284255659
0.36236471 0.2551339 1.3822705 4283335072
0.36505321 0.25513873 1.3822464 4283203486
0.36744401 0.25496754 1.3812217 4283137438
0.36983106 0.25479633 1.3801968 4283137438
0.37221438 0.25462514 1.3791721 4283203231
0.37489724 0.25462997 1.3791481 4283466658
0.37727493 0.25445876 1.3781235 4283203486
0.37964883 0.25428751 1.3770989 4283071900
0.38201901 0.2541163 1.3760743 4283071387
0.38438544 0.25394505 1.3750497 4283071387
0.38737354 0.25412595 1.3760264 4283005594
0.38973621 0.25395471 1.3750019 4283071645
0.39177868 0.25360736 1.3729768 4282940059
0.39381364 0.25326005 1.3709518 4282940314
0.39584112 0.25291267 1.3689268 4282808728
0.39850527 0.25291747 1.368903 4282611349
0.40084544 0.25274619 1.3678787 4282742935
0.40285605 0.25239882 1.3658539 4283006107
0.47010431 0.25164258 1.3602359 4282083971
0.47312987 0.25182354 1.3612124 4282215558
0.47615919 0.2520045 1.3621887 4282478731
0.47919226 0.25218549 1.363165 4282083974
0.48184702 0.25219029 1.3631413 4281886595
0.48450178 0.25219506 1.3631176 4282215560
0.48715654 0.25219986 1.3630939 4282281097
0.4894236 0.25202844 1.3620702 4282281096
0.49207646 0.25203323 1.3620465 4282215304
0.49433792 0.25186178 1.3610228 4282412426
0.49698892 0.25186658 1.3609992 4282346633
0.49963993 0.25187135 1.3609755 4282412428
0.50189388 0.25169992 1.359952 4282215306
0.50454301 0.25170469 1.3599283 4282215562
0.50759292 0.25188571 1.3609045 4282215051
0.51064664 0.25206673 1.3618805 4282149515
0.51410866 0.25242397 1.3638566 4282281101
0.5167653 0.25242877 1.3638327 4282215821
0.51901358 0.25225732 1.3628093 4281821320
0.52166831 0.25226212 1.3627856 4281821577
0.523911 0.25209063 1.361762 4281821578
0.52656388 0.25209543 1.3617383 4281887371
0.52880096 0.25192395 1.3607149 4281756040
0.5601747 0.25180504 1.3594313 4281952906
0.56238365 0.25163352 1.3584081 4282018699
0.56458884 0.25146198 1.3573849 4282150285
0.56634635 0.25111416 1.3553624 4281887111
0.56809634 0.25076628 1.3533399 4281886853
0.56849581 0.24988948 1.3483192 4281886084
-0.28873622 0.25718006 1.391147 4281549646
-0.28651577 0.25771621 1.3941376 4282404957
-0.28397202 0.25789818 1.3951184 4282273884
-0.28127038 0.25790307 1.3950942 4281616467
-0.27856877 0.25790793 1.3950701 4281353298
-0.27631831 0.25844413 1.3980603 4281550420
-0.27479914 0.25986594 1.4060744 4282274144
-0.27339658 0.26146489 1.4150931 4281155664
-0.2673468 0.2607663 1.4110252 4281024079
-0.24276221 0.26081064 1.4108055 4280564043
-0.24027887 0.26116988 1.4127902 4280564554
-0.23754349 0.2611748 1.4127657 4280169795
-0.2349285 0.26135692 1.4137459 4280301381
-0.23219126 0.26136184 1.4137214 4281749597
-0.22945401 0.26136678 1.413697 4283986559
-0.22671677 0.26137173 1.4136726 4284511876
-0.22409241 0.26155382 1.4146526 4284643462
-0.22135329 0.26155877 1.414628 4284511876
-0.21861416 0.26156372 1.4146036 4283853692
-0.21587504 0.26156867 1.4145792 4283065459
-0.21313593 0.26157361 1.4145547 4283066231
-0.21050031 0.26175573 1.4155346 4283331202
-0.20775932 0.26176068 1.4155101 4283461765
-0.20501833 0.26176563 1.4154856 4283594123
-0.20237522 0.26194778 1.4164654 4283725711
-0.19972837 0.26212993 1.4174453 4283857555
-0.19698362 0.26213488 1.4174207 4283923606
-0.19423887 0.26213983 1.4173962 4284055449
-0.19149412 0.26214477 1.4173716 4284121755
-0.1888379 0.26232696 1.4183514 4284253342
-0.18617791 0.26250914 1.4193311 4284187295
-0.18342942 0.26251408 1.4193065 4284318881
-0.18068093 0.26251906 1.419282 4284516516
-0.17777039 0.26216954 1.4172491 4284450467
-0.1749465 0.26199725 1.4162204 4284450468
-0.17220363 0.2620022 1.4161959 4284319653
-0.16946077 0.26200715 1.4161714 4284319911
-0.1667179 0.26201209 1.4161469 4284385959
-0.16390339 0.26183978 1.4151182 4284254628
-0.16116239 0.26184472 1.4150938 4284189093
-0.15848929 0.26202694 1.4160733 4284320680
-0.15581243 0.26220915 1.4170529 4284386473
-0.15306768 0.26221409 1.4170284 4284452522
-0.15026067 0.26204178 1.4159999 4284452522
-0.14745741 0.26186946 1.4149714 4284320679
-0.14465789 0.26169711 1.4139428 4284452266
-0.14191876 0.26170206 1.4139184 4284452265
-0.13917965 0.26170701 1.4138939 4284386472
-0.13644053 0.26171196 1.4138695 4284123814
-0.13365039 0.26153958 1.4128411 4284190120
-0.13091314 0.26154453 1.4128166 4284387499
-0.1281759 0.26154947 1.4127922 4284321449
-0.12539326 0.2613771 1.4117638 4284255913
-0.12261436 0.26120475 1.4107356 4284255913
-0.11983922 0.26103237 1.4097073 4284519086
-0.1171076 0.26103729 1.4096829 4284255402
-0.11433808 0.26086491 1.4086547 4284386731
-0.11160833 0.26086983 1.4086303 4284321195
-0.10884444 0.26069742 1.4076022 4284255659
-0.10611657 0.26070234 1.4075778 4284452524
-0.1033887 0.26070726 1.4075534 4284386988
-0.10066082 0.26071218 1.407529 4284255659
-0.09793295 0.26071712 1.4075047 4284321452
-0.095205076 0.26072204 1.4074804 4284387501
-0.092477202 0.26072696 1.4074559 4284190379
-0.089749329 0.26073188 1.4074316 4284256172
-0.087021463 0.26073679 1.4074072 4284321965
-0.084293589 0.26074171 1.4073828 4284321965
-0.081565715 0.26074663 1.4073584 4284256172
-0.078824319 0.26057419 1.4063305 4284321709
-0.076086678 0.26040176 1.4053025 4284453038
-0.073352776 0.26022929 1.4042747 4284453038
-0.070630528 0.26023421 1.4042504 4284453038
-0.067908287 0.26023912 1.4042261 4284518831
-0.065186039 0.26024404 1.4042017 4284453295
-0.062463786 0.26024896 1.4041774 4284256172
-0.059741937 0.26043123 1.4051565 4284190379
-0.057017814 0.26043615 1.4051322 4284124586
-0.054293692 0.26044106 1.4051079 4284256172
-0.05156957 0.26044598 1.4050835 4284256172
-0.048852548 0.26027349 1.4040558 4284190379
-0.0461303 0.2602784 1.4040315 4284256172
-0.043408051 0.26028332 1.4040072 4284256172
-0.040685803 0.26028824 1.4039829 4284256172
-0.037963554 0.26029313 1.4039586 4284256172
-0.03524131 0.26029804 1.4039342 4284190379
-0.03250071 0.26048037 1.4049132 4284058793
-0.029756363 0.2606627 1.4058921 4284453038
-0.027008265 0.26084504 1.4068711 4284255402
0.35400647 0.25762993 1.3813909 4283335072
0.35937974 0.25763962 1.3813429 4283466658
0.36206636 0.25764444 1.3813189 4283466658
0.36475298 0.2576493 1.3812948 4283269279
0.3671419 0.25747624 1.3802701 4283071900
0.3695271 0.25730315 1.3792453 4283006107
0.37190852 0.25713006 1.3782206 4283203486
0.3742862 0.25695696 1.3771958 4283071900
0.37696531 0.25696179 1.377172 4282874521
0.37903032 0.25661078 1.3751466 4283071387
0.38139674 0.25643766 1.374122 4283005594
0.38375941 0.25626454 1.3730974 4283071387
0.38611835 0.25609142 1.3720729 4282939801
0.38784438 0.25556237 1.369047 4282939802
0.47539821 0.25430125 1.3602372 4281951358
0.47880772 0.25466216 1.3622136 4281885824
0.4814606 0.25466695 1.36219 4281688445
0.48411348 0.25467172 1.3621663 4281820543
0.48676637 0.25467652 1.3621426 4282083460
0.48941925 0.25468129 1.3621188 4282148484
0.49168256 0.25450802 1.3610952 4282214533
0.49394211 0.25433469 1.3600715 4282280327
0.49659124 0.25433949 1.3600478 4282280327
0.49924037 0.25434425 1.3600242 4282148998
0.50149244 0.25417092 1.3590006 4282280585
0.50413972 0.25417572 1.358977 4282411915
0.50718778 0.25435859 1.3599532 4282017415
0.51064229 0.25471959 1.3619293 4282083463
0.51369971 0.25490248 1.3629054 4282280844
0.5163545 0.25490728 1.3628817 4282083976
0.51900923 0.25491205 1.3628579 4282018183
0.52125376 0.25473872 1.3618344 4281755527
0.5234946 0.25456539 1.360811 4281821321
0.52614564 0.25457016 1.3607873 4281887368
0.52838081 0.25439683 1.3597639 4281690248
0.53061223 0.25422347 1.3587404 4281821834
0.53325951 0.25422823 1.3587168 4281887626
0.53548533 0.25405487 1.3576934 4281953419
0.56193912 0.25410259 1.3574572 4282150285
0.56414247 0.25392917 1.356434 4281952904
0.56589806 0.25357759 1.3544114 4281821318
0.56809205 0.25340417 1.3533883 4281952390
0.56804377 0.25233978 1.347368 4281820290
-0.28588864 0.25970006 1.3901675 4282076505
-0.2833524 0.25988391 1.3911483 4282076505
-0.28096655 0.26024672 1.393134 4281484881
-0.27826867 0.26025158 1.3931099 4281616726
-0.27602196 0.26079342 1.3961003 4281814361
-0.27450657 0.26223019 1.4041147 4282208607
-0.23966265 0.26301005 1.4078174 4280102974
-0.23705892 0.26319402 1.4087976 4281550674
-0.23445144 0.26337799 1.4097779 4283919222
-0.23172168 0.26338291 1.4097534 4284708737
-0.22899194 0.26338783 1.409729 4284971397
-0.2262622 0.26339275 1.4097047 4284906117
-0.22353245 0.26339766 1.4096802 4284643459
-0.22091372 0.26358166 1.4106604 4284642432
-0.21829124 0.26376563 1.4116404 4283325032
-0.21566501 0.26394963 1.4126204 4283191652
-0.21292964 0.26395458 1.412596 4283322469
-0.21019426 0.2639595 1.4125715 4283652463
-0.20756054 0.26414353 1.4135516 4284381577
-0.20482329 0.26414844 1.4135271 4284184457
-0.20228182 0.26451156 1.4155114 4283855495
-0.19954082 0.2645165 1.4154869 4283658886
-0.19679983 0.26452145 1.4154624 4283462277
-0.19405884 0.26452637 1.4154379 4283659914
-0.19140823 0.26471043 1.4164177 4283791500
-0.18866536 0.26471537 1.4163933 4284054672
-0.18600914 0.2648994 1.4173729 4284120978
-0.18326439 0.26490438 1.4173485 4284186517
-0.18051964 0.26490933 1.4173239 4284318104
-0.17761286 0.26455605 1.415291 4284515485
-0.17479272 0.26438189 1.4142623 4284515742
-0.17205359 0.26438683 1.4142379 4284252828
-0.16938987 0.26457089 1.4152175 4284253342
-0.16664888 0.26457581 1.4151931 4284450721
-0.16390787 0.26458076 1.4151685 4284384929
-0.16116688 0.2645857 1.4151441 4284450979
-0.15849379 0.26476979 1.4161236 4284385700
-0.15575092 0.26477474 1.4160992 4284320165
-0.15300804 0.26477969 1.4160746 4284451752
-0.1502029 0.26460549 1.4150461 4284583595
-0.1474015 0.2644313 1.4140176 4284452009
-0.14460386 0.26425707 1.4129891 4284452009
-0.14186661 0.26426202 1.4129647 4284320680
-0.13918413 0.26444611 1.4139441 4284320936
-0.13644502 0.26445106 1.4139197 4284255143
-0.1337059 0.264456 1.4138952 4284254886
-0.13096678 0.26446092 1.4138708 4284255656
-0.12818038 0.2642867 1.4128424 4284255913
-0.12544313 0.26429164 1.412818 4284255656
-0.12266237 0.26411739 1.4117895 4284386728
-0.11988535 0.26394314 1.4107612 4284321192
-0.11715185 0.26394808 1.4107368 4284387243
-0.11434256 0.26359463 1.4087048 4284320938
-0.11161281 0.26359954 1.4086804 4284321195
-0.10884891 0.26342529 1.4076521 4284321452
-0.10612104 0.26343021 1.4076278 4284452524
-0.10339317 0.26343513 1.4076035 4284320938
-0.10069382 0.26361924 1.4085828 4284386731
-0.097964071 0.26362419 1.4085585 4284518574
-0.095234327 0.26362911 1.408534 4284584367
-0.09248168 0.26345482 1.407506 4284255659
-0.089753807 0.26345974 1.4074816 4284190122
-0.087025933 0.26346466 1.4074572 4284387501
-0.084298059 0.26346958 1.4074329 4284387245
-0.081570186 0.26347449 1.4074085 4284255659
-0.078828789 0.26330018 1.4063805 4284255659
-0.076091141 0.26312587 1.4053526 4284387245
-0.073367022 0.26313078 1.4053282 4284387245
-0.070634998 0.26295644 1.4043003 4284255659
-0.067906722 0.26278213 1.4032724 4284387245
-0.065186352 0.26278701 1.4032482 4284387501
-0.062468253 0.26297119 1.4042274 4284256172
-0.059746005 0.26297608 1.4042031 4284124586
-0.057022281 0.26316026 1.4051822 4284124586
-0.054298159 0.26316518 1.4051578 4284256172
-0.051574036 0.26317009 1.4051335 4284256172
-0.048849914 0.26317501 1.4051092 4284124586
-0.046125792 0.26317993 1.4050848 4284190379
-0.04340167 0.26318482 1.4050605 4284256172
-0.040690269 0.26301047 1.4040328 4284124842
-0.037968021 0.26301536 1.4040085 4284124585
-0.035245772 0.26302028 1.4039842 4284058534
-0.032505177 0.26320449 1.4049631 4283992741
-0.029760834 0.26338869 1.4059421 4284255143
-0.027034836 0.26339361 1.4059178 4284189350
-0.02433281 0.26321924 1.4048902 4284255143
-0.021608686 0.26322412 1.4048657 4284189350
0.3516019 0.26049146 1.3824651 4283466403
0.35400206 0.26031652 1.3814402 4283400865
0.35639849 0.26014161 1.3804153 4283269279
0.35908327 0.26014644 1.3803914 4283269279
0.36176801 0.2601513 1.3803673 4283203486
0.36445275 0.26015612 1.3803433 4283269279
0.36683983 0.25998119 1.3793185 4283006107
0.36922312 0.25980622 1.3782938 4283203486
0.37160268 0.25963125 1.377269 4283269279
0.3739785 0.25945628 1.3762443 4283137180
0.37604535 0.25910151 1.3742188 4282940314
0.37810472 0.25874668 1.3721935 4282940314
0.37984762 0.25821206 1.3691673 4283005594
0.38220093 0.25803706 1.3681428 4283202203
0.47614205 0.25605544 1.3552617 4281619827
0.47954595 0.25642008 1.3572382 4281686900
0.48334125 0.25696471 1.3602148 4281491060
0.4863762 0.25714943 1.3611912 4281556341
0.4886395 0.25697425 1.3601675 4281753208
0.49128863 0.25697905 1.3601438 4281753466
0.49354634 0.25680384 1.3591201 4281950846
0.49619359 0.25680864 1.3590965 4281819517
0.49884084 0.25681341 1.3590728 4281687933
0.50148809 0.25681818 1.3590492 4281885569
0.50413537 0.25682294 1.3590255 4281885569
0.50678259 0.25682774 1.3590019 4281688189
0.50983256 0.25701249 1.3599781 4282082691
0.51288623 0.25719726 1.3609543 4282017670
0.51553726 0.25720203 1.3609307 4282017669
0.51818824 0.25720683 1.360907 4281886339
0.52042907 0.25703159 1.3598834 4281755013
0.52266616 0.25685638 1.35886 4281886598
0.52531338 0.25686115 1.3588363 4281821317
0.52796066 0.25686592 1.3588127 4281755527
0.53060788 0.25687072 1.358789 4281887111
0.53325516 0.25687549 1.3587654 4281952904
0.53590244 0.25688025 1.3587418 4282018441
0.53854966 0.25688502 1.358718 4282018697
0.5416221 0.25706983 1.3596941 4282018696
0.56149459 0.2565679 1.3565061 4282084491
0.56413811 0.25657266 1.3564825 4281887111
0.56589377 0.25621733 1.3544598 4281689732
0.5680877 0.25604203 1.3534367 4282018183
0.56759179 0.25478634 1.3464167 4281951875
-0.28573516 0.26221144 1.3892119 4281813589
-0.28335682 0.26257801 1.3911978 4282076248
-0.28097096 0.26294458 1.3931835 4282076507
-0.27842537 0.26313031 1.3941643 4282208349
-0.27617678 0.26367775 1.3971548 4282274142
-0.274214 0.26458696 1.4021549 4281155403
-0.23681885 0.26556006 1.4068384 4285563532
-0.23421513 0.26574588 1.4078187 4285366407
-0.23160765 0.26593173 1.4087989 4285300614
-0.22887978 0.26593664 1.4087746 4285037442
-0.2261519 0.26594156 1.4087502 4284313976
-0.22353692 0.26612741 1.4097303 4282471002
-0.22091819 0.26631325 1.4107105 4281878865
-0.21829572 0.26649913 1.4116906 4281484107
-0.2156695 0.26668501 1.4126706 4282010451
-0.21293412 0.26668993 1.4126462 4283128164
-0.21019875 0.26669487 1.4126217 4285233542
-0.20746337 0.26669979 1.4125973 4285366155
-0.20472801 0.26670474 1.4125729 4285104012
-0.20199263 0.26670966 1.4125484 4285170063
-0.19925725 0.2667146 1.412524 4285039505
-0.19652189 0.26671955 1.4124995 4284842127
-0.19387878 0.26690543 1.4134794 4284776336
-0.19123194 0.26709133 1.4144593 4284644750
-0.18858133 0.26727724 1.4154392 4284578957
-0.18584034 0.26728219 1.4154147 4284447886
-0.18309934 0.26728714 1.4153903 4284316300
-0.18027546 0.26711109 1.4143615 4284316301
-0.17745531 0.26693505 1.4133328 4284382609
-0.17471807 0.26694 1.4133083 4284119694
-0.17198081 0.26694494 1.4132838 4284054157
-0.16924357 0.26694986 1.4132594 4284382867
-0.16650632 0.26695481 1.4132349 4284448917
-0.16376908 0.26695976 1.4132105 4284515224
-0.16110161 0.26714569 1.4141902 4284515739
-0.15843038 0.26733163 1.4151698 4284515996
-0.15568939 0.26733658 1.4151454 4284384669
-0.15288424 0.26716051 1.4141167 4284516257
-0.15014511 0.26716545 1.4140923 4284648100
-0.1473456 0.26698938 1.4130638 4284713893
-0.14460835 0.2669943 1.4130393 4284582307
-0.14192775 0.26718026 1.4140189 4284582820
-0.13913386 0.26700419 1.4129905 4284648870
-0.13639662 0.26700911 1.412966 4284452006
-0.13365936 0.26701406 1.4129415 4284254884
-0.13092212 0.267019 1.412917 4284254885
-0.12818487 0.26702392 1.4128926 4284320679
-0.12544763 0.26702887 1.4128681 4284255143
-0.12271038 0.26703382 1.4128437 4284255143
-0.11997313 0.26703873 1.4128193 4284189863
-0.11719611 0.26686263 1.4117908 4284387243
-0.11442284 0.2666865 1.4107625 4284387243
-0.11168934 0.26669142 1.4107381 4284321450
-0.10895584 0.26669636 1.4107138 4284387242
-0.10622235 0.26670128 1.4106894 4284518315
-0.10351925 0.26688731 1.4116687 4284320936
-0.10081241 0.2670733 1.4126481 4284386729
-0.098075159 0.26707825 1.4126236 4284518315
-0.095313132 0.26690209 1.4115953 4284518315
-0.09255486 0.26672593 1.4105672 4284452522
-0.089821361 0.26673087 1.4105428 4284452779
-0.087087862 0.26673579 1.4105184 4284387243
-0.084354371 0.26674074 1.410494 4284321706
-0.081620872 0.26674566 1.4104695 4284255914
-0.078887373 0.2667506 1.4104451 4284321451
-0.076142222 0.26657441 1.409417 4284255659
-0.0734106 0.26657933 1.4093926 4284386988
-0.070671074 0.26640314 1.4083647 4284321452
-0.067929268 0.26604584 1.4063331 4284189866
-0.065203272 0.26605076 1.4063088 4284190122
-0.062477276 0.26605567 1.4062843 4284058536
-0.059751682 0.26624173 1.4072635 4284124586
-0.057023808 0.26624665 1.4072392 4284058536
-0.054292593 0.2664327 1.4082183 4283993257
-0.051562846 0.26643762 1.4081939 4284059050
-0.048833098 0.26644254 1.4081695 4284124585
-0.046112321 0.26626632 1.4071417 4284190121
-0.043384448 0.26627123 1.4071174 4284124584
-0.040669296 0.26609501 1.4060895 4283993255
-0.037943296 0.26609993 1.4060652 4283992998
-0.0352173 0.26610485 1.4060408 4284058791
-0.0324913 0.26610976 1.4060165 4283992741
-0.029765304 0.26611468 1.4059922 4284255143
-0.027061399 0.26593843 1.4049644 4284189350
-0.024361245 0.26576215 1.4039367 4284057764
-0.021638997 0.26576707 1.4039124 4283991971
-0.018916748 0.26577199 1.4038881 4283991971
-0.016224094 0.2655957 1.4028605 4284057764
-0.013535188 0.26541942 1.4018331 4283926178
-0.010816689 0.26542434 1.4018087 4283926435
0.34919354 0.26335675 1.3835394 4283269537
0.35159749 0.26317996 1.3825145 4283334817
0.35428599 0.26318479 1.3824904 4283269279
0.35639411 0.26282632 1.3804646 4283400865
0.35907885 0.26283118 1.3804406 4283203486
0.36146966 0.26265436 1.3794156 4283269279
0.36415255 0.26265919 1.3793917 4283203486
0.36683542 0.26266405 1.3793677 4283137693
0.36891916 0.26230553 1.3773421 4283335072
0.37069395 0.26176533 1.3743156 4283006107
0.37276083 0.26140681 1.3722901 4283202973
0.37420982 0.26068491 1.368263 4283202973
0.4810333 0.25852287 1.3542628 4281356135
0.48482862 0.25907311 1.3572395 4281290854
0.48785982 0.2592597 1.3582159 4281093735
0.49011561 0.25908265 1.3571923 4281423214
0.49236768 0.25890559 1.3561686 4281094506
0.49500933 0.25891036 1.356145 4281423731
0.49765095 0.2589151 1.3561214 4281490037
0.49989554 0.25873804 1.3550978 4281358453
0.50253528 0.25874278 1.3550743 4281490295
0.50517505 0.25874755 1.3550507 4281424502
0.50781482 0.25875232 1.3550271 4281490295
0.51126367 0.25912079 1.3570033 4281753469
0.51390719 0.25912556 1.3569797 4281951105
0.51655066 0.25913033 1.3569561 4281885312
0.51878399 0.25895324 1.3559326 4281885568
0.5214256 0.25895798 1.355909 4281820033
0.52406728 0.25896275 1.3558854 4281754754
0.5271247 0.2591494 1.3568616 4281952389
0.53060359 0.25951794 1.3588376 4281952389
0.53325081 0.25952271 1.3588139 4281820547
0.53547662 0.25934559 1.3577905 4281820803
0.538122 0.25935039 1.3577669 4281952391
0.54119259 0.25953704 1.358743 4281952390
0.54383981 0.25954181 1.3587193 4281820804
0.56149024 0.25921139 1.3565546 4281754753
0.56413376 0.25921616 1.356531 4281952132
0.56588942 0.25885707 1.3545083 4281755009
0.56808335 0.2586799 1.3534851 4282017411
0.56758749 0.25741109 1.3464649 4281951104
-0.2830492 0.26490667 1.3892373 4281878614
-0.2806671 0.26527697 1.3912231 4281286990
-0.27812526 0.26546457 1.3922039 4281352781
-0.27573004 0.2658349 1.3941897 4281484367
-0.22841766 0.26793331 1.4048061 4285497992
-0.22569728 0.26793823 1.4047819 4285234821
-0.22308981 0.26812592 1.4057622 4285629066
-0.22047858 0.26831365 1.4067423 4285694859
-0.21797276 0.26868418 1.4087272 4285036929
-0.21535216 0.2688719 1.4097073 4284971136
-0.2126224 0.26887685 1.4096829 4285892238
-0.20989266 0.26888177 1.4096586 4285629068
-0.20716292 0.26888669 1.4096341 4285629068
-0.20453294 0.26907444 1.4106141 4285629325
-0.20180131 0.26907936 1.4105898 4285432461
-0.19906969 0.2690843 1.4105654 4285498768
-0.19633807 0.26908922 1.4105409 4285235598
-0.19360645 0.26909414 1.4105165 4285367697
-0.19087483 0.26909909 1.4104922 4285367697
-0.18823174 0.26928684 1.4114721 4285367954
-0.18549824 0.26929179 1.4114476 4285302420
-0.18276474 0.26929671 1.4114232 4285105040
-0.17994834 0.26911879 1.4103945 4285170835
-0.17721672 0.2691237 1.4103701 4285171091
-0.1744851 0.26912865 1.4103457 4284973969
-0.17175348 0.26913357 1.4103214 4284776591
-0.16902186 0.26913849 1.4102969 4284711056
-0.16629024 0.26914343 1.4102725 4284513677
-0.16355862 0.26914835 1.4102482 4284448142
-0.16089676 0.26933616 1.4112279 4284448400
-0.15816326 0.26934108 1.4112035 4284317328
-0.15542977 0.26934603 1.4111791 4284054414
-0.15263212 0.26916805 1.4101505 4284185745
-0.1499005 0.269173 1.4101261 4284186259
-0.14710848 0.26899502 1.4090976 4284383639
-0.14443725 0.26918283 1.4100773 4284384153
-0.14170563 0.26918778 1.4100529 4284515995
-0.13897401 0.2691927 1.4100285 4284515996
-0.13624239 0.26919761 1.410004 4284516511
-0.13351077 0.26920256 1.4099797 4284451231
-0.13077915 0.26920748 1.4099553 4284451232
-0.12804753 0.26921239 1.4099308 4284451490
-0.12536131 0.26940027 1.4109104 4284386211
-0.12262781 0.26940519 1.410886 4284517540
-0.11985265 0.26922718 1.4098576 4284517284
-0.11712103 0.26923212 1.4098332 4284517027
-0.11435151 0.26905411 1.4088049 4284451748
-0.11162176 0.26905903 1.4087806 4284385957
-0.10889202 0.26906395 1.4087561 4284517543
-0.10619455 0.26925182 1.4097356 4284583336
-0.10352374 0.26962265 1.4117188 4284518056
-0.10081689 0.26981053 1.4126983 4284583849
-0.098079644 0.26981547 1.4126738 4284452264
-0.095342398 0.26982042 1.4126494 4284583850
-0.092605151 0.26982534 1.4126248 4284583595
-0.089846879 0.26964733 1.4115967 4284583595
-0.087111503 0.26965225 1.4115722 4284583595
-0.084376134 0.26965719 1.4115478 4284517802
-0.081640758 0.26966211 1.4115233 4284386473
-0.078905389 0.26966706 1.4114989 4284386472
-0.07617002 0.26967201 1.4114745 4284452267
-0.073434643 0.26967692 1.41145 4284583853
-0.070699275 0.26968187 1.4114256 4284649131
-0.067957871 0.2695038 1.4103975 4284451496
-0.065220214 0.26932573 1.4093696 4284517803
-0.062488593 0.26933065 1.4093451 4284452010
-0.059756972 0.2693356 1.4093207 4284254374
-0.057025351 0.26934052 1.4092964 4284254629
-0.054293726 0.26934543 1.409272 4284058020
-0.051556889 0.2695334 1.410251 4284190119
-0.04882339 0.26953831 1.4102266 4284124070
-0.046089895 0.26954323 1.4102021 4284189606
-0.043356396 0.26954818 1.4101778 4284123814
-0.040622901 0.2695531 1.4101534 4283926948
-0.037903994 0.269375 1.4091254 4284123813
-0.035188839 0.2691969 1.4080976 4284058021
-0.032459091 0.26920182 1.4080733 4283991971
-0.029749559 0.26902369 1.4070455 4283991971
-0.027043777 0.26884559 1.4060178 4283926178
-0.024341743 0.26866743 1.4049901 4283991971
-0.021617621 0.26867235 1.4049658 4283794592
-0.018921213 0.26849422 1.4039381 4283728799
-0.016228555 0.26831606 1.4029105 4283860385
-0.013539645 0.2681379 1.4018829 4283860385
-0.010854486 0.26795974 1.4008553 4283860385
-0.0081378622 0.26796463 1.4008311 4283728799
0.34890458 0.2658636 1.3825878 4283072415
0.35159308 0.26586843 1.3825638 4283334817
0.35399327 0.26568976 1.3815387 4283137438
0.3563897 0.26551107 1.3805138 4283071645
0.35878238 0.26533237 1.3794888 4283137438
0.36117131 0.26515368 1.378464 4283005852
0.36385232 0.26515853 1.37844 4283071900
0.36653331 0.26516336 1.3784161 4283071900
0.36831564 0.26461756 1.3753895 4283006107
0.36978525 0.26388818 1.3713621 4282940314
0.3718465 0.26352587 1.3693365 4283137693
0.48250943 0.2606144 1.3512872 4280696143
0.48591706 0.26098657 1.353264 4281223004
0.4881635 0.2608076 1.3522403 4281026655
0.49040622 0.26062864 1.3512167 4280830046
0.49303848 0.26063338 1.3511932 4280830048
0.49567074 0.26063815 1.3511697 4281159527
0.49750885 0.26027542 1.3491461 4281028200
0.50013739 0.26028019 1.3491226 4281225836
0.50196427 0.25991747 1.3470992 4281158239
0.50458902 0.25992221 1.3470758 4281092958
0.50761837 0.26011068 1.3480523 4281158493
0.51065141 0.26029915 1.3490287 4281158753
0.51327991 0.26030388 1.3490052 4281093730
0.51590842 0.26030862 1.3489817 4281422697
0.51894897 0.26049712 1.3499582 4281554544
0.52199328 0.26068562 1.3509345 4281555314
0.52545714 0.26105788 1.3529108 4281686901
0.52892852 0.26143014 1.3548868 4281622139
0.53156829 0.26143491 1.3548633 4281621883
0.534208 0.26143968 1.3548397 4281687933
0.53727108 0.26162821 1.3558159 4281819263
0.54033786 0.26181674 1.356792 4281556349
0.54340845 0.2620053 1.3577682 4281819776
0.56148595 0.26185489 1.356603 4281688446
0.56412941 0.26185966 1.3565794 4281754239
0.56588507 0.26149681 1.3545567 4281753213
0.56763327 0.26113394 1.3525339 4281687933
0.5675832 0.26003581 1.346513 4281752955
-0.21471298 0.27049354 1.40373 4285695372
-0.21209988 0.27068311 1.4047103 4285761422
-0.20937951 0.27068803 1.404686 4285564043
-0.20686243 0.27106231 1.4066707 4285761165
-0.20413831 0.27106723 1.4066464 4285695372
-0.2015121 0.27125686 1.4076265 4285761165
-0.19878609 0.27126178 1.4076021 4285695118
-0.19606011 0.2712667 1.4075778 4285629838
-0.19324182 0.2710869 1.406549 4285629838
-0.19051771 0.27109182 1.4065247 4285761424
-0.18788211 0.27128145 1.4075047 4285695631
-0.18506946 0.27110162 1.406476 4285695633
-0.18234533 0.27110654 1.4064516 4285827219
-0.1796212 0.27111146 1.4064273 4285695890
-0.17689709 0.27111638 1.4064029 4285564561
-0.17417297 0.27112129 1.4063786 4285564561
-0.17144884 0.27112621 1.4063543 4285565074
-0.16872472 0.27113113 1.40633 4285565076
-0.16600059 0.27113605 1.4063056 4285565333
-0.16334812 0.27132571 1.4072855 4285368212
-0.16069192 0.27151537 1.4082654 4285302676
-0.15789613 0.27133554 1.4072368 4285237141
-0.1551041 0.27115569 1.4062083 4285039763
-0.15231583 0.27097583 1.4051797 4285039508
-0.1495313 0.27079597 1.4041513 4284776850
-0.14675052 0.27061611 1.4031228 4284711058
-0.14409055 0.27080581 1.4041027 4284580243
-0.14137018 0.27081069 1.4040784 4284645779
-0.13864981 0.27081561 1.404054 4284514449
-0.13587652 0.27063572 1.4030257 4284383120
-0.13315803 0.27064064 1.4030014 4284317585
