# .PCD v0.7 - Point Cloud Data file format
VERSION 0.7
FIELDS x y z rgba
SIZE 4 4 4 4
TYPE F F F U
COUNT 1 1 1 1
WIDTH 88
HEIGHT 1
VIEWPOINT 0 0 0 1 0 0 0
POINTS 88
DATA ascii
-0.28269625 0.26379398 0.862104 4279507732
-0.28221545 0.2652348 0.86712712 4279441939
-0.28340915 0.26433554 0.85811949 4279639318
-0.28245285 0.26520687 0.8611275 4279376146
-0.28221825 0.26694652 0.86715853 4279573525
-0.28266776 0.26515648 0.85512727 4279573525
-0.28171709 0.26603341 0.8581354 4279573525
-0.28148812 0.2677843 0.86416674 4279639318
-0.28002447 0.26807868 0.86515921 4279639318
-0.27855706 0.2683731 0.86615163 4279705111
-0.27708593 0.26866749 0.86714405 4279310353
-0.28217438 0.26625934 0.85314262 4279638805
-0.28147367 0.26743507 0.85715872 4279638805
-0.28100228 0.26890403 0.86218244 4279704598
-0.27929994 0.2689071 0.86216724 4279704598
-0.27759761 0.26891017 0.86215204 4279507733
-0.27613395 0.26920643 0.86314458 4279376146
-0.28217715 0.26794478 0.85317355 4279638805
-0.28147644 0.26912805 0.85718977 4279638805
-0.28076077 0.27031133 0.86120588 4279638805
-0.27857539 0.26972425 0.85917509 4279638805
-0.27663812 0.26943228 0.85815221 4279441939
-0.27518198 0.26973039 0.85914481 4279573525
-0.27466935 0.27120879 0.86416835 4279573525
-0.28193185 0.26933333 0.85219657 4279638805
-0.28123304 0.27052408 0.85621297 4279704598
-0.28003058 0.271121 0.85821354 4279704598
-0.27809328 0.27082711 0.85719061 4279573012
-0.27591917 0.27023628 0.85515982 4279376146
-0.27446866 0.27053627 0.85615253 4279507476
-0.27372485 0.27172709 0.86016852 4279441426
-0.28243074 0.27161452 0.85424328 4279507219
-0.28148201 0.27251396 0.85725188 4279770391
-0.28003335 0.27281582 0.85824466 4279770391
-0.27736872 0.27162364 0.8541981 4279638805
-0.27495965 0.27073026 0.85115945 4279441939
-0.27351663 0.27103209 0.85215229 4279639318
-0.27254352 0.27193159 0.85516065 4279310353
-0.28243351 0.27330184 0.85427427 4279507219
-0.28148478 0.27420691 0.85728294 4279639318
-0.2797918 0.27420998 0.85726786 4279705111
-0.27688658 0.27270961 0.85221326 4279507732
-0.27424067 0.27150992 0.8481667 4279507732
-0.27280328 0.27181363 0.8491596 4279441939
-0.2718358 0.27271873 0.85216808 4279244559
-0.28169203 0.27408153 0.85128129 4279507732
-0.28124136 0.27559733 0.85630608 4279639318
-0.27930593 0.27529782 0.85528302 4279639318
-0.27616197 0.27348551 0.84922034 4279639318
-0.27376226 0.27258086 0.84618163 4279507732
-0.2720899 0.27258387 0.84616667 4279441938
-0.27160171 0.27409974 0.8511911 4279244559
-0.2814467 0.27545884 0.85030413 4279639318
-0.2809979 0.27698398 0.8553291 4279639318
-0.27906436 0.27668262 0.85430598 4279507731
-0.27616471 0.2751635 0.84925109 4279507731
-0.273765 0.27425322 0.84621227 4279376145
-0.27209264 0.27425623 0.84619737 4279441938
-0.27160448 0.27578145 0.85122198 4279112973
-0.28020903 0.27560717 0.84529471 4279836697
-0.27903098 0.2762228 0.84729582 4279770904
-0.27735677 0.27622581 0.84728086 4279770903
-0.27519763 0.27561623 0.84524989 4279507731
-0.27280536 0.27470031 0.84221107 4279573524
-0.27114055 0.27470329 0.84219617 4279441938
-0.27996367 0.27696946 0.84431726 4279639318
-0.27903372 0.277897 0.84732652 4279705111
-0.27687082 0.27728367 0.84529549 4279441939
-0.27423048 0.27605397 0.84124845 4279507731
-0.27232692 0.27574876 0.84022558 4279639317
-0.27042711 0.27544358 0.8392027 4279178766
-0.27996641 0.27863806 0.84434783 4279836697
-0.27879027 0.27926117 0.84634918 4279639318
-0.27614054 0.27802396 0.84230191 4279441939
-0.27350581 0.27678674 0.83825475 4279639317
-0.27184847 0.27678972 0.83823991 4279507731
-0.2701911 0.27679273 0.83822513 4279178766
-0.27972105 0.27999473 0.84337032 4279836697
-0.27830055 0.28030965 0.84436357 4279573525
-0.27565455 0.27906495 0.84031618 4279376146
-0.27302358 0.27782023 0.83626896 4279573524
-0.27136999 0.27782321 0.83625418 4279244559
-0.28039059 0.28040326 0.83938301 4279836443
-0.27947569 0.28134763 0.84239268 4280099358
-0.27756462 0.28103685 0.84136969 4279573012
-0.27492425 0.27978462 0.83732218 4279441426
-0.27873409 0.28206545 0.83939862 4279836186
-0.27707487 0.28206846 0.83938378 4279375633
