# .PCD v0.7 - Point Cloud Data file format
VERSION 0.7
FIELDS x y z rgba
SIZE 4 4 4 4
TYPE F F F U
COUNT 1 1 1 1
WIDTH 81
HEIGHT 1
VIEWPOINT 0 0 0 1 0 0 0
POINTS 81
DATA ascii
-0.23441982 0.21121395 1.1957771 4284782518
-0.2320894 0.21121815 1.1957562 4284782518
-0.23908445 0.21353593 1.1958615 4284650932
-0.23689692 0.21370976 1.1968452 4284716725
-0.23470563 0.21388359 1.1978289 4284848311
-0.23237148 0.21388781 1.197808 4284716725
-0.22990006 0.21372238 1.1967827 4284716725
-0.22756778 0.2137266 1.1967618 4284716469
-0.23937778 0.21620932 1.1979134 4284650675
-0.23718649 0.21638504 1.1988972 4284585139
-0.23499146 0.21656075 1.199881 4284716725
-0.23251443 0.21639346 1.1988555 4284782518
-0.22990389 0.21605466 1.1968255 4284782261
-0.22743623 0.21588735 1.1958001 4284716725
-0.23923685 0.21837009 1.1969516 4284453040
-0.23704745 0.21854769 1.1979355 4284518833
-0.2348543 0.21872526 1.1989192 4284584626
-0.23237912 0.21855611 1.1978937 4284650419
-0.22963321 0.21804015 1.194859 4284716212
-0.22730467 0.21804436 1.1948382 4284782518
-0.23938544 0.22087762 1.1979991 4284387246
-0.23485813 0.22106129 1.1989621 4284518832
-0.23238295 0.22089025 1.1979365 4284584626
-0.22977428 0.22054394 1.1959064 4284782004
-0.2273085 0.22037289 1.194881 4284585137
-0.22484645 0.22020182 1.1938555 4284585139
-0.23472095 0.22322018 1.1980002 4284584624
-0.23224765 0.22304727 1.1969746 4284650417
-0.22977811 0.22287434 1.1959491 4284584881
-0.22731231 0.2227014 1.1949236 4284585137
-0.22498378 0.2227056 1.1949028 4284519344
-0.23458377 0.22537532 1.1970383 4284519088
-0.23211233 0.22520053 1.1960127 4284453551
-0.22964466 0.22502573 1.1949872 4284585137
-0.22731613 0.22502993 1.1949663 4284453551
-0.2249876 0.22503413 1.1949456 4284650930
-0.2227907 0.22521734 1.1959294 4284716210
-0.23225529 0.22771181 1.1970602 4284387758
-0.22992301 0.22771601 1.1970394 4284321965
-0.22745533 0.22753933 1.1960138 4284453551
-0.22512493 0.22754355 1.1959929 4284585137
-0.22292617 0.22772864 1.1969769 4284518831
-0.23006411 0.23023105 1.198087 4284321452
-0.22759455 0.2300525 1.1970613 4284453294
-0.22512875 0.22987394 1.1960357 4284584624
-0.22292998 0.23006091 1.1970197 4284781489
-0.23020521 0.23274983 1.1991346 4284386988
-0.22773378 0.23256941 1.1981089 4284189866
-0.2252661 0.23238897 1.1970832 4284518317
-0.22280216 0.23220854 1.1960577 4284452781
-0.22060153 0.23239739 1.1970416 4284518317
-0.21839714 0.23258625 1.1980255 4284387246
-0.23034632 0.23527236 1.2001823 4284321452
-0.22787301 0.23509006 1.1991566 4284386988
-0.22526993 0.23472124 1.197126 4284518574
-0.22280599 0.23453894 1.1961005 4284518317
-0.22047557 0.23454314 1.1960796 4284452524
-0.23240975 0.23722927 1.1982362 4284189609
-0.23021287 0.23742187 1.1992203 4284255402
-0.22760603 0.23704931 1.1971897 4284584110
-0.22514021 0.23686513 1.196164 4284584110
-0.22267815 0.23668094 1.1951383 4284518317
-0.22021984 0.23649675 1.1941127 4284584110
-0.23007943 0.23956764 1.1982583 4284386731
-0.22760986 0.23938158 1.1972325 4284584110
-0.2250105 0.23900527 1.1952019 4284584110
-0.22255032 0.2388192 1.1941762 4284386731
-0.22022365 0.2388234 1.1941553 4284321195
-0.22994596 0.24170965 1.1972961 4284386731
-0.22747827 0.24152172 1.1962703 4284518317
-0.22488078 0.24114165 1.1942396 4284584110
-0.22242247 0.2409537 1.1932139 4284321452
-0.22022747 0.24115004 1.1941981 4284255659
-0.22967522 0.24365391 1.195329 4284386731
-0.22734667 0.24365811 1.1953081 4284386731
-0.2248846 0.2434683 1.1942823 4284255402
-0.22242628 0.24327847 1.1932566 4284321452
-0.22981632 0.24617831 1.1963767 4284452522
-0.22748591 0.24618252 1.1963558 4284320936
-0.22502196 0.24599083 1.19533 4284124327
-0.22735432 0.24831516 1.1953936 4284320936
