# .PCD v0.7 - Point Cloud Data file format
VERSION 0.7
FIELDS x y z rgba
SIZE 4 4 4 4
TYPE F F F U
COUNT 1 1 1 1
WIDTH 81
HEIGHT 1
VIEWPOINT 0 0 0 1 0 0 0
POINTS 81
DATA ascii
0.30713481 0.36623469 0.86969501 4289967791
0.30885777 0.36623779 0.86967957 4289967791
0.31098306 0.36663648 0.87066805 4289901998
0.3127079 0.36663961 0.87065262 4289901998
0.31483883 0.36703831 0.87164104 4289967791
0.30250156 0.36675909 0.86674553 4289902512
0.30342549 0.36596727 0.86472231 4290033584
0.30553767 0.36636782 0.86571091 4289836205
0.30765358 0.36676839 0.86669952 4289901998
0.30977327 0.36716893 0.86768806 4289967791
0.31189668 0.36756951 0.86867654 4289901998
0.31361777 0.36757261 0.86866117 4289901998
0.31615478 0.36837065 0.87065345 4289967791
0.30302599 0.36728153 0.86374974 4290033584
0.30513626 0.36768395 0.8647384 4290033584
0.30725032 0.36808637 0.86572707 4289967791
0.3093681 0.36848882 0.86671567 4289967791
0.31108546 0.36849192 0.86670029 4289901998
0.31280279 0.36849502 0.86668497 4289967791
0.31492808 0.36889744 0.86767352 4289967791
0.31746694 0.36969924 0.86966586 4289836462
0.30222979 0.36819085 0.86177313 4290165170
0.30473489 0.36899632 0.8637659 4290033584
0.30724752 0.36980185 0.86575854 4289901998
0.3093653 0.37020615 0.86674714 4289967791
0.31067842 0.36980802 0.8657279 4289967791
0.31198782 0.36940989 0.8647086 4289967791
0.31370142 0.36941299 0.86469334 4289901998
0.31541502 0.36941609 0.86467803 4289770669
0.31754029 0.36982042 0.86566657 4289770926
0.30222699 0.3698988 0.86180449 4289968048
0.30473208 0.37070805 0.86379731 4289967791
0.30684423 0.37111422 0.86478597 4290033584
0.30936247 0.37192348 0.86677867 4290033584
0.31027144 0.37112039 0.86475539 4289967791
0.31117287 0.37031731 0.86273217 4290033584
0.31288272 0.37032038 0.86271685 4289967791
0.31377292 0.36951727 0.86069375 4289901998
0.31547901 0.36952034 0.86067849 4289836462
0.31759867 0.36992654 0.86166716 4289836462
0.30143079 0.37079686 0.8598277 4290033841
0.30393213 0.37160984 0.86182058 4290033584
0.30684143 0.3728278 0.86481744 4289967791
0.30895734 0.37323585 0.86580616 4289967791
0.31026861 0.37283397 0.8647868 4289967791
0.31076401 0.37162217 0.86175954 4289901998
0.31206402 0.37122026 0.8607403 4289901998
0.31295049 0.37041339 0.85871714 4290033584
0.31424114 0.37001151 0.85769802 4289968048
0.31635517 0.37041953 0.85868675 4289836719
0.31805751 0.3704226 0.85867155 4289836719
0.30103132 0.37209424 0.85885483 4290033584
0.30353078 0.37291098 0.86084783 4290033584
0.3056373 0.37332088 0.86183661 4290099377
0.3077476 0.37373081 0.86282545 4290033584
0.30945742 0.37373388 0.86281013 4289901998
0.30994907 0.37251642 0.85978281 4289967791
0.31124535 0.37211266 0.85876358 4290033584
0.31212807 0.37130204 0.85674042 4290033584
0.3130033 0.37049139 0.85471725 4290033584
0.31469813 0.37049446 0.85470212 4289902255
0.31639299 0.37049749 0.85468698 4289770926
0.30613554 0.37380579 0.85884047 4289967791
0.30783787 0.37380886 0.85882521 4290033584
0.30913416 0.37340322 0.85780597 4289967791
0.31042671 0.37299755 0.85678673 4290033584
0.31130567 0.37218317 0.85476351 4290099377
0.31258884 0.3717775 0.85374433 4290033584
0.31428179 0.37178054 0.85372925 4290033841
0.31597477 0.37178361 0.85371411 4289836719
0.30750716 0.37346131 0.8538208 4290165170
0.30920011 0.37346435 0.85380566 4290165170
0.31048328 0.3730568 0.85278648 4290033584
0.31176269 0.37264925 0.8517673 4290033584
0.31345192 0.37265229 0.85175222 4289968048
0.31555656 0.37306595 0.85274112 4289902512
0.30838147 0.37433237 0.85182852 4290165170
0.31007069 0.37433541 0.85181338 4290099377
0.31134823 0.37392598 0.85079426 4290033584
0.31344914 0.37434152 0.85178322 4290033584
0.31555378 0.37475705 0.85277218 4289901998
