# .PCD v0.7 - Point Cloud Data file format
VERSION 0.7
FIELDS x y z rgba
SIZE 4 4 4 4
TYPE F F F U
COUNT 1 1 1 1
WIDTH 80
HEIGHT 1
VIEWPOINT 0 0 0 1 0 0 0
POINTS 80
DATA ascii
0.3248446 0.32759857 0.8118161 4280757798
0.32233864 0.32845417 0.80985385 4280955177
0.32350552 0.3280783 0.80883628 4280626212
0.32466862 0.3277024 0.80781877 4280692005
0.32582799 0.32732651 0.80680126 4280757798
0.32698363 0.32695061 0.80578381 4280889384
0.32994741 0.32808992 0.8087787 4280297247
0.32189238 0.32968587 0.80888021 4283981655
0.32350287 0.32968876 0.80886579 4283060553
0.32421863 0.32893032 0.80684507 4282073658
0.32492691 0.32817188 0.80482441 4280889384
0.32652989 0.32817477 0.80481011 4280692005
0.32767987 0.327797 0.80379266 4280823591
0.32483664 0.33244684 0.81190503 4285758066
0.32555807 0.33168468 0.80988419 4284902757
0.32582274 0.33053994 0.80686021 4283784276
0.32742944 0.33054283 0.80684584 4282468416
0.32813025 0.32978064 0.80482519 4281481521
0.32973322 0.32978353 0.80481082 4280889384
0.3313362 0.32978642 0.80479652 4280823591
0.33202195 0.32902417 0.80277598 4280889384
0.33270025 0.32826191 0.8007555 4281020970
0.32716775 0.33329993 0.80989933 4286613375
0.32878011 0.33330283 0.80988497 4285955445
0.32948652 0.33253688 0.80786413 4285297515
0.33064029 0.33215535 0.80684662 4283981655
0.33133355 0.33138937 0.80482596 4283060553
0.33201933 0.33062339 0.8028053 4281547314
0.33223715 0.32947296 0.79978168 4281218349
0.33496013 0.32909426 0.7987501 4281020970
0.33748406 0.32986602 0.80074203 4281020970
0.34095141 0.33140674 0.80474001 4280494626
0.33361596 0.3322255 0.80282038 4283850069
0.33521518 0.33222839 0.80280608 4281744693
0.33635017 0.33184496 0.80178869 4281020970
0.33794755 0.33184782 0.80177438 4280889384
0.34001285 0.33223704 0.80276322 4281020970
0.34114224 0.3318536 0.80174589 4281020970
0.34132445 0.33069745 0.79872239 4281020970
0.33499473 0.33498928 0.80585933 4285955445
0.33706191 0.33538038 0.80684817 4284836964
0.33774021 0.33460689 0.80482745 4284113241
0.33934319 0.33460978 0.80481315 4282994760
0.34047821 0.33422446 0.8037957 4281744693
0.34113961 0.33345094 0.80177516 4281020970
0.34179354 0.33267739 0.79975474 4280692006
0.34291357 0.33229205 0.79873741 4280955178
0.34450528 0.33229491 0.79872316 4280889131
0.34609702 0.33229777 0.79870898 4281020971
0.34768873 0.33230066 0.79869473 4280560420
0.35072374 0.33346823 0.80168957 4280033819
0.35087219 0.33230639 0.7986663 4279638805
0.34207666 0.33582845 0.80381078 4284507999
0.34367779 0.33583134 0.80379647 4282928967
0.34433171 0.33505404 0.80177593 4281942073
0.34450269 0.33388662 0.79875237 4284113241
0.34513974 0.33310932 0.79673201 4282600002
0.34672773 0.33311218 0.79671782 4281810486
0.34783462 0.33272493 0.79570055 4280889385
0.34893775 0.33233768 0.7946834 4280692006
0.35100681 0.33273065 0.79567224 4280955178
0.35259292 0.33273351 0.79565805 4281152557
0.34545097 0.33626229 0.80078781 4286876547
0.34609181 0.33548123 0.79876733 4286021238
0.34768352 0.33548409 0.79875314 4285429101
0.34831309 0.334703 0.79673278 4284244827
0.34893516 0.33392191 0.79471242 4283257932
0.34906489 0.3327488 0.79168916 4281942072
0.35064349 0.33275166 0.79167503 4281152556
0.35271066 0.33314648 0.79266393 4280692005
0.34639928 0.33864546 0.80282342 4288192662
0.3479985 0.33864835 0.80280912 4288060821
0.34911853 0.33825737 0.80179173 4287468684
0.35023481 0.3378664 0.80077434 4286810754
0.3503814 0.33668771 0.79775077 4286284410
0.35148644 0.33629671 0.7967335 4285363308
0.35112759 0.33472413 0.79270709 4284310620
0.35173094 0.33393922 0.79068685 4283257932
0.35307181 0.33788756 0.79674846 4286810754
0.35319406 0.33670318 0.79372501 4286152824
