# .PCD v0.7 - Point Cloud Data file format
VERSION 0.7
FIELDS x y z rgba
SIZE 4 4 4 4
TYPE F F F U
COUNT 1 1 1 1
WIDTH 196
HEIGHT 1
VIEWPOINT 0 0 0 1 0 0 0
POINTS 196
DATA ascii
-0.6058197 0.28444034 0.9682585 4277561
-0.60240757 0.26850173 0.97633034 2172448
-0.59839338 0.26868939 0.97490466 2566693
-0.6128695 0.27720773 0.97744495 3685945
-0.6049006 0.27602845 0.97665739 2764584
-0.59761095 0.27566987 0.97816914 3159086
-0.61190653 0.28386766 0.97244638 4014134
-0.60743558 0.28314802 0.97264302 3751219
-0.5953536 0.28027803 0.9775666 2370339
-0.58856958 0.28266132 0.97921634 1909789
-0.61399585 0.26811987 0.98651272 2304291
-0.60485488 0.26726994 0.98545659 2764330
-0.59666282 0.26718169 0.98455179 3948859
-0.61360139 0.27295822 0.98351389 3094063
-0.60404819 0.27568707 0.98072767 2896170
-0.59516114 0.27533436 0.98328495 3685686
-0.59097397 0.28144306 0.98461676 2106654
-0.58975029 0.28430843 0.9852584 1515030
-0.60589725 0.24841499 0.99456549 8095114
-0.61050749 0.25149882 0.9968456 5330010
-0.60345644 0.25411171 0.99638581 197894
-0.59802061 0.25660855 0.99670225 395269
-0.57467806 0.25495079 0.99690771 2633256
-0.56581652 0.25354275 0.99704498 1777436
-0.60084814 0.26664743 0.99903709 6580838
-0.59646863 0.26574188 0.99618065 4278081
-0.57592249 0.26058304 0.99770224 4607044
-0.59272212 0.27414703 0.9939577 5067596
-0.5886277 0.27227029 0.99803036 5988955
-0.62512219 0.25725198 1.0088346 789004
-0.58033484 0.25349173 1.0006124 1646362
-0.57434654 0.25292704 1.0042992 2172455
-0.56406575 0.25494957 1.0058022 2106659
-0.55309135 0.25957775 1.0091481 1514519
-0.5492987 0.2596662 1.0094491 1975071
-0.62321585 0.26814801 1.0072668 395269
-0.61985284 0.26915562 1.0092555 395013
-0.60217214 0.26410538 1.002503 1382934
-0.59709346 0.26636362 1.0039278 4738888
-0.58361042 0.26737487 1.009398 4079930
-0.57339913 0.26247123 1.0037154 3882808
-0.563887 0.26518649 1.0081809 3817016
-0.55535835 0.26403883 1.0088912 1514519
-0.54515707 0.26266998 1.0090386 2435622
-0.59181035 0.273182 1.0037912 4936010
-0.58719289 0.27270421 1.0042268 3291185
-0.5730229 0.27663583 1.0089728 2698022
-0.56460285 0.27409908 1.0052785 3289902
-0.5564059 0.27390951 1.0070233 4145467
-0.54851359 0.27669001 1.0094209 3751479
-0.62423086 0.25889871 1.0142746 526089
-0.56197929 0.25459453 1.0123796 2567469
-0.5554024 0.25667059 1.0147001 2501417
-0.54834366 0.25893861 1.0159286 2369573
-0.63061166 0.26256296 1.0145657 591878
-0.62414092 0.26450291 1.0128914 526086
-0.61829036 0.26665387 1.0149748 790027
-0.59669226 0.26747748 1.0100173 4409665
-0.58564687 0.26909581 1.0131487 4277310
-0.57406288 0.26743287 1.0147035 4277309
-0.56494313 0.26428869 1.0124983 2567206
-0.55491716 0.26744327 1.0123427 1449238
-0.54490465 0.26516491 1.0130669 1777947
-0.58374143 0.27317548 1.014643 2039835
-0.57590312 0.27445939 1.0156029 3882038
-0.56817114 0.2720522 1.0120959 4737347
-0.55363262 0.27206337 1.0131006 3291441
-0.54542369 0.27408025 1.0138797 1646360
-0.56232601 0.25283328 1.0224434 7702152
-0.55501002 0.25584406 1.0254338 4805204
-0.54450417 0.25900155 1.0271477 3356471
-0.62211186 0.2631647 1.0209185 394758
-0.54370958 0.26425275 1.0261368 2172449
-0.58037108 0.27427265 1.0209979 4737347
-0.54359776 0.27474037 1.0253776 1712153
-0.53271127 0.27797106 1.0278897 2961963
-0.52569109 0.2786015 1.0258102 3159599
-0.51515436 0.27935445 1.0242569 4409152
-0.50582898 0.27920231 1.026421 5265231
-0.49473605 0.27810687 1.0255513 4607302
-0.48581803 0.27612376 1.0261018 2501668
-0.53539848 0.28153667 1.027229 3422257
-0.49083924 0.2805028 1.0283108 5462610
-0.48643082 0.28126913 1.0247846 5989209
-0.47725901 0.28218871 1.0268865 5395255
-0.55203629 0.25778738 1.0326941 6713718
-0.54581916 0.25723198 1.0345037 7043454
-0.50837779 0.25979874 1.0340898 6120808
-0.54105693 0.2650654 1.0347795 2238245
-0.53941607 0.26445311 1.037204 4672330
-0.51530743 0.26316324 1.0370476 5067604
-0.50698417 0.26546985 1.0356816 5922910
-0.49544537 0.26479661 1.0378997 4277827
-0.48630774 0.26237631 1.0381901 6580840
-0.5423069 0.27474034 1.0348681 1909533
-0.53602171 0.27584305 1.034359 1777947
-0.52494127 0.27638167 1.0340979 2304034
-0.51462746 0.27660632 1.0335094 4080702
-0.50565648 0.27472425 1.0342954 4409668
-0.49529031 0.27400157 1.0352331 2765098
-0.48739219 0.27213439 1.0321274 1975068
-0.47513762 0.27757353 1.0357846 3487526
-0.46736497 0.276384 1.0344012 5788453
-0.54407799 0.28203112 1.0324838 2303776
-0.53941101 0.28119478 1.0317597 2303519
-0.47482252 0.28242606 1.0362041 7433264
-0.46761376 0.28184405 1.0331283 9339179
-0.54326618 0.25961375 1.042401 8031376
-0.51434273 0.25942856 1.0411379 7832201
-0.44050187 0.25917608 1.0474727 12300191
-0.43449697 0.25928113 1.0478209 13155499
-0.42320094 0.25750086 1.0469868 12367271
-0.41539058 0.25729075 1.0461218 11907235
-0.40570161 0.25733143 1.0455432 9339764
-0.39899769 0.25960419 1.0486087 7231305
-0.54071736 0.26364481 1.0451193 5528414
-0.53607363 0.26505998 1.0434365 4672074
-0.52436709 0.26417264 1.0463159 6845045
-0.51801312 0.26650265 1.041134 4870479
-0.50401455 0.2644285 1.0428041 6120291
-0.49453932 0.26856741 1.0404612 3356722
-0.48465452 0.26530778 1.0451384 4869964
-0.47848031 0.26428565 1.048157 7173230
-0.44085443 0.26146013 1.0485179 13089707
-0.41410801 0.26142925 1.0479442 14077374
-0.40440941 0.26109067 1.0463507 9731168
-0.54091275 0.27319109 1.0426288 1383191
-0.53454131 0.27188727 1.0438147 3750969
-0.52420956 0.27252677 1.043092 4738377
-0.51735991 0.27382785 1.0420959 3685946
-0.50458062 0.27141204 1.0430483 3817531
-0.49460864 0.27102134 1.0426738 3093806
-0.48508781 0.27391863 1.0454279 3751479
-0.47599557 0.27560166 1.0444663 3289380
-0.4655109 0.27325359 1.0459546 4341544
-0.47514042 0.28509107 1.04059 8945706
-0.39407298 0.28844559 1.0495933 8948354
-0.39152658 0.29517704 1.0480269 10856351
-0.38998768 0.29870826 1.0497448 11251367
-0.38953912 0.30137521 1.0482893 11317417
-0.44360244 0.25987697 1.050514 10985103
-0.41382813 0.25582483 1.0501727 11183770
-0.40079916 0.25813487 1.0510985 6838097
-0.39584404 0.25943127 1.0540785 5262410
-0.5331611 0.26563135 1.0535139 5265756
-0.52735829 0.26769462 1.0504081 4541772
-0.47452536 0.26724675 1.0543556 6185818
-0.4641161 0.26720187 1.0558333 4672579
-0.4548808 0.2658042 1.0551531 5591626
-0.44481623 0.26590231 1.0534136 11972770
-0.43705738 0.26543081 1.0543911 13353650
-0.42515343 0.26305985 1.0535742 14208445
-0.41533241 0.26608035 1.0560421 13944756
-0.40550572 0.26564541 1.0547791 9400147
-0.39393985 0.26415151 1.054148 3552303
-0.38945258 0.2641032 1.0571073 2238507
-0.53129977 0.27022833 1.0524904 6054237
-0.49044591 0.27186331 1.0501535 4146237
-0.48416072 0.27243847 1.0530316 3488049
-0.47543633 0.27279377 1.0548942 4144684
-0.46373025 0.27249357 1.0531262 5000766
-0.4551594 0.27481329 1.0562525 7630951
-0.44473723 0.27496311 1.056913 11643808
-0.43643513 0.2738148 1.0578605 12367531
-0.41367245 0.27860892 1.0595908 9603196
-0.40138948 0.2783159 1.0554745 7497046
-0.39905155 0.27934217 1.056806 3421223
-0.43369418 0.28013787 1.0577981 11117206
-0.39338335 0.2846646 1.054369 5922904
-0.38855138 0.28770941 1.0585322 9672849
-0.3905929 0.29345259 1.0530547 10461850
-0.38765219 0.29556546 1.0564324 10725537
-0.38521844 0.30271551 1.0550265 11317674
-0.47253972 0.26668203 1.0624006 2435876
-0.46576354 0.26529956 1.0608141 7435632
-0.45549062 0.26226944 1.0609165 9474958
-0.43424708 0.26784933 1.0623287 14011324
-0.42577362 0.26818433 1.0625088 14340289
-0.40351465 0.26924273 1.0633289 8612688
-0.39770919 0.26877093 1.0612677 2566689
-0.38941497 0.26878589 1.0611937 2238244
-0.43326375 0.27586493 1.0616397 12367274
-0.42475608 0.27500021 1.0618645 12827567
-0.41447222 0.27414739 1.0614214 10918022
-0.4053247 0.27524096 1.0655144 8022360
-0.39591157 0.27495265 1.06466 2237726
-0.39370006 0.28253222 1.0653183 1711897
-0.38746536 0.28779256 1.0641918 8751493
-0.38486612 0.2955803 1.0652812 10660001
-0.38196933 0.30273506 1.0634638 11449261
-0.37997282 0.30487233 1.0647711 11515567
-0.40604433 0.2744101 1.0704478 9401701
-0.39330637 0.27629846 1.0708683 2040607
-0.39361623 0.28282249 1.0719908 1843226
-0.38794893 0.28768209 1.0705287 9277840
-0.38457221 0.29404673 1.0709486 10528674
