# .PCD v0.7 - Point Cloud Data file format
VERSION 0.7
FIELDS x y z rgba
SIZE 4 4 4 4
TYPE F F F U
COUNT 1 1 1 1
WIDTH 1070
HEIGHT 1
VIEWPOINT 0 0 0 1 0 0 0
POINTS 1070
DATA ascii
-0.3026875 0.26421079 0.90730023 4278783495
-0.30090079 0.26421401 0.90728432 4278717702
-0.29886231 0.26394284 0.90626085 4278783495
-0.29975727 0.26888892 0.92436326 4279112460
-0.29793867 0.2688922 0.92434704 4279112460
-0.2963644 0.2691699 0.92533821 4278915594
-0.29478633 0.26944762 0.92632937 4279178766
-0.29320455 0.26972535 0.92732048 4279310352
-0.291619 0.27000308 0.92831153 4279376145
-0.28979293 0.27000639 0.92829525 4279244559
-0.28796685 0.27000967 0.92827892 4279178766
-0.28637379 0.27028742 0.92926991 4279178253
-0.28477702 0.27056518 0.9302609 4279112460
-0.28317645 0.27084294 0.93125188 4278915081
-0.28157216 0.2711207 0.93224281 4278849288
-0.27996412 0.27139848 0.93323368 4278915081
-0.27835232 0.27167624 0.93422449 4278849288
-0.2767368 0.27195403 0.93521529 4278849288
-0.27511749 0.27223185 0.9362061 4279046667
-0.27327642 0.27223516 0.93618965 4279112461
-0.27143535 0.27223846 0.9361732 4278849288
-0.26959425 0.2722418 0.93615675 4278717702
-0.26711595 0.27142164 0.93311888 4278783751
-0.26485941 0.27087596 0.93108821 4278652422
-0.26281902 0.27060479 0.93006474 4278718215
-0.26078242 0.27033359 0.92904133 4278718215
-0.25915939 0.27061138 0.93003207 4278784008
-0.25773561 0.2711637 0.93202984 4278849801
-0.25610322 0.27144152 0.93302047 4278981387
-0.25446704 0.27171934 0.9340111 4279046667
-0.25322196 0.2725462 0.93701571 4279112460
-0.25196561 0.2733731 0.94002026 4279046667
-0.25069803 0.27419999 0.94302464 4278915081
-0.24922742 0.27475238 0.94502205 4278980874
-0.24793921 0.27557933 0.94802624 4278915081
-0.24682781 0.27668083 0.95203733 4278980874
-0.24588756 0.27805689 0.95705515 4279112717
-0.24455999 0.2788839 0.96005905 4279178510
-0.24340357 0.27998549 0.96406966 4279112716
-0.24223216 0.28108707 0.96808022 4279112716
-0.24068843 0.28163961 0.97007692 4278915081
-0.2389604 0.2819176 0.97106671 4278915081
-0.23757845 0.28274471 0.97407013 4278980874
-0.2363583 0.28384641 0.97808021 4279309839
-0.23495197 0.28467354 0.98108339 4279441425
-0.23319583 0.2849516 0.98207295 4279309839
-0.2312685 0.28495505 0.98205572 4279309839
-0.22950672 0.28523311 0.98304522 4279375632
-0.2277412 0.28551117 0.98403466 4279375632
-0.22597192 0.28578925 0.98502409 4279441425
-0.22483857 0.28716564 0.99004024 4279573011
-0.2241606 0.28936586 0.99807614 4279507219
-0.33844188 0.26427251 0.90162075 4280428834
-0.3357873 0.26344708 0.89858121 4280626213
-0.33401749 0.26345026 0.89856541 4279705111
-0.33253694 0.26372969 0.89955741 4279639318
-0.31686392 0.26403469 0.90042269 4278454531
-0.31536087 0.26431414 0.90141457 4278651910
-0.31358543 0.26431736 0.90139866 4279112461
-0.31180996 0.26432055 0.9013828 4279309839
-0.3097696 0.2640475 0.90035933 4279375632
-0.307996 0.26405069 0.90034348 4279310352
-0.30622241 0.26405388 0.90032762 4279112973
-0.30470812 0.26433337 0.90131938 4279047180
-0.30293265 0.26433659 0.90130353 4278981387
-0.30115721 0.26433977 0.90128767 4278915594
-0.29938173 0.26434299 0.90127176 4278849288
-0.29785806 0.26462248 0.90226346 4278849288
-0.29683048 0.26545456 0.9052701 4278783495
-0.29603967 0.266563 0.90928417 4278849288
-0.29449537 0.26684251 0.91027564 4278783495
-0.29490164 0.26933253 0.91932684 4278849801
-0.29381967 0.2701647 0.922333 4278784008
-0.29248592 0.2707206 0.92433167 4278784008
-0.29090601 0.27100021 0.92532283 4278915594
-0.28908554 0.27100348 0.92530656 4278915337
-0.28726509 0.27100676 0.92529029 4278980874
-0.28567767 0.2712864 0.92628139 4278915337
-0.2840865 0.271566 0.92727244 4278915594
-0.28249159 0.27184564 0.92826349 4278915594
-0.28112033 0.2724016 0.93026179 4278915594
-0.27951604 0.27268124 0.93125272 4278981387
-0.27768436 0.27268454 0.93123639 4278980874
-0.27607444 0.27296418 0.93222725 4278915081
-0.27468067 0.2735202 0.93422538 4279112460
-0.27306139 0.27379987 0.93521619 4279112460
-0.27143836 0.27407956 0.936207 4278980874
-0.26981157 0.27435923 0.93719774 4279046667
-0.26775619 0.27408618 0.93617409 4279046667
-0.26549405 0.27353677 0.9341433 4278849544
-0.26344803 0.27326372 0.93311977 4278784008
-0.26161259 0.27326703 0.93310338 4278784008
-0.25998205 0.27354673 0.93409407 4278652422
-0.25855079 0.27410281 0.93609184 4278915081
-0.25691089 0.2743825 0.93708247 4278849288
-0.25526723 0.2746622 0.93807304 4278980874
-0.25361982 0.27494192 0.93906361 4279046667
-0.25235975 0.27577445 0.94206822 4279046667
-0.25089476 0.27633059 0.94406569 4279112460
-0.24942227 0.27688673 0.9460631 4279112460
-0.2481322 0.27771929 0.94906741 4278980874
-0.24701892 0.27882829 0.95307857 4278980874
-0.24589065 0.27993733 0.95708966 4279046667
-0.24437878 0.28049356 0.95908672 4278980874
-0.24304184 0.2813262 0.96209061 4278980874
-0.2415131 0.28188246 0.96408749 4279112460
-0.23997687 0.28243873 0.96608436 4279178766
-0.23825634 0.28271857 0.96707422 4279244559
-0.2368819 0.28355131 0.97007781 4279244046
-0.23566926 0.28466046 0.97408807 4279309839
-0.23461279 0.28604612 0.97910506 4279507218
-0.23302969 0.28660247 0.98110151 4279178253
-0.2316065 0.28743526 0.98410463 4279178253
-0.22967543 0.28743875 0.98408735 4279244046
-0.22790803 0.28771868 0.98507684 4279244046
-0.22613688 0.28799865 0.98606628 4279375632
-0.22484174 0.28910795 0.99007589 4279244047
-0.3384448 0.26604798 0.90165335 4280165662
-0.33549717 0.2649388 0.89760572 4280165662
-0.33372921 0.26494199 0.89758992 4279178767
-0.33253983 0.26550138 0.89958996 4279968027
-0.33134294 0.2660608 0.90158987 4279507219
-0.32899642 0.26550779 0.89955831 4279046668
-0.3272247 0.26551098 0.89954245 4278520324
-0.32545298 0.26551417 0.8995266 4278322945
-0.32368127 0.26551735 0.8995108 4278454531
-0.32163152 0.26524243 0.89848715 4278520324
-0.31958553 0.2649675 0.89746356 4278717703
-0.31781757 0.26497069 0.89744776 4278980875
-0.31577718 0.26469576 0.89642423 4279375633
-0.3140111 0.26469895 0.89640844 4279309840
-0.31224501 0.26470211 0.8963927 4279375633
-0.31074572 0.26498345 0.89738458 4279243791
-0.30897775 0.26498663 0.89736879 4279375632
-0.30720979 0.26498982 0.89735299 4279638804
-0.30544183 0.26499301 0.8973372 4279244559
-0.30393317 0.26527438 0.89832908 4278915594
-0.30216333 0.26527756 0.89831322 4278915594
-0.30064902 0.2655589 0.89930505 4278784008
-0.29887733 0.26556212 0.89928919 4278783495
-0.29760918 0.26612163 0.90128851 4278980874
-0.29633355 0.26668119 0.90328771 4278784008
-0.29529849 0.26751891 0.90629441 4278718215
-0.29400599 0.26807851 0.90829349 4278718215
-0.29319456 0.26919445 0.9123075 4278849801
-0.29236814 0.27031043 0.9163214 4278980874
-0.29104564 0.27087006 0.91832024 4278783495
-0.28971565 0.27142969 0.92031896 4278980874
-0.28790456 0.27143297 0.92030281 4278915081
-0.28632841 0.27171442 0.92129403 4279046667
-0.28451544 0.2717177 0.92127782 4279046667
-0.28316483 0.27227738 0.92327636 4278915338
-0.28157741 0.27255887 0.92426753 4278849801
-0.28021365 0.27311859 0.92626595 4278915594
-0.27839133 0.27312186 0.92624968 4278849801
-0.27656901 0.27312514 0.92623341 4279112717
-0.27474669 0.27312842 0.92621714 4279178509
-0.27314427 0.27340993 0.92720813 4279046667
-0.27175614 0.27396968 0.92920637 4279112460
-0.27036053 0.27452946 0.9312045 4279046667
-0.26874313 0.274811 0.93219537 4279112460
-0.26712197 0.27509254 0.93318623 4279112460
-0.26528651 0.27509585 0.93316984 4278915081
-0.26386839 0.27565566 0.93516779 4278915338
-0.26202917 0.27565897 0.93515134 4278981387
-0.26059982 0.2762188 0.93714923 4278980874
-0.25916296 0.27677864 0.939147 4278915081
-0.25771859 0.27733847 0.9411447 4278849288
-0.25586814 0.27734181 0.94112819 4278980874
-0.25441253 0.27790168 0.94312584 4279046667
-0.25294942 0.27846158 0.94512337 4278980874
-0.25128514 0.27874321 0.94611382 4279046667
-0.24961711 0.27902484 0.94710428 4279046668
-0.24794532 0.27930647 0.94809461 4279046667
-0.24645784 0.2798664 0.95009196 4278915081
-0.24496287 0.28042632 0.95208925 4278849801
-0.24327609 0.28070799 0.95307946 4278981387
-0.24176797 0.28126797 0.95507663 4279112973
-0.24043292 0.28210625 0.95808065 4279178766
-0.23908661 0.28294453 0.9610846 4279244559
-0.23755226 0.28350455 0.96308148 4279178766
-0.23636025 0.28462118 0.9670921 4279244046
-0.23515326 0.28573784 0.9711026 4279112461
-0.23393124 0.28685454 0.97511292 4279178253
-0.23252495 0.28769293 0.97811633 4279046667
-0.23127483 0.28880969 0.98212641 4279244046
-0.22951305 0.2890915 0.98311597 4279244046
-0.22774753 0.28937331 0.98410553 4279244046
-0.22597826 0.28965512 0.98509502 4279441425
-0.22500485 0.29132861 0.99111825 4279441426
-0.3363792 0.26754665 0.90066206 4280231455
-0.3346056 0.26754987 0.90064621 4280230941
-0.33283204 0.26755306 0.90063035 4280033817
-0.33077103 0.26727629 0.89960659 4279376144
-0.32842824 0.26671952 0.89757496 4278718215
-0.32637659 0.26644272 0.89655131 4278652166
-0.3246105 0.2664459 0.89653552 4278849288
-0.32284442 0.26644909 0.89651972 4279112461
-0.3208003 0.26617229 0.89549613 4279244047
-0.3190361 0.26617545 0.89548039 4279375633
-0.31727189 0.26617864 0.8954646 4279441427
-0.31550765 0.26618183 0.89544886 4279375633
-0.31401399 0.26646501 0.89644086 4279309840
-0.3122479 0.2664682 0.89642507 4279309327
-0.31074861 0.26675141 0.89741701 4279506706
-0.30898064 0.2667546 0.89740121 4279638805
-0.30721268 0.26675779 0.89738542 4279573012
-0.30544472 0.26676098 0.89736962 4279573525
-0.30367678 0.26676416 0.89735383 4279376146
-0.30216622 0.26704738 0.89834571 4279178766
-0.30065194 0.26733062 0.89933753 4279112973
-0.2991339 0.26761386 0.90032929 4278718215
-0.2976121 0.2678971 0.90132105 4278651909
-0.29608655 0.26818034 0.90231282 4278586116
-0.29455727 0.26846358 0.90330446 4278717702
-0.29302424 0.26874685 0.90429616 4278783495
-0.29197603 0.26959023 0.9073028 4278849288
-0.291159 0.27071369 0.91131693 4278980874
-0.29032698 0.27183717 0.91533089 4278980874
-0.28924128 0.27268064 0.91833723 4278980874
-0.28767073 0.27296397 0.91932857 4278849288
-0.28586152 0.27296722 0.91931236 4279046667
-0.28428537 0.27325058 0.92030364 4278980874
-0.28293663 0.27381399 0.92230231 4279046410
-0.28135109 0.27409735 0.92329347 4278915081
-0.27976182 0.27438071 0.92428464 4278849544
-0.27816877 0.2746641 0.92527574 4278784008
-0.27634832 0.27466738 0.92525947 4278849545
-0.27452788 0.27467066 0.92524326 4278915081
-0.27292734 0.27495405 0.9262343 4279046667
-0.27132306 0.27523744 0.92722529 4278980874
-0.26971501 0.27552083 0.92821628 4279046410
-0.26788893 0.27552411 0.92819995 4279046410
-0.26606286 0.27552742 0.92818367 4279046667
-0.26444733 0.27581084 0.92917454 4279046667
-0.26324537 0.27665448 0.93217987 4278849801
-0.26182541 0.27721804 0.93417788 4278915594
-0.26039791 0.27778161 0.93617582 4278915594
-0.25916597 0.27862534 0.93918091 4278849288
-0.25772163 0.27918893 0.94117868 4278915081
-0.25607046 0.27947241 0.94216925 4278980874
-0.25481042 0.28031617 0.9451741 4278980875
-0.25314802 0.28059965 0.94616455 4279046667
-0.25148186 0.28088316 0.94715506 4278915081
-0.24962017 0.28088653 0.94713843 4278915083
-0.24775846 0.28088987 0.94712174 4278915082
-0.24608481 0.28117341 0.94811219 4278915082
-0.24459358 0.28173709 0.95010954 4279112717
-0.24291055 0.2820206 0.95109987 4279310096
-0.24158864 0.28286448 0.95410407 4279310095
-0.24025546 0.28370839 0.95710826 4279310609
-0.23891103 0.28455231 0.96011227 4279310352
-0.23737857 0.28511605 0.96210927 4279112973
-0.23618844 0.28624019 0.96612006 4279046667
-0.23498333 0.28736436 0.97013068 4278915082
-0.2337632 0.28848854 0.97414118 4279046668
-0.2323588 0.28933257 0.97714466 4279178254
-0.23111056 0.2904568 0.98115492 4279244047
-0.22935066 0.29074049 0.98214453 4279309839
-0.22775069 0.29130435 0.98414093 4279244047
-0.22614323 0.29186827 0.98613727 4279638805
-0.33726123 0.27016577 0.90371859 4279770391
-0.33548203 0.27016899 0.90370274 4279441425
-0.33283493 0.26932663 0.9006629 4279177996
-0.33048651 0.26876613 0.89863116 4279112716
-0.32786003 0.26792374 0.89559156 4279244559
-0.32581216 0.26764506 0.89456785 4279376145
-0.32433161 0.26793012 0.89556003 4279441938
-0.3225674 0.26793331 0.89554423 4279507475
-0.3208032 0.26793647 0.8955285 4279441426
-0.31903899 0.26793966 0.89551276 4279309840
-0.31727478 0.26794285 0.89549696 4279244047
-0.31551057 0.26794603 0.89548123 4279178254
-0.31374633 0.26794922 0.89546543 4279112461
-0.31198213 0.26795238 0.8954497 4279244047
-0.31048471 0.26823747 0.8964417 4279375633
-0.30871862 0.26824066 0.8964259 4279573012
-0.30695254 0.26824385 0.89641017 4279770391
-0.30518645 0.26824701 0.89639437 4279967770
-0.30342036 0.2682502 0.89637858 4280033819
-0.30191171 0.26853532 0.89737052 4279836697
-0.30065483 0.26910231 0.89937001 4279836697
-0.29913679 0.26938742 0.90036184 4279705111
-0.29761502 0.26967254 0.90135366 4279507732
-0.29583955 0.26967573 0.9013378 4278784008
-0.2940641 0.26967895 0.90132189 4278651909
-0.29228863 0.26968214 0.90130603 4278586116
-0.29149038 0.27081308 0.90532047 4278520323
-0.2906771 0.27194402 0.90933472 4278651909
-0.28984883 0.27307501 0.91334885 4278651909
-0.28876689 0.27392408 0.91635537 4278717702
-0.28720012 0.27420929 0.91734672 4278783495
-0.28562957 0.27449447 0.91833812 4278783495
-0.28428835 0.27506164 0.9203369 4278980617
-0.28293961 0.27562883 0.92233562 4279046410
-0.28112477 0.27563208 0.92231941 4278915081
-0.27953738 0.27591732 0.92331058 4278849288
-0.2779462 0.27620256 0.92430174 4278849801
-0.27590397 0.27592388 0.92327815 4278915594
-0.27430904 0.27620915 0.92426926 4279112460
-0.27271038 0.27649438 0.92526037 4279112460
-0.271108 0.27677965 0.92625141 4279046667
-0.26950184 0.27706492 0.92724246 4279046667
-0.26767763 0.2770682 0.92722619 4279112460
-0.26585343 0.27707151 0.92720985 4278980874
-0.26445031 0.27763876 0.9292081 4279046667
-0.26303971 0.27820605 0.93120629 4278981131
-0.26141483 0.27849138 0.93219715 4278915594
-0.25999108 0.27905867 0.93419516 4278981388
-0.25855985 0.27962601 0.93619317 4278980874
-0.25732231 0.28047535 0.93919826 4279046667
-0.2556749 0.28076071 0.94018894 4278980875
-0.25441861 0.28161007 0.94319385 4278849289
-0.25275996 0.28189543 0.94418442 4278980875
-0.25090387 0.2818988 0.94416785 4279112461
-0.2490478 0.28190213 0.94415128 4279046668
-0.2470018 0.28162345 0.94312757 4279112461
-0.2451476 0.28162679 0.943111 4279178253
-0.24366575 0.28219423 0.94510853 4279309839
-0.2419921 0.28247961 0.94609898 4279441425
-0.24086198 0.28361115 0.95011044 4279309839
-0.23953633 0.28446063 0.95311475 4279046667
-0.23819941 0.28531018 0.95611894 4278980874
-0.23667444 0.28587767 0.95811611 4279112460
-0.2353169 0.28672722 0.96112013 4279309839
-0.23412117 0.28785887 0.96513098 4279178254
-0.23291044 0.28899056 0.96914172 4279112461
-0.2313461 0.28955811 0.97113848 4279112461
-0.23010913 0.29068983 0.97514898 4279244047
-0.22869159 0.29153949 0.97815245 4279309840
-0.22759017 0.29295334 0.98316956 4279375633
-0.22598459 0.29352099 0.98516595 4279703828
-0.33283785 0.27110022 0.90069544 4279046667
-0.3304894 0.27053595 0.89866364 4279178253
-0.32786292 0.26968795 0.89562392 4279441938
-0.32581505 0.26940739 0.89460021 4279507731
-0.3243345 0.26969433 0.89559239 4279639317
-0.32285023 0.26998124 0.89658457 4279639317
-0.32108414 0.26998442 0.89656878 4279704854
-0.31931806 0.26998761 0.89655298 4279638805
-0.31755197 0.2699908 0.89653718 4279638805
-0.31578588 0.26999399 0.89652145 4279638805
-0.3140198 0.26999718 0.89650565 4279573012
-0.31252238 0.27028412 0.89749771 4279770391
-0.31075442 0.27028731 0.89748192 4279704598
-0.30898646 0.27029049 0.89746612 4279573013
-0.30721849 0.27029368 0.89745033 4279836184
-0.30545053 0.27029687 0.89743453 4279967770
-0.30394188 0.27058384 0.89842647 4280033563
-0.30217203 0.27058703 0.89841062 4279770905
-0.3009133 0.2711578 0.90041023 4279968283
-0.29939339 0.2714448 0.90140206 4279836697
-0.29761791 0.27144799 0.9013862 4279705111
-0.29584247 0.27145121 0.90137035 4279112974
-0.294067 0.27145439 0.90135449 4278717703
-0.29229155 0.27145761 0.90133864 4278717703
-0.2907604 0.27174461 0.90233034 4278586117
-0.28971034 0.27259925 0.90533721 4278717703
-0.28864902 0.27345389 0.90834403 4278651909
-0.28757647 0.27430856 0.91135067 4278783495
-0.28601906 0.27459562 0.91234219 4278651909
-0.28516269 0.27573416 0.91635621 4278651909
-0.28405827 0.27658889 0.9193626 4278783495
-0.28271142 0.27715981 0.92136139 4278849288
-0.28089845 0.27716309 0.92134523 4278849288
-0.27931291 0.2774502 0.92233646 4278651909
-0.2774981 0.27745345 0.92232025 4278586116
-0.27568325 0.27745673 0.92230403 4278520323
-0.27409023 0.27774385 0.9232952 4278520323
-0.27227351 0.27774712 0.92327899 4278717702
-0.27067488 0.27803427 0.92427015 4278783495
-0.26907247 0.27832142 0.92526126 4278915081
-0.267252 0.27832469 0.92524499 4279112460
-0.26585642 0.27889571 0.92724335 4279178254
-0.26445332 0.27946672 0.92924166 4279375633
-0.26304272 0.28003776 0.93123984 4279375633
-0.26141781 0.28032494 0.93223077 4279309840
-0.25978917 0.28061211 0.93322164 4279178254
-0.25815678 0.28089932 0.93421245 4279178254
-0.25672179 0.28147039 0.93621051 4279441426
-0.25508001 0.28175759 0.93720126 4279573012
-0.25382936 0.28261259 0.94020635 4279507219
-0.25217634 0.28289983 0.94119698 4279507219
-0.25051957 0.28318706 0.94218761 4279770391
-0.24847543 0.2829065 0.9411639 4279967770
-0.24643505 0.28262594 0.94014025 4279704597
-0.24458647 0.28262928 0.94012374 4279573011
-0.24311025 0.28320044 0.94212139 4279375632
-0.24144223 0.28348768 0.9431119 4279244046
-0.24031776 0.28462669 0.94712353 4278849288
-0.23917829 0.28576574 0.95113504 4278651909
-0.23784512 0.28662089 0.95413941 4279046667
-0.23614711 0.28690821 0.95512962 4279375632
-0.23462027 0.28747943 0.95712686 4279507218
-0.23343205 0.28861856 0.96113789 4279638805
-0.23222883 0.28975773 0.96514881 4279507219
-0.230672 0.29032904 0.96714574 4279309840
-0.22960997 0.29175219 0.97216332 4279375377
-0.22852919 0.29317537 0.97718078 4279506704
-0.22742966 0.29459858 0.98219806 4279638290
-0.22582595 0.29516998 0.98419458 4279704083
-0.33020487 0.27202019 0.89768809 4279244046
-0.32786584 0.27145216 0.89565629 4279375632
-0.32581794 0.27116972 0.89463252 4279375888
-0.32433739 0.27145854 0.89562476 4279836696
-0.32313305 0.27203295 0.89762491 4279968283
-0.32164314 0.27232176 0.89861703 4279836697
-0.3198733 0.27232495 0.89860123 4279967770
-0.31782916 0.27204251 0.89757752 4279967770
-0.31578878 0.27176008 0.89655381 4279836184
-0.31429324 0.27204889 0.89754593 4279836184
-0.31252527 0.27205208 0.89753014 4279967771
-0.31075731 0.27205527 0.89751434 4279901979
-0.30898935 0.27205846 0.89749855 4279901979
-0.30722138 0.27206165 0.89748275 4280230944
-0.30571461 0.27235049 0.89847475 4280362530
-0.30394477 0.27235368 0.8984589 4280559909
-0.30243236 0.27264252 0.89945084 4280428323
-0.30091619 0.27293137 0.90044278 4280362787
-0.29914263 0.27293459 0.90042692 4280363041
-0.29762083 0.27322343 0.90141881 4280297248
-0.29584539 0.27322665 0.90140289 4280099356
-0.29406992 0.27322984 0.90138704 4279507219
-0.29229444 0.27323306 0.90137118 4278980875
-0.29076329 0.27352193 0.90236294 4278717705
-0.28898597 0.27352515 0.90234709 4278651910
-0.28768975 0.27409971 0.90434641 4278651910
-0.28638601 0.27467433 0.90634567 4278651910
-0.28483799 0.27496323 0.90733731 4278783495
-0.28399098 0.27610925 0.91135156 4278783495
-0.28312901 0.2772553 0.91536564 4278651909
-0.28178966 0.27782995 0.9173646 4278783495
-0.28021351 0.27811891 0.91835594 4278849288
-0.27863359 0.27840787 0.91934729 4278849288
-0.27704996 0.27869686 0.92033863 4278783495
-0.27546257 0.27898586 0.92132986 4278849288
-0.2736496 0.27898911 0.9213137 4278783495
-0.27205658 0.2792781 0.92230493 4278717702
-0.27024174 0.27928138 0.92228872 4278651909
-0.26864308 0.2795704 0.92327988 4278651909
-0.2670407 0.27985939 0.92427099 4278717702
-0.26564696 0.28043416 0.92626947 4278586117
-0.26424575 0.28100893 0.92826784 4278717703
-0.26304573 0.28186947 0.93127346 4278783496
-0.26121402 0.28187275 0.93125713 4278915082
-0.25958726 0.2821618 0.93224806 4279046668
-0.25775367 0.28216511 0.93223166 4279309840
-0.25632244 0.28273994 0.93422979 4279573012
-0.25468442 0.28302902 0.9352206 4280099356
-0.25324008 0.28360388 0.93721861 4279901977
-0.25198382 0.28446451 0.94022369 4279573012
-0.25032893 0.28475362 0.94121438 4279507219
-0.24847847 0.28475696 0.94119787 4279375633
-0.24643807 0.28447452 0.94017416 4279112461
-0.24458949 0.28447783 0.94015765 4278980874
-0.24311329 0.28505275 0.94215536 4278849288
-0.24144527 0.28534189 0.94314593 4278849288
-0.2403208 0.28648838 0.94715768 4278717702
-0.23900078 0.28734913 0.95016223 4278980874
-0.23749083 0.28792411 0.9521597 4279375632
-0.23561975 0.28792748 0.95214295 4279573011
-0.23427348 0.28878826 0.95514727 4279573011
-0.23291597 0.2896491 0.95815152 4279573011
-0.23188958 0.29108155 0.96316963 4279507219
-0.23067512 0.29222822 0.96718055 4279572242
-0.22978054 0.29394656 0.97320533 4279572242
-0.22886346 0.29566494 0.97922981 4279638290
-0.32992035 0.27350065 0.89671248 4279046667
-0.32758316 0.27292889 0.89468062 4279178253
-0.32553715 0.27264458 0.89365685 4279638804
-0.32434028 0.27322271 0.89565712 4280165406
-0.32313594 0.27380088 0.89765733 4280362786
-0.32192409 0.27437907 0.89965749 4280165408
-0.32015237 0.27438226 0.89964163 4280494373
-0.31838065 0.27438545 0.89962584 4280625702
-0.31633651 0.27410114 0.89860207 4280362530
-0.31429613 0.27381682 0.89757836 4280362530
-0.31252816 0.27382001 0.89756256 4280165151
-0.3107602 0.2738232 0.89754677 4280165151
-0.30872732 0.27353889 0.89652312 4280165151
-0.3072243 0.27382958 0.89751518 4280428323
-0.30545634 0.27383277 0.89749938 4280494116
-0.30394769 0.27412349 0.89849138 4280494116
-0.30243528 0.27441421 0.89948338 4280559909
-0.30066356 0.27441743 0.89946753 4280230944
-0.29914552 0.27470815 0.90045947 4280428323
-0.29737195 0.27471134 0.90044361 4280296737
-0.29559836 0.27471456 0.90042776 4279967770
-0.29407284 0.27500531 0.90141964 4279901977
-0.2920512 0.27472094 0.90039611 4279441426
-0.29052192 0.27501172 0.90138793 4278980875
-0.28874645 0.27501491 0.90137202 4278717703
-0.28721154 0.27530566 0.90236384 4278783495
-0.28543422 0.27530888 0.90234792 4278849288
-0.28389367 0.27559966 0.90333968 4278783495
-0.28281927 0.27646559 0.9063465 4278915081
-0.2817336 0.27733153 0.90935332 4278849288
-0.2806367 0.2781975 0.91235995 4278783495
-0.27906993 0.27848831 0.91335142 4278717702
-0.27749941 0.27877915 0.91434288 4278849288
-0.27615067 0.27935758 0.91634184 4278980874
-0.27479446 0.27993602 0.91834068 4278915081
-0.27298713 0.27993926 0.91832453 4278849288
-0.27139974 0.28023013 0.91931581 4278717702
-0.26980859 0.28052101 0.9203071 4278717701
-0.2679975 0.28052425 0.92029095 4278651909
-0.26640075 0.28081515 0.92128217 4278651909
-0.26501265 0.28139365 0.92328072 4278651910
-0.26382762 0.28225976 0.92628658 4278651911
-0.26263136 0.28312591 0.92929238 4278586117
-0.2608034 0.28312922 0.92927605 4278651910
-0.25897545 0.28313249 0.92925972 4278651910
-0.25735053 0.28342342 0.9302507 4278651910
-0.2557219 0.28371435 0.93124163 4278651910
-0.2540895 0.28400531 0.9322325 4278586117
-0.25304568 0.28515917 0.93624514 4278454018
-0.2517913 0.28602543 0.93925041 4278519554
-0.25013825 0.28631639 0.9402411 4278782469
-0.24828969 0.28631973 0.94022459 4278914568
-0.24644111 0.28632307 0.94020808 4278980362
-0.24459253 0.28632641 0.94019157 4279046410
-0.24293014 0.2866174 0.9411822 4279112203
-0.24144831 0.28719607 0.94317997 4279177739
-0.24014142 0.28806242 0.94618475 4279112460
-0.23882328 0.28892878 0.94918942 4279309839
-0.23713653 0.28921983 0.95017982 4279573011
-0.23544601 0.28951088 0.95117021 4279704597
-0.23392668 0.29008961 0.95316762 4279638804
-0.23274599 0.29124373 0.95717901 4279573011
-0.23172149 0.29268554 0.9621973 4279507218
-0.23050891 0.29383972 0.9662084 4279769620
-0.22978367 0.29585701 0.97324038 4279769620
-0.22870104 0.29729894 0.97825813 4279769621
-0.33021069 0.27555609 0.89775294 4278980875
-0.32730049 0.27440184 0.89370483 4278980875
-0.32554004 0.27440503 0.89368916 4280099356
-0.32434317 0.27498692 0.89568949 4280494116
-0.32341877 0.27585822 0.89869779 4280625702
-0.32220504 0.27644014 0.90069801 4280559909
-0.32043147 0.27644333 0.90068215 4280559909
-0.31838357 0.27615717 0.89965832 4280757288
-0.31661186 0.27616036 0.89964247 4280494116
-0.31484014 0.27616355 0.89962667 4280362530
-0.31306845 0.27616674 0.89961082 4280099358
-0.31102991 0.27588055 0.89858711 4279967772
-0.30899516 0.27559435 0.8975634 4280230944
-0.30722719 0.27559754 0.8975476 4280362531
-0.30545923 0.27560073 0.89753181 4280362275
-0.30420989 0.27618274 0.89953172 4280099104
-0.30243817 0.27618593 0.89951587 4280099358
-0.30092204 0.27647853 0.90050787 4280033565
-0.29940212 0.27677116 0.90149981 4280165151
-0.29762667 0.27677435 0.90148395 4280296737
-0.29610112 0.27706698 0.90247583 4279901977
-0.2943238 0.27707016 0.90245992 4279836184
-0.29230028 0.27678394 0.90143633 4280099358
-0.29076913 0.2770766 0.90242821 4279704598
-0.28899178 0.27707979 0.9024123 4279112461
-0.28721446 0.27708301 0.90239644 4278849289
-0.28543711 0.2770862 0.90238053 4278717703
-0.2841334 0.2776683 0.90437996 4278717702
-0.28282219 0.2782504 0.90637928 4278783495
-0.28173655 0.27912197 0.90938616 4278915081
-0.28040847 0.27970412 0.9113853 4278980874
-0.27884355 0.27999681 0.91237688 4278849288
-0.27727491 0.2802895 0.91336834 4278783495
-0.27570251 0.28058222 0.91435981 4278783495
-0.27457374 0.28145388 0.91736633 4278849288
-0.27276829 0.28145713 0.91735017 4278915081
-0.27140272 0.28203934 0.91934901 4278849288
-0.26981157 0.28233206 0.92034036 4278717702
-0.26800048 0.28233534 0.92032415 4278586116
-0.2664037 0.28262809 0.92131543 4278651909
-0.26501563 0.28321034 0.92331403 4278783496
-0.26362005 0.28379259 0.92531264 4278651910
-0.26221699 0.28437486 0.92731112 4278651910
-0.26059958 0.28466767 0.92830223 4278651910
-0.25897843 0.28496045 0.92929327 4278717703
-0.25715047 0.28496376 0.92927694 4278849289
-0.25572491 0.28554606 0.93127525 4278783496
-0.25409251 0.28583887 0.93226618 4278783496
-0.25285125 0.28671074 0.93527162 4278651140
-0.25159875 0.28758261 0.93827701 4278716933
-0.25014129 0.28816497 0.94027501 4278914312
-0.24829271 0.28816831 0.9402585 4279111691
-0.24663408 0.28846118 0.94124919 4279309070
-0.24497169 0.28875405 0.94223988 4279440911
-0.24349175 0.28933644 0.94423771 4279440911
-0.24181998 0.28962934 0.94522828 4279506704
-0.24014448 0.28992224 0.94621885 4279375632
-0.23864578 0.29050469 0.9482165 4279639061
-0.23713958 0.29108715 0.95021409 4279770390
-0.23544908 0.29138005 0.95120454 4279770390
-0.23427963 0.29254165 0.95521617 4279770390
-0.23326828 0.29399285 0.9602347 4279638804
-0.23206697 0.29515448 0.96424609 4279507218
-0.23051202 0.29573703 0.96624321 4279769621
-0.33021358 0.27732405 0.89778537 4278980875
-0.32730338 0.2761623 0.89373714 4278980875
-0.32554293 0.27616549 0.8937214 4280099356
-0.3243461 0.27675113 0.89572185 4280099357
-0.32342169 0.27762803 0.89873028 4280099358
-0.32248601 0.27850497 0.90173858 4280230944
-0.32071057 0.27850816 0.90172273 4280099358
-0.3189351 0.27851138 0.90170681 4280230944
-0.31715965 0.27851456 0.90169096 4280296737
-0.3151136 0.27822652 0.90066713 4280165151
-0.31334004 0.27822971 0.90065128 4279836186
-0.31103283 0.27765039 0.89861959 4279967772
-0.30899805 0.27736232 0.89759582 4279967772
-0.30723009 0.27736551 0.89758003 4280164897
-0.30546212 0.27736869 0.89756423 4280164897
-0.30395347 0.27766314 0.89855635 4280296483
-0.30244109 0.27795762 0.89954835 4280296737
-0.30092493 0.27825209 0.90054035 4280296737
-0.29915133 0.27825531 0.90052456 4280362530
-0.29762957 0.27854979 0.9015165 4280362528
-0.29585412 0.27855301 0.90150064 4280165149
-0.29432672 0.27884752 0.90249252 4280033563
-0.2923032 0.27855942 0.90146893 4280296737
-0.29077205 0.27885392 0.90246081 4280230942
-0.2889947 0.27885711 0.9024449 4279770391
-0.28745794 0.27915165 0.90343672 4279507219
-0.28567871 0.27915484 0.90342087 4278718216
-0.28413633 0.27944937 0.90441263 4278718216
-0.28259018 0.27974391 0.90540433 4278783495
-0.28127337 0.28032976 0.90740371 4278849288
-0.27971783 0.28062433 0.90839535 4278849288
-0.27792925 0.28062755 0.90837938 4278915081
-0.27636811 0.28092211 0.90937102 4278717702
-0.27480322 0.28121668 0.91036254 4278783495
-0.27345827 0.28180259 0.91236168 4278849288
-0.27188399 0.28209719 0.91335315 4279046667
-0.2705259 0.28268313 0.91535211 4278980874
-0.26894227 0.28297773 0.91634357 4278849288
-0.26735488 0.28327236 0.91733491 4278783495
-0.26554942 0.2832756 0.91731876 4278783495
-0.2639564 0.28357023 0.91831011 4278783752
-0.26278079 0.28444758 0.92131627 4278652422
-0.2613852 0.28503358 0.92331493 4278586629
-0.25977531 0.28532824 0.92430609 4278586629
-0.25816166 0.28562289 0.92529726 4278651909
-0.25674734 0.28620893 0.92729568 4278717702
-0.25532553 0.28679499 0.92929411 4278783495
-0.25369689 0.28708968 0.9302851 4278849288
-0.25245938 0.28796715 0.93329072 4278783495
-0.25121063 0.28884465 0.93629622 4278783496
-0.24956325 0.28913936 0.93728709 4278849032
-0.2477203 0.28914267 0.93727064 4279046153
-0.24625723 0.28972882 0.93926865 4279440911
-0.24478666 0.29031494 0.94126666 4279769876
-0.2433086 0.29090112 0.94326454 4279835669
-0.24163871 0.29119587 0.94425517 4279638290
-0.23996508 0.29149064 0.9452458 4279375632
-0.23846826 0.29207683 0.94724351 4279573524
-0.23714265 0.29295444 0.95024836 4279836183
-0.23545215 0.29324925 0.95123881 4279770390
-0.23463261 0.29500121 0.95726484 4279704597
-0.23413672 0.29733607 0.96530485 4279704597
-0.23378202 0.29996243 0.97435164 4279638290
-0.23254699 0.30113164 0.97836286 4279704083
-0.33136624 0.28026441 0.90185046 4278980875
-0.32816297 0.27880207 0.8967939 4279375633
-0.32639688 0.27880526 0.89677811 4279967770
-0.32491261 0.27910155 0.8977704 4280296735
-0.32370451 0.27969098 0.8997708 4280165150
-0.32248893 0.28028041 0.90177113 4280230944
-0.32071346 0.28028363 0.90175527 4280230944
-0.31893802 0.28028682 0.90173942 4280099358
-0.31716254 0.28029001 0.90172356 4280296737
-0.3153871 0.28029323 0.90170771 4280230944
-0.31361163 0.28029642 0.90169185 4280099358
-0.31130254 0.27971336 0.89965999 4280230944
-0.30926588 0.27942342 0.89863622 4280033565
-0.30749604 0.2794266 0.89862043 4280165151
-0.30572623 0.27942979 0.89860463 4280296483
-0.30395639 0.27943298 0.89858878 4280559655
-0.30244398 0.27972934 0.8995809 4280362530
-0.30092785 0.28002569 0.9005729 4280296737
-0.29915425 0.28002888 0.9005571 4280559908
-0.29763249 0.28032526 0.90154904 4280033563
-0.29610696 0.28062162 0.90254104 4279901976
-0.29432961 0.28062484 0.90252513 4279901977
-0.29279849 0.28092122 0.90351707 4280033563
-0.29101926 0.28092441 0.90350115 4280165149
-0.2894825 0.28122082 0.90449303 4280230942
-0.28770143 0.28122401 0.90447712 4280625700
-0.28615904 0.28152043 0.90546894 4279770904
-0.28461289 0.28181684 0.9064607 4278981388
-0.28306299 0.28211325 0.90745246 4278980875
-0.28127629 0.28211647 0.90743649 4278717703
-0.27948958 0.28211969 0.90742052 4278717702
-0.27770287 0.28212291 0.90740454 4278783495
-0.27591616 0.28212616 0.90738857 4278783495
-0.27435502 0.28242257 0.90838021 4278915081
-0.27301383 0.28301224 0.91037941 4278915338
-0.27144331 0.28330868 0.91137099 4278849801
-0.27008897 0.28389838 0.91337007 4278849801
-0.26850909 0.28419486 0.91436154 4278850057
-0.26670927 0.28419811 0.91434544 4278849801
-0.26490942 0.28420135 0.91432941 4278849801
-0.26332203 0.28449783 0.91532081 4278718215
-0.26194146 0.28508756 0.91731966 4278718215
-0.26034471 0.28538406 0.918311 4278849801
-0.25874418 0.28568056 0.91930228 4278652422
-0.25734487 0.28627035 0.92130095 4278718215
-0.25593805 0.28686011 0.92329955 4278849801
-0.25452375 0.2874499 0.92529809 4278915081
-0.25310192 0.28803971 0.92729658 4278915081
-0.25187007 0.28892279 0.93030232 4278849288
-0.25043136 0.28951263 0.93230069 4278849288
-0.24898519 0.29010248 0.93429893 4278849288
-0.24714786 0.29010579 0.93428254 4278980360
-0.24531053 0.29010913 0.93426609 4279111946
-0.24384934 0.29069901 0.93626422 4279375118
-0.24256685 0.29158217 0.93926954 4279638290
-0.24090447 0.29187879 0.94026029 4279769876
-0.23960324 0.29276201 0.94326544 4279506961
-0.23847131 0.29393852 0.94727767 4279638804
-0.2373244 0.29511508 0.95128977 4279770390
-0.23580885 0.29570505 0.95328742 4279770390
-0.23533548 0.29805487 0.96132791 4279770390
-0.23483212 0.30040476 0.96936816 4279507218
-0.23446995 0.30304798 0.97841525 4279375632
-0.23339675 0.30451801 0.9834336 4279243789
-0.33401257 0.28292158 0.9049235 4278915081
-0.33223146 0.28292477 0.90490758 4279046667
-0.32930812 0.28174809 0.900859 4279704598
-0.32725084 0.28145629 0.89983499 4280230942
-0.32547912 0.28145948 0.89981914 4280165149
-0.32398736 0.28175768 0.90081143 4280033563
-0.32249185 0.28205585 0.90180373 4279901977
-0.32071638 0.28205907 0.90178782 4279836184
-0.31866661 0.28176728 0.90076393 4279704598
-0.31689301 0.28177047 0.90074807 4279967770
-0.31511945 0.28177366 0.90073222 4280033563
-0.31361455 0.28207189 0.9017244 4280165151
-0.31183907 0.28207508 0.90170854 4280165151
-0.31006363 0.2820783 0.90169269 4280230690
-0.30802509 0.28178647 0.90066886 4280428069
-0.3062515 0.28178966 0.900653 4280888106
-0.30447793 0.28179285 0.90063715 4280756520
-0.30270433 0.28179607 0.90062129 4280362273
-0.30118632 0.2820943 0.90161335 4279967772
-0.29941085 0.28209749 0.9015975 4279901977
-0.29813904 0.28269079 0.90359741 4279573012
-0.29660976 0.28298903 0.90458935 4279573012
-0.29482868 0.28299224 0.90457344 4279770391
-0.2932938 0.28329051 0.90556532 4279836184
-0.2912665 0.28299868 0.90454161 4279901977
-0.28972787 0.28329694 0.90553349 4279901977
-0.28818548 0.28359523 0.90652531 4279901977
-0.28640065 0.28359845 0.9065094 4280033563
-0.28508946 0.28419179 0.9085089 4279836185
-0.28353581 0.28449011 0.90950066 4279638805
-0.28174534 0.28449333 0.90948468 4279309840
-0.27995491 0.28449655 0.90946865 4278915081
-0.27816445 0.28449979 0.90945268 4278849288
-0.27614653 0.28420794 0.90842903 4278783495
-0.27458352 0.28450626 0.90942067 4278718215
-0.27301675 0.28480458 0.91041231 4278849801
-0.27144626 0.2851029 0.91140389 4278915851
-0.27009192 0.28569633 0.91340303 4279112973
-0.26851204 0.28599468 0.91439456 4279047180
-0.2669284 0.28629303 0.91538602 4278981387
-0.26491237 0.28600118 0.91436243 4278915594
-0.26311255 0.28600442 0.91434634 4278981387
-0.26152328 0.28630278 0.91533774 4278915594
-0.26013896 0.28689626 0.91733664 4278849801
-0.25854033 0.28719464 0.91832799 4278849801
-0.25693795 0.28749302 0.91931927 4278784008
-0.25533181 0.28779143 0.92031056 4278915594
-0.25372192 0.28808981 0.92130178 4279046667
-0.25210831 0.28838822 0.92229301 4279244046
-0.25088581 0.28927693 0.92529899 4279177739
-0.24965209 0.29016563 0.92830479 4279177996
-0.2484071 0.29105437 0.93131059 4278915081
-0.2465754 0.29105768 0.9312942 4279046153
-0.24493363 0.29135612 0.93228519 4279046153
-0.24366428 0.29224491 0.93529069 4279177739
-0.24219748 0.29283854 0.93728882 4279375118
-0.24090751 0.29372737 0.94029421 4279375118
-0.23960628 0.29461619 0.94329941 4279638290
-0.23847437 0.29580021 0.94731182 4279638804
-0.23768488 0.29757461 0.9533385 4279704597
-0.23616557 0.29816836 0.95533621 4279770390
-0.23568848 0.30053318 0.96337694 4279573011
-0.23518139 0.30289805 0.97141743 4279112460
-0.23498671 0.30585337 0.9814719 4278915081
-0.33343685 0.28410894 0.90293968 4278849288
-0.33194694 0.28440902 0.90393203 4279244046
-0.32988217 0.28411537 0.90290791 4280099355
-0.32753745 0.28352484 0.90087569 4279901977
-0.32548204 0.2832312 0.89985162 4279704598
-0.32399029 0.28353125 0.90084398 4279836184
-0.32221669 0.28353444 0.90082812 4279704598
-0.32044309 0.28353766 0.90081227 4279638805
-0.3183952 0.28324398 0.89978832 4279638805
-0.31662348 0.28324717 0.89977252 4279836184
-0.31485176 0.28325036 0.89975667 4279836184
-0.31334877 0.28355044 0.90074891 4279770392
-0.31157517 0.28355363 0.90073305 4280165151
-0.31006652 0.28385374 0.90172523 4280428323
-0.30802801 0.28356004 0.90070134 4280494117
-0.30625442 0.28356323 0.90068555 4280428322
-0.30448082 0.28356645 0.90066969 4280230943
-0.30270725 0.28356963 0.90065384 4279704599
-0.30118921 0.28386974 0.90164596 4279507219
-0.29941377 0.28387296 0.90163004 4279441426
-0.29814196 0.28446999 0.90363002 4279441425
-0.29661268 0.2847701 0.90462202 4279309839
-0.2948316 0.28477332 0.9046061 4279507218
-0.29329672 0.28507346 0.90559804 4279507218
-0.29126942 0.28477976 0.90457428 4279441425
-0.28948835 0.28478298 0.90455836 4279244046
-0.28794783 0.28508312 0.90555024 4279244047
-0.28616488 0.28508633 0.90553433 4279507219
-0.28485557 0.28568342 0.90753394 4279507219
-0.2833038 0.28598359 0.90852576 4279967770
-0.28151521 0.28598684 0.90850979 4279967770
-0.27972662 0.28599006 0.90849382 4279836183
-0.27793804 0.28599328 0.90847784 4279638804
-0.27614945 0.2859965 0.90846187 4279244046
-0.27458644 0.2862967 0.90945351 4278915337
-0.2730197 0.28659689 0.91044521 4278915594
-0.27144918 0.28689709 0.9114368 4279047180
-0.27009487 0.28749427 0.91343606 4279178766
-0.26851499 0.2877945 0.91442758 4279178253
-0.26671517 0.28779775 0.91441149 4279178766
-0.26491532 0.287801 0.91439545 4279047180
-0.26290303 0.28750727 0.9133718 4279112973
-0.26131567 0.28780749 0.91436327 4279047180
-0.25972453 0.28810772 0.91535473 4279047180
-0.25812966 0.28840798 0.91634613 4278981387
-0.25673595 0.28900522 0.91834497 4279047180
-0.25513172 0.28930551 0.91933632 4279178253
-0.25332251 0.28930876 0.91932017 4279112460
-0.25171262 0.28960904 0.92031145 4279178253
-0.25049388 0.29050335 0.92331749 4279244046
-0.24926393 0.29139766 0.92632353 4279046667
-0.24782899 0.29199499 0.92832202 4279112460
-0.24619474 0.29229531 0.92931306 4279046667
-0.24455674 0.29259565 0.93030411 4279111946
-0.24310306 0.29319301 0.93230242 4279177739
-0.2418281 0.29408741 0.93530798 4279243532
-0.24035755 0.29468483 0.93730617 4279309325
-0.23942685 0.29617333 0.94232619 4279572497
-0.238658 0.29795894 0.94835323 4279835669
-0.23786665 0.29974461 0.95438015 4279507218
-0.2365223 0.30063915 0.95738512 4279375632
-0.23604149 0.30301899 0.96542609 4279046667
-0.23570375 0.30569592 0.97447401 4278915081
-0.23516107 0.30807585 0.98251444 4279244046
-0.33640829 0.28528243 0.90098745 4280362013
-0.33434349 0.28498691 0.89996332 4280098841
-0.33315042 0.28558755 0.90196401 4279243532
-0.3322373 0.28648692 0.90497297 4279177996
-0.33074179 0.28678888 0.90596527 4279704340
-0.32839143 0.28619462 0.90393287 4279704597
-0.32604858 0.28560036 0.90190059 4279507219
-0.32427314 0.28560355 0.90188473 4279638805
-0.32249767 0.28560677 0.90186882 4279573012
-0.32072219 0.28560996 0.90185297 4279573012
-0.31867242 0.28531441 0.90082896 4279836183
-0.3166264 0.28501886 0.89980501 4280230942
-0.31485468 0.28502205 0.89978915 4280428321
-0.31335166 0.28532401 0.90078145 4280099356
-0.31157807 0.28532723 0.9007656 4279836184
-0.3098045 0.28533041 0.90074974 4279638805
-0.30829397 0.2856324 0.90174192 4279573012
-0.30625731 0.28533682 0.90071803 4279836184
-0.30474305 0.28563881 0.90171021 4279638035
-0.30322504 0.28594077 0.90270233 4279506706
-0.30144772 0.28594398 0.90268648 4279375633
-0.29992408 0.28624597 0.90367854 4279309840
-0.29839671 0.28654799 0.9046706 4279441425
-0.29686555 0.28684998 0.9056626 4279507218
-0.2950826 0.28685319 0.90564668 4279375632
-0.29329965 0.28685641 0.90563077 4279441425
-0.29151669 0.28685963 0.90561485 4279441425
-0.28973371 0.28686285 0.90559888 4279310095
-0.28795075 0.28686607 0.90558296 4279244559
-0.28640649 0.28716809 0.90657485 4279244559
-0.2850953 0.28776896 0.90857452 4279178766
-0.28354168 0.28807101 0.90956634 4279309839
-0.28175122 0.28807423 0.90955037 4279178253
-0.28019196 0.2883763 0.91054213 4279244559
-0.27839965 0.28837952 0.9105261 4279310096
-0.2766073 0.28838277 0.91051012 4279375632
-0.27504054 0.28868482 0.91150182 4279507218
-0.27347004 0.28898689 0.91249347 4279704597
-0.2718958 0.289289 0.91348511 4279375889
-0.27031779 0.28959107 0.91447669 4279507218
-0.26851794 0.28959432 0.9144606 4279375632
-0.26693431 0.28989643 0.91545212 4279375632
-0.26513261 0.28989968 0.91543603 4279244302
-0.26311845 0.28960407 0.91441238 4279770390
-0.26131862 0.28960732 0.91439629 4279573011
-0.25972748 0.28990942 0.91538775 4279441425
-0.25813261 0.29021156 0.91637921 4279178253
-0.25673893 0.29081255 0.91837817 4279178253
-0.2549316 0.2908158 0.91836202 4279309839
-0.25292307 0.29052019 0.91733837 4279244046
-0.25131693 0.29082233 0.91832972 4279244046
-0.24990451 0.29142338 0.9203285 4279309839
-0.24868017 0.29232332 0.9233346 4279178253
-0.24744458 0.29322329 0.92634064 4279178253
-0.24581407 0.29352546 0.92733181 4279178253
-0.24455974 0.29442546 0.93033767 4279309839
-0.24310607 0.29502657 0.93233603 4279440911
-0.24201731 0.29622552 0.93634909 4279506704
-0.24036057 0.29652777 0.93734002 4279572497
-0.23942989 0.29802567 0.94236016 4279769876
-0.23866107 0.29982251 0.94838744 4279572497
-0.23804843 0.30191836 0.95542181 4279309325
-0.23687905 0.30311742 0.95943415 4278980360
-0.23639451 0.30551228 0.96747535 4279046667
-0.23587997 0.30790716 0.97551632 4279178253
-0.33641118 0.287056 0.90101999 4280559906
-0.33434641 0.2867586 0.8999958 4280362013
-0.33286402 0.28706241 0.90098828 4279440911
-0.33195278 0.28796741 0.9039973 4279309325
-0.33045915 0.28827122 0.90498972 4279506704
-0.32839435 0.28797382 0.90396553 4279769876
-0.32633331 0.28767642 0.90294141 4279638805
-0.3239961 0.28707841 0.90090907 4279506964
-0.3222225 0.2870816 0.90089321 4279572244
-0.32044891 0.28708479 0.90087736 4279967259
-0.31867534 0.28708801 0.9008615 4280494116
-0.31690174 0.2870912 0.90084565 4281283630
-0.31512815 0.28709438 0.90082985 4281415216
-0.31335458 0.2870976 0.900814 4280691493
-0.31158099 0.28710079 0.90079814 4279836184
-0.30980739 0.28710401 0.90078229 4279704598
-0.30803382 0.2871072 0.90076643 4279507219
-0.30626023 0.28711039 0.90075058 4279507219
-0.30500531 0.2877149 0.90275085 4279374864
-0.30348542 0.28801876 0.90374297 4279638035
-0.30170619 0.28802198 0.90372711 4279506705
-0.299927 0.28802517 0.9037112 4279441425
-0.29865146 0.28862971 0.90571123 4279441425
-0.29686847 0.28863293 0.90569532 4279441425
-0.29508552 0.28863615 0.9056794 4279441425
-0.29330257 0.28863937 0.90566349 4279309839
-0.29127526 0.28834191 0.90463966 4279309839
-0.28949419 0.28834513 0.90462375 4279244303
-0.28795367 0.28864902 0.90561569 4279310352
-0.28617072 0.28865224 0.90559977 4279178766
-0.28486142 0.28925684 0.90759951 4279112973
-0.28330967 0.28956077 0.90859139 4279178766
-0.28198725 0.29016539 0.91059101 4279178766
-0.28019491 0.29016861 0.91057503 4279244559
-0.2786319 0.29047257 0.91156679 4279310352
-0.27683771 0.29047579 0.91155076 4279178253
-0.27504349 0.29047903 0.91153473 4279244046
-0.27347299 0.29078299 0.91252643 4279244046
-0.2716769 0.29078621 0.91251034 4279309839
-0.27010077 0.29109019 0.91350204 4279441426
-0.26852089 0.29139414 0.91449362 4279507219
-0.26672107 0.29139739 0.91447753 4279638805
-0.26513556 0.29170138 0.91546911 4279836184
-0.2631214 0.29140389 0.9144454 4279967770
-0.26132157 0.29140714 0.91442931 4279967770
-0.25973043 0.29171112 0.91542083 4279967770
-0.25792873 0.29171437 0.91540474 4279770391
-0.25653693 0.29231912 0.91740376 4279638805
-0.25493455 0.29262313 0.91839516 4279573012
-0.25292602 0.29232565 0.91737151 4279507219
-0.25131989 0.29262966 0.91836286 4279375633
-0.24990748 0.29323444 0.9203617 4279375633
-0.24868315 0.29414001 0.92336792 4279244046
-0.24725387 0.29474482 0.92536664 4279375632
-0.24581707 0.29534966 0.92736524 4279375632
-0.24456275 0.29625529 0.93037122 4279441425
-0.24348524 0.29746172 0.93438452 4279441425
-0.24239275 0.29866818 0.93839765 4279572497
-0.24091659 0.29927307 0.94039595 4279638290
-0.23979786 0.30047956 0.94440883 4279572497
-0.23902528 0.30228767 0.95043629 4278980360
-0.23840892 0.30439663 0.95747089 4278849288
-0.23723581 0.30560324 0.96148336 4279112460
-0.23657259 0.30771226 0.96851748 4279375632
-0.23588312 0.30982134 0.97555143 4279244046
-0.33700025 0.28943452 0.90306926 4279507218
-0.3349317 0.28913525 0.90204501 4279901976
-0.33315626 0.28913847 0.90202916 4279573011
-0.33166826 0.28944415 0.90302163 4279178253
-0.32989091 0.28944734 0.90300578 4279375632
-0.32811359 0.28945056 0.90298986 4279507219
-0.32577258 0.28884879 0.90095741 4279441169
-0.32371905 0.28854948 0.89993334 4279506450
-0.32194734 0.28855267 0.89991748 4279703830
-0.32017562 0.28855589 0.89990169 4280559139
-0.31867823 0.28886157 0.90089405 4281151276
-0.31690466 0.28886479 0.90087819 4281151789
-0.31513107 0.28886798 0.90086234 4280954666
-0.31335747 0.28887117 0.90084654 4280230942
-0.31131706 0.28857186 0.89982253 4279638805
-0.30954537 0.28857505 0.89980668 4279507218
-0.30803671 0.28888077 0.90079898 4279441425
-0.30652434 0.28918651 0.90179121 4279441425
-0.3050082 0.28949222 0.90278345 4279309839
-0.30348834 0.28979796 0.90377563 4279375632
-0.30170912 0.28980118 0.90375972 4279441425
-0.29992992 0.28980437 0.90374386 4279441425
-0.29840255 0.29011014 0.90473598 4279441425
-0.29662144 0.29011333 0.90472007 4279375632
-0.29484037 0.29011655 0.90470415 4279375632
-0.29305929 0.29011977 0.90468824 4279309839
-0.29103386 0.28982043 0.90366435 4279244303
-0.28925467 0.28982365 0.9036485 4279244559
-0.28747544 0.28982684 0.90363258 4279244559
-0.28593493 0.29013261 0.90462458 4279112973
-0.28439069 0.29043841 0.90561652 4279047180
-0.28307766 0.29104677 0.90761632 4278981387
-0.281524 0.29135257 0.9086082 4279112973
-0.27996665 0.29165837 0.90960008 4279178766
-0.27817619 0.29166159 0.90958405 4279112973
-0.27638572 0.29166481 0.90956807 4279112460
-0.27482083 0.29197064 0.91055983 4279178253
-0.27302852 0.29197386 0.91054386 4279244046
-0.27123618 0.29197711 0.91052783 4279244046
-0.26966381 0.29228294 0.91151953 4279178253
-0.26786959 0.29228616 0.91150349 4279244047
-0.2665078 0.29289463 0.91350287 4279309840
-0.26470986 0.29289785 0.91348678 4279244047
-0.26269943 0.29259849 0.91246307 4279375633
-0.26090336 0.29260173 0.91244704 4279507219
-0.25931597 0.2929076 0.91343862 4279770391
-0.25772485 0.29321346 0.91443014 4279901977
-0.25633493 0.29382196 0.91642928 4279967770
-0.25473443 0.29412782 0.91742074 4279967770
-0.25292897 0.2941311 0.91740459 4279770391
-0.25132287 0.29443699 0.918396 4279704598
-0.24991044 0.29504552 0.9203949 4279573012
-0.24868612 0.2959567 0.9234013 4279375633
-0.24725685 0.29656529 0.92540002 4279573011
-0.24582006 0.29717386 0.92739874 4279441425
-0.2447557 0.29838777 0.93141228 4279638804
-0.24386443 0.29990435 0.93643308 4279638804
-0.24295442 0.30142096 0.94145375 4279375632
-0.24165697 0.30233228 0.9444595 4279112203
-0.24053074 0.30354631 0.94847244 4278849031
-0.23957011 0.30506301 0.9534927 4279046667
-0.23859072 0.30657974 0.95851278 4279244046
-0.23741575 0.30779386 0.96252531 4279375632
-0.23657571 0.30961332 0.96855235 4279441425
-0.23571317 0.31143287 0.97457922 4280099355
-0.23431449 0.31234437 0.97758406 4281152043
-0.33729625 0.29151618 0.90411031 4278783751
-0.33551705 0.2915194 0.9040944 4279507218
-0.33373782 0.29152259 0.90407848 4279770390
-0.33195862 0.29152581 0.90406263 4279507218
-0.33017939 0.29152903 0.90404671 4279375633
-0.32811648 0.29122788 0.90302247 4279507219
-0.32605731 0.29092672 0.90199828 4279309841
-0.32400191 0.29062554 0.90097415 4279441428
-0.32222831 0.29062876 0.9009583 4279638807
-0.32045475 0.29063195 0.90094244 4280494116
-0.31895548 0.29093954 0.90193486 4281020460
-0.31718001 0.29094273 0.90191895 4280691495
-0.31540456 0.29094595 0.90190309 4280165151
-0.31362909 0.29094914 0.90188724 4279770391
-0.3115868 0.29064795 0.90086323 4279507218
-0.30981323 0.29065114 0.90084738 4279441425
-0.30830273 0.29095873 0.90183967 4279375632
-0.30678847 0.29126635 0.90283191 4279309839
-0.30501112 0.29126954 0.90281606 4279309839
-0.30349126 0.29157716 0.9038083 4279309839
-0.30171204 0.29158038 0.90379238 4279375632
