# .PCD v0.7 - Point Cloud Data file format
VERSION 0.7
FIELDS x y z rgba
SIZE 4 4 4 4
TYPE F F F U
COUNT 1 1 1 1
WIDTH 1120
HEIGHT 1
VIEWPOINT 0 0 0 1 0 0 0
POINTS 1120
DATA ascii
0.33902445 0.29361746 1.2541583 4286611578
0.34147111 0.29362187 1.2541364 4286019697
0.34330001 0.29318041 1.2521116 4286480505
0.34512141 0.29273894 1.2500867 4286481018
0.34724793 0.2925204 1.2490634 4287204998
0.34999973 0.29274774 1.250043 4287468426
0.3530716 0.29319805 1.2520242 4287534735
0.3555145 0.29320246 1.2520024 4287074444
0.35699704 0.29253799 1.2489762 4287271570
0.36845231 0.28722158 1.2247711 4287731603
0.37219259 0.28811786 1.2287549 4287468432
0.37560898 0.28879115 1.2317371 4287073674
0.37801439 0.28879547 1.2317157 4287139466
0.38007715 0.28857684 1.230693 4286612865
0.3821362 0.28835815 1.2296703 4286481279
0.38384509 0.28791648 1.2276465 4287862419
0.38485003 0.28702879 1.2236203 4288060054
0.38654017 0.28658709 1.2215967 4288455067
0.38892683 0.28659138 1.2215754 4288257689
0.39095962 0.28637269 1.2205529 4286612863
0.3933444 0.28637698 1.2205316 4287205000
0.39537156 0.28615826 1.2195092 4287599758
0.39739496 0.28593954 1.2184868 4287599758
0.39977601 0.28594384 1.2184656 4287533965
0.40288353 0.28639418 1.2204463 4287533966
0.40599853 0.28684455 1.2224271 4287073416
0.40912104 0.28729495 1.2244078 4286415486
0.41188219 0.28752232 1.2253875 4286942087
0.4146471 0.28774968 1.226367 4287336845
0.41629788 0.28730789 1.2243437 4286020474
0.4447003 0.2755731 1.1708628 4286283898
0.44782093 0.27602351 1.1728436 4286218105
0.45094907 0.27647391 1.1748241 4287468171
0.45408472 0.27692431 1.1768047 4288191895
0.45680836 0.27715161 1.1777847 4288915618
0.4591144 0.27715576 1.1777641 4288915617
0.46099719 0.27693677 1.1767429 4288586653
0.46330136 0.27694094 1.1767224 4287994258
0.46560553 0.27694508 1.1767018 4287862415
0.4687674 0.27739555 1.1786821 4287401864
0.47193679 0.27784604 1.1806624 4287270278
0.4755463 0.27851966 1.183643 4287336071
0.47916704 0.27919334 1.1866235 4287270278
0.48148996 0.27919751 1.1866027 4287269765
0.48468933 0.27964804 1.1885827 4287269765
0.48745611 0.27987543 1.1895622 4287269764
0.49066862 0.28032598 1.1915421 4287335556
0.49344477 0.28055334 1.1925216 4287138177
0.49756187 0.2814503 1.196502 4287138177
0.50169396 0.28234726 1.2004821 4287072384
0.30370572 0.29712167 1.2595402 4286086782
0.30393076 0.29532805 1.2515037 4286020986
0.30552953 0.29465818 1.2484765 4285954935
0.30570394 0.29286447 1.2404404 4285691761
0.30698636 0.29196978 1.2364116 4284244314
0.30911288 0.29174936 1.2353883 4283191626
0.31152391 0.29175371 1.2353667 4283388748
0.31422505 0.29198283 1.236347 4288257430
0.31692997 0.29221195 1.2373271 4288191637
0.31993249 0.29266587 1.239309 4288323480
0.32235101 0.29267025 1.2392873 4288191380
0.32536477 0.2931242 1.241269 4287796622
0.32868555 0.29380292 1.2442523 4287796109
0.33171618 0.2942569 1.2462338 4287664523
0.33445108 0.29448608 1.2472137 4287467144
0.33688459 0.29449049 1.247192 4287664266
0.33931813 0.29449487 1.2471703 4288058512
0.34113392 0.29404965 1.2451454 4286941575
0.34294221 0.2936044 1.2431207 4283127899
0.35053664 0.29384235 1.2440571 4283194467
0.35296455 0.29384673 1.2440354 4283851628
0.37117767 0.28984302 1.2257949 4288389534
0.3739107 0.29007223 1.2267748 4288455585
0.37528449 0.28940195 1.2237496 4287600274
0.37698966 0.28895652 1.2217257 4286876294
0.38883251 0.28740811 1.2145897 4287270280
0.39227328 0.28808707 1.217572 4287336586
0.39501002 0.28831625 1.2185518 4287665551
0.39667207 0.28787076 1.2165283 4287928723
0.39868799 0.28765014 1.215506 4288126615
0.40033692 0.28720459 1.2134826 4288389531
0.43929425 0.27740777 1.1689445 4287927955
0.44117329 0.2771869 1.1679235 4288125334
0.4430486 0.27696604 1.1669023 4286744449
0.44574785 0.27719516 1.1678826 4286415484
0.44886664 0.27764928 1.1698633 4286876034
0.45241049 0.27832845 1.1728446 4286941827
0.45554614 0.27878261 1.1748252 4286810241
0.45784655 0.27878675 1.1748047 4287072899
0.46057019 0.27901593 1.1757847 4287204485
0.46287248 0.27902007 1.1757641 4287336071
0.46602872 0.27947426 1.1777445 4287467657
0.46919248 0.27992848 1.1797249 4287401864
0.47279447 0.28060773 1.1827056 4287401862
0.4759751 0.28106198 1.1846859 4287401862
0.47959772 0.28174126 1.1876665 4287138690
0.48192251 0.28174546 1.1876458 4287138692
0.48468551 0.2819747 1.1886253 4287204483
0.48789239 0.28242898 1.1906054 4287204483
0.49110678 0.28288329 1.1925852 4287138690
0.49432865 0.28333759 1.1945652 4286809212
0.49889523 0.2844671 1.199546 4286677626
0.2938776 0.29955995 1.2596731 4286218115
0.29606226 0.29933777 1.2586492 4285625978
0.29878965 0.2995688 1.2596292 4285757563
0.30152079 0.29979986 1.2606091 4285692024
0.30342469 0.29935104 1.2585834 4285823608
0.30420563 0.29799569 1.2525504 4285889399
0.30552554 0.29709357 1.2485211 4288981925
0.30541736 0.29505822 1.2394829 4289705390
0.30612892 0.29370275 1.2334504 4289507754
0.30767709 0.29302716 1.2304236 4288257687
0.30979049 0.29280484 1.2294003 4287468171
0.31190014 0.29258251 1.2283771 4287862929
0.31429803 0.29258683 1.2283556 4287994515
0.31698981 0.29281783 1.229336 4287862929
0.31938958 0.29282215 1.2293146 4287928722
0.37049976 0.29178372 1.2238362 4284836711
0.3908464 0.28955913 1.2136109 4287270281
0.3939333 0.29001695 1.215592 4287665296
0.39594921 0.28979447 1.2145697 4286744707
0.39760002 0.2893452 1.2125462 4285297517
0.42237961 0.27785739 1.1611028 4288586655
0.42545152 0.27831519 1.163084 4287862162
0.42772943 0.2783193 1.1630636 4286809474
0.42920211 0.2778697 1.1610419 4287401611
0.43107179 0.27764696 1.1600208 4288125332
0.43375045 0.2778779 1.1610012 4287993746
0.43602461 0.27788201 1.1609808 4288125332
0.43870887 0.27811298 1.1619612 4287862160
0.44180888 0.27857083 1.1639422 4287204230
0.44408867 0.27857494 1.1639218 4287072899
0.44761568 0.27925968 1.1669035 4287204485
0.45157152 0.28017133 1.1708856 4287336071
0.45470339 0.28062925 1.1728662 4287467657
0.45700005 0.28063339 1.1728457 4287598988
0.45971996 0.28086442 1.1738257 4287599243
0.46286869 0.28132233 1.1758064 4287533450
0.46645194 0.28200719 1.1787874 4287467655
0.46961755 0.28246516 1.1807678 4287336069
0.47322142 0.28315005 1.1837487 4287467655
0.47640392 0.28360802 1.1857289 4287205253
0.48002839 0.28429294 1.1887096 4287271046
0.48235506 0.28429714 1.1886889 4287073667
0.4859964 0.28498209 1.1916693 4287072897
0.489649 0.28566706 1.1946498 4287007104
0.49287087 0.28612512 1.1966298 4286677882
0.2892766 0.30018365 1.2517241 4285033841
0.29225662 0.30064502 1.2537062 4284968047
0.29497275 0.30087793 1.2546864 4285494392
0.29769266 0.30111083 1.2556665 4286218113
0.3006914 0.30157226 1.2576485 4286283904
0.30342066 0.30180517 1.2586285 4286876296
0.30531707 0.30135259 1.2566028 4287468431
0.3066445 0.30044299 1.2525734 4289310635
0.30823955 0.29976186 1.2495459 4289573804
0.30640945 0.29633853 1.2344965 4289903026
0.30738679 0.29520026 1.2294658 4289771439
0.30892181 0.29451904 1.2264389 4289179046
0.31073573 0.29406631 1.2244139 4288652701
0.31225017 0.29338503 1.2213873 4288323480
0.31404722 0.29293227 1.2193624 4288389273
0.31613252 0.29270804 1.2183394 4288323480
0.31821406 0.29248378 1.2173164 4288388759
0.32029185 0.29225951 1.2162935 4288322966
0.41852131 0.27921259 1.1571614 4287402381
0.42039099 0.27898797 1.1561403 4288060311
0.42265579 0.27899206 1.1561201 4288256920
0.42451984 0.27876741 1.155099 4286743680
0.42678276 0.27877149 1.1550788 4286546300
0.42904568 0.27877557 1.1550586 4287138437
0.4313086 0.27877966 1.1550384 4287336072
0.43438795 0.2792412 1.1570196 4287401609
0.43747485 0.27970278 1.1590009 4287467402
0.44056922 0.28016436 1.160982 4287467657
0.44325724 0.28039721 1.1619624 4287533450
0.44636473 0.28085884 1.1639433 4287665036
0.45031494 0.28177798 1.1679256 4287730316
0.45386067 0.28246838 1.1709071 4287598730
0.45615357 0.28247249 1.1708866 4287532937
0.45929295 0.28293416 1.1728673 4287401351
0.46243981 0.28339586 1.174848 4287533449
0.46602118 0.28408632 1.1778291 4287599241
0.46961376 0.28477681 1.1808102 4287336326
0.47321761 0.2854673 1.1837912 4287205253
0.47683272 0.28615785 1.1867721 4287007874
0.48089352 0.28707716 1.1907533 4286876288
0.48366028 0.28731015 1.191733 4286613116
0.48730725 0.28800073 1.1947136 4286481530
0.25002283 0.30002522 1.2410709 4286283391
0.25654867 0.29934737 1.2379993 4281019692
0.25896344 0.29935172 1.2379777 4279374866
0.28280735 0.30123374 1.2458001 4287402387
0.28523713 0.30123812 1.2457784 4286744712
0.28846976 0.30193359 1.2487628 4286283904
0.29144412 0.30239871 1.2507451 4285165166
0.29469737 0.30309421 1.2537292 4283783512
0.29741538 0.30332899 1.2547094 4282928203
0.30068737 0.30402452 1.2576934 4281020205
0.30369362 0.3044897 1.2596754 4282270272
0.3058708 0.30426374 1.2586515 4289178792
0.30776346 0.30380741 1.2566258 4290297273
0.30880079 0.3026599 1.2515944 4290034099
0.30754346 0.29966921 1.2385482 4289837233
0.30795556 0.29806083 1.2315135 4289968818
0.30978262 0.29760438 1.2294884 4290034611
0.31073183 0.29645669 1.2244577 4289968818
0.31224626 0.29576981 1.221431 4289639597
0.31374946 0.29508287 1.2184043 4288981410
0.31553712 0.29462636 1.2163795 4288389273
0.3170197 0.29393938 1.2133529 4288191637
0.3187905 0.29348284 1.2113283 4288191380
0.32055381 0.29302627 1.2093037 4288388759
0.32291609 0.29303053 1.2092826 4288322966
0.4135929 0.28124049 1.1562425 4288784034
0.41546446 0.281014 1.1552213 4288981413
0.41733229 0.28078747 1.1542003 4288981413
0.4195933 0.28079155 1.15418 4288652446
0.42185435 0.28079563 1.1541599 4288520090
0.42411539 0.28079972 1.1541396 4287598988
0.42677903 0.28103438 1.1551204 4287204485
0.42944643 0.28126907 1.1561009 4287401864
0.43171123 0.28127316 1.1560807 4287336071
0.43479246 0.28173849 1.158062 4287467657
0.4378812 0.28220379 1.1600432 4287665036
0.4405655 0.28243852 1.1610237 4287796622
0.44366735 0.28290388 1.1630048 4287862415
0.44677672 0.28336924 1.1649859 4287730316
0.45031118 0.28406525 1.1679676 4287598730
0.45343742 0.28453064 1.1699485 4287664010
0.45614982 0.28476539 1.1709287 4287467142
0.45928919 0.28523082 1.1729095 4287532935
0.46286115 0.28592691 1.1758908 4287467655
0.46687135 0.28685364 1.1798726 4287336070
0.47003883 0.28731909 1.1818532 4286744703
0.47364452 0.28801525 1.1848342 4286547580
0.47769409 0.28894204 1.1888158 4286416251
0.24182218 0.30150381 1.2371707 4284112478
0.24352786 0.30081165 1.2341421 4282598470
0.24569753 0.30058381 1.2331183 4282796103
0.24810292 0.30058813 1.2330967 4285690995
0.25026697 0.30036029 1.2320729 4286480509
0.2526705 0.30036461 1.2320515 4285559407
0.25458378 0.29990458 1.2300255 4284046168
0.25673658 0.29967672 1.2290018 4281348655
0.2596322 0.30014542 1.2309848 4286809474
0.26228461 0.30038196 1.2319657 4286546815
0.26544598 0.30108291 1.2349508 4283191629
0.2683641 0.3015517 1.2369336 4287731606
0.27077699 0.30155605 1.236912 4286678919
0.2731899 0.3015604 1.2368904 4286810250
0.27560282 0.30156475 1.2368689 4287665816
0.27853969 0.30203354 1.2388515 4287073679
0.28174791 0.30273458 1.2418363 4285099887
0.28470168 0.30320343 1.2438189 4284047199
0.28793055 0.3039045 1.2468034 4284309857
0.29144013 0.30483785 1.2507898 4283717719
0.29469338 0.30553895 1.2537742 4282993739
0.29741138 0.30577561 1.2547543 4282335550
0.30040824 0.30624452 1.2567364 4282269757
0.30341262 0.30671346 1.2587185 4280098588
0.30558792 0.30648562 1.2576946 4279441171
0.30804017 0.30649003 1.2576727 4284770661
0.30907941 0.30533317 1.2526411 4290363065
0.30924642 0.30347946 1.244604 4290494650
0.30966979 0.30185795 1.237569 4290297271
0.31093162 0.30093321 1.2335399 4290099892
0.31188834 0.2997762 1.2285091 4290165685
0.31282634 0.29861912 1.2234784 4290297270
0.31345168 0.29722974 1.2174461 4290231477
0.31523749 0.29676947 1.2154212 4289902512
0.31582537 0.29538 1.2093892 4289178275
0.31698972 0.29445511 1.205361 4288454552
0.32252851 0.29330632 1.2002892 4288257174
0.32425997 0.29284596 1.1982648 4288257945
0.40448046 0.28209832 1.1503388 4287533713
0.40673399 0.28210238 1.1503186 4288520608
0.40820858 0.28164154 1.1482965 4287468174
0.41006702 0.28141314 1.1472754 4286415486
0.41231495 0.28141719 1.1472554 4287993746
0.41495797 0.28165373 1.1482362 4287862160
0.41800171 0.2821227 1.1502179 4287796367
0.42065409 0.28235924 1.1511987 4287665036
0.42331025 0.28259578 1.1521794 4287533450
0.42637274 0.28306481 1.154161 4287599243
0.42903826 0.28330138 1.1551416 4287665036
0.4317075 0.28353795 1.1561222 4287665036
0.43519697 0.2842395 1.1591045 4287796622
0.43828759 0.28470856 1.1610857 4287796622
0.44097373 0.28494516 1.1620662 4287730829
0.44366363 0.28518176 1.1630466 4287730827
0.44677296 0.28565088 1.1650277 4287665034
0.45030743 0.28635252 1.1680095 4287664521
0.45385313 0.28705418 1.1709912 4287598728
0.45614606 0.28705829 1.1709707 4287335556
0.45928541 0.28752747 1.1729516 4287138690
0.46328247 0.28846169 1.1769338 4286810241
0.46772149 0.28962845 1.1819164 4286612862
0.47089273 0.29009768 1.1838969 4286350203
0.23894134 0.30344427 1.2352318 4286085499
0.24088277 0.30298051 1.2332053 4284835686
0.24234523 0.30204865 1.2291744 4282730055
0.24450552 0.30181891 1.2281506 4281875001
0.24666207 0.30158919 1.2271268 4282401345
0.24905621 0.30159348 1.2271054 4284638305
0.25120714 0.30136374 1.2260817 4285888372
0.25310919 0.30089992 1.2240558 4286217337
0.25549772 0.30090424 1.2240344 4286085751
0.25813511 0.30114263 1.2250153 4285690993
0.26077625 0.30138102 1.2259963 4283717203
0.26367375 0.30185348 1.2279793 4282861894
0.26657873 0.30232599 1.2299623 4285559923
0.26949126 0.30279848 1.2319453 4287533970
0.27215299 0.30303693 1.232926 4286942091
0.27507862 0.30350944 1.2349088 4285165680
0.27853572 0.30445018 1.2388959 4284639336
0.28200781 0.30539095 1.2428828 4284705385
0.28469768 0.30562943 1.2438633 4284507492
0.28792655 0.30633613 1.246848 4284310112
0.29116666 0.30704287 1.2498325 4283849047
0.29414663 0.3075155 1.2518148 4282664515
0.2968609 0.30775401 1.2527951 4282138171
0.29985401 0.30822667 1.2547773 4281874999
0.30230066 0.30823109 1.2547555 4281940792
0.30446845 0.30800137 1.2537316 4280361760
0.30691323 0.30800578 1.2537098 4279572757
0.30822757 0.30707365 1.24968 4279375635
0.30952692 0.30614147 1.2456505 4284836452
0.31081125 0.30520928 1.241621 4289441963
0.31208059 0.30427706 1.2375917 4290889409
0.31362507 0.30357897 1.2345644 4290560186
0.31515828 0.30288085 1.2315373 4290231221
0.31641671 0.29821059 1.2114363 4290428087
0.31758481 0.2972782 1.2074078 4290362293
0.31843656 0.29611161 1.2023778 4289902255
0.32130426 0.29471502 1.1963252 4288586396
0.32272121 0.29401669 1.1932991 4288389274
0.32381809 0.29308417 1.1892713 4288389532
0.32521066 0.29238582 1.1862454 4288586654
0.32721722 0.2921558 1.185223 4288521374
0.32890555 0.2916916 1.1831989 4288652960
0.33090273 0.29146156 1.1821766 4288587168
0.33289617 0.29123154 1.1811543 4288455838
0.33520594 0.29123569 1.1811336 4288127129
0.33719376 0.29100567 1.1801114 4287929493
0.33917782 0.2907756 1.1790892 4287863699
0.34148386 0.29077977 1.1790686 4287863186
0.39920574 0.28387511 1.1484182 4284836200
0.40068784 0.28341052 1.1463959 4284375649
0.40216243 0.28294593 1.1443738 4287862932
0.40362951 0.28248131 1.1423517 4288455069
0.4054786 0.28225103 1.1413307 4288126102
0.40771526 0.28225505 1.1413107 4286809472
0.41073838 0.28272778 1.1432927 4287204230
0.4141641 0.28343481 1.1462755 4287796109
0.41720408 0.28390756 1.1482574 4287730316
0.4198527 0.28414595 1.1492382 4287730829
0.4229058 0.28461874 1.15122 4287862415
0.42596644 0.28509149 1.1532016 4287862415
0.42903453 0.28556427 1.1551831 4287730829
0.43170381 0.28580272 1.1561638 4287796622
0.43519324 0.2865099 1.1591461 4287730829
0.43828386 0.28698272 1.1611274 4287730829
0.44138196 0.28745556 1.1631087 4287665036
0.44407374 0.28769404 1.1640892 4287861900
0.44760066 0.28840131 1.1670711 4287730314
0.45155647 0.28934294 1.1710538 4287467142
0.45552728 0.2902846 1.1750363 4286875005
0.45824903 0.29052314 1.1760164 4286677883
0.46139774 0.29099607 1.1779972 4286612346
0.23916937 0.30608931 1.2362783 4287269773
0.24087884 0.30538589 1.2332495 4286019960
0.24257703 0.30468246 1.2302208 4284638307
0.24450159 0.30421492 1.2281945 4285362030
0.24665813 0.30398333 1.2271707 4283848789
0.24881093 0.30375171 1.2261469 4282664515
0.25120321 0.30375603 1.2261256 4283256652
0.25310528 0.30328843 1.2240995 4281611827
0.25549379 0.30329275 1.2240782 4282006585
0.25838006 0.30376896 1.2260615 4282664515
0.26102304 0.30400923 1.2270424 4283782996
0.26392242 0.30448547 1.2290255 4283651410
0.26682928 0.30496171 1.2310086 4283915098
0.26974365 0.30543798 1.2329916 4284112735
0.27240729 0.30567828 1.2339723 4284178528
0.27533478 0.30615455 1.2359552 4284244320
0.27879372 0.3071028 1.2399424 4284902250
0.28226769 0.30805108 1.2439295 4285033321
0.28522518 0.30852741 1.2459122 4284901991
0.28819016 0.30900377 1.2478946 4284177753
0.29089317 0.30924413 1.248875 4283914580
0.29387128 0.30972052 1.2508575 4282796099
0.29658365 0.3099609 1.2518378 4282203962
0.29902467 0.30996531 1.251816 4282072378
0.30118874 0.30973372 1.2507921 4282269757
0.30307016 0.30926609 1.2487663 4281348655
0.30522484 0.3090345 1.2477425 4281217069
0.30681056 0.30833083 1.2447147 4279836186
0.30838501 0.30762717 1.2416872 4279836186
0.31023458 0.30715951 1.2396616 4279112463
0.31236488 0.30692786 1.238638 4282862407
0.31478152 0.30693221 1.2386163 4289112229
0.31843942 0.30599681 1.2345656 4290757054
0.31998408 0.30340907 1.223502 4290428088
0.31967729 0.30128902 1.2144641 4290493880
0.31993949 0.29964098 1.20743 4290493880
0.32078189 0.29846498 1.2023998 4290494650
0.32221574 0.29776108 1.1993735 4290428857
0.32302436 0.29658502 1.1943437 4290034099
0.3235054 0.29517287 1.1883122 4289244583
0.32458541 0.29423282 1.1842844 4288849825
0.32658821 0.29400092 1.183262 4288652702
0.32795832 0.2932969 1.1802362 4288784545
0.32963353 0.29282892 1.1782122 4288652958
0.33161947 0.292597 1.1771899 4288652958
0.33360165 0.29236507 1.1761677 4288916130
0.33525813 0.29189706 1.1741439 4288850337
0.33723092 0.29166514 1.1731217 4288718751
0.33887425 0.29119709 1.171098 4288389786
0.34083769 0.29096511 1.1700759 4287995028
0.3424679 0.29049706 1.1680523 4287862929
0.34442198 0.29026508 1.1670303 4287862929
0.34670553 0.2902692 1.1670099 4288323481
0.34932417 0.29050943 1.167991 4288323481
0.3860901 0.2849237 1.143554 4288981159
0.39094728 0.28516799 1.1445152 4287402127
0.39243314 0.28469965 1.1424928 4287007369
0.39429158 0.28446752 1.1414716 4286547072
0.39652824 0.28447154 1.1414517 4287270795
0.39876491 0.28447556 1.1414317 4287599760
0.40061587 0.2842434 1.1404107 4287533965
0.40246308 0.28401124 1.1393896 4287599243
0.4043065 0.28377905 1.1383686 4287598987
0.40732023 0.2842555 1.1403507 4287927695
0.41034147 0.28473195 1.1423328 4288125074
0.41376531 0.28544465 1.1453158 4288190867
0.41720039 0.28615734 1.1482986 4287993488
0.41984901 0.28639761 1.1492795 4288125587
0.42330283 0.28711036 1.1522622 4287862415
0.42636532 0.28758687 1.1542439 4287862415
0.42943528 0.28806341 1.1562256 4287796622
0.43210644 0.28830373 1.1572062 4287862415
0.43559775 0.28901654 1.1601886 4287862415
0.43910033 0.28972936 1.1631709 4287730829
0.4430261 0.29067844 1.167154 4287467657
0.44572535 0.29091883 1.1681343 4287072899
0.23939741 0.30873814 1.2373251 4287599506
0.2413426 0.30826688 1.2352985 4283848791
0.2425731 0.30708224 1.2302648 4286612097
0.24426006 0.30637315 1.227236 4287467406
0.24641472 0.30613965 1.2262123 4283980377
0.24856564 0.30590615 1.2251885 4285559409
0.25119928 0.30614829 1.2261695 4286875267
0.25359157 0.30615258 1.2261481 4282269757
0.25623083 0.30639473 1.2271291 4285559407
0.25912267 0.30687469 1.2291124 4286217337
0.26152059 0.30687901 1.2290909 4284440926
0.26417109 0.30712119 1.2300718 4286809474
0.26707983 0.30760118 1.2320549 4284111961
0.26999608 0.30808121 1.234038 4284638306
0.27266157 0.30832338 1.2350187 4284967272
0.27611113 0.30927911 1.2390062 4284901221
0.27931371 0.30999702 1.2419913 4285098599
0.28279141 0.31095278 1.2459785 4285295721
0.28522119 0.31095716 1.2459567 4284769632
0.28791857 0.31119943 1.2469372 4284440667
0.2906197 0.31144166 1.2479177 4283651151
0.29332459 0.31168392 1.248898 4282598720
0.2960332 0.31192619 1.2498784 4282335548
0.29847047 0.31193057 1.2498566 4282138170
0.30063078 0.3116971 1.2488327 4282072891
0.30222961 0.31098786 1.2458048 4281349168
0.30437866 0.31075436 1.244781 4280954667
0.30595875 0.31004506 1.2417532 4280362530
0.30781209 0.30957368 1.2397275 4280099358
0.30937156 0.30886436 1.2366999 4280559909
0.31120801 0.30839291 1.2346743 4280362530
0.31361717 0.30839726 1.2346529 4279967515
0.31573433 0.3081637 1.2336293 4282532929
0.31755391 0.30769223 1.231604 4288388506
0.31936598 0.30722076 1.2295787 4291546570
0.32027775 0.30603552 1.2245477 4291020226
0.32087132 0.30461231 1.2185152 4290822847
0.321141 0.30295119 1.2114807 4290559674
0.3216877 0.30152792 1.2054485 4290428344
0.32282209 0.30058044 1.2014202 4290428857
0.32302055 0.29891917 1.1943865 4290494650
0.32350162 0.29749578 1.1883548 4290494137
0.32458162 0.29654822 1.1843269 4290363064
0.32658443 0.29631445 1.1833044 4289836720
0.32795453 0.2956048 1.1802785 4289310376
0.32962975 0.29513308 1.1782545 4289047716
0.33129749 0.29466134 1.1762304 4289113509
0.33295768 0.29418957 1.1742065 4289047716
0.3346104 0.2937178 1.1721827 4289047716
0.33625561 0.29324603 1.1701589 4289179302
0.33756763 0.29253626 1.1671335 4289179302
0.33952355 0.2923024 1.1661114 4288981667
0.34114626 0.29183057 1.1640878 4288784031
0.34309283 0.29159671 1.1630658 4288455066
0.34536889 0.29160082 1.1630455 4288191895
0.34764493 0.29160494 1.1630251 4288126102
0.34992096 0.29160902 1.1630048 4288126101
0.35253584 0.29185113 1.163986 4288257688
0.38384601 0.28716007 1.1436151 4286941830
0.38385087 0.28573585 1.1375877 4287797139
0.38682899 0.28621596 1.1395702 4288389276
0.3890619 0.28621998 1.1395502 4288718241
0.39091659 0.28598595 1.1385292 4288256920
0.39314765 0.28598997 1.1385092 4287006851
0.39537868 0.28599399 1.1384892 4287467402
0.39799356 0.28623611 1.1394705 4287533450
0.39984077 0.28600204 1.1384494 4287730829
0.40168422 0.285768 1.1374284 4288059281
0.40391338 0.28577203 1.1374085 4288125074
0.40692523 0.2862522 1.1393907 4288125074
0.41033781 0.2869705 1.1423738 4288059281
0.41376162 0.28768879 1.1453569 4288058768
0.41679972 0.28816903 1.1473389 4288124561
0.41944647 0.28841117 1.1483198 4288059281
0.42329913 0.28936765 1.1523037 4287993488
0.42636162 0.28984791 1.1542854 4287665036
0.42943159 0.2903282 1.156267 4287336071
0.43210271 0.29057038 1.1572478 4287072899
0.43559402 0.29128882 1.1602303 4287665036
0.43909657 0.29200727 1.1632127 4287204485
0.24227406 0.31163472 1.2393528 4284638564
0.24351206 0.31044069 1.2343187 4289046438
0.24496894 0.30948633 1.2302873 4287401613
0.24688976 0.30901128 1.228261 4284638307
0.24928579 0.3090156 1.2282397 4287796371
0.2516818 0.30901992 1.2282182 4287204234
0.25456804 0.30950364 1.2302016 4282861382
0.25721481 0.30974767 1.2311826 4286216824
0.25986531 0.30999169 1.2321634 4287664270
0.26226884 0.30999604 1.232142 4283454031
0.26467237 0.31000036 1.2321205 4287270025
0.26733038 0.31024441 1.2331014 4284506719
0.27024847 0.31072816 1.2350845 4285361515
0.27317408 0.31121194 1.2370676 4285164136
0.27688748 0.31241491 1.2420573 4284769378
0.28035766 0.31337819 1.2460448 4285690480
0.28357899 0.31410173 1.2490298 4284967011
0.2862801 0.31434587 1.2500101 4284440667
0.28871739 0.31435025 1.2499884 4284046166
0.29115465 0.31435466 1.2499666 4283585615
0.29359195 0.31435904 1.2499448 4282270268
0.29602921 0.31436345 1.2499231 4282204732
0.29791629 0.31388834 1.247897 4281875767
0.29951888 0.31317347 1.2448689 4281217837
0.30111024 0.3124586 1.241841 4280757542
0.3032518 0.31222323 1.2408172 4280494372
0.30482438 0.3115083 1.2377894 4280428580
0.30638576 0.31079337 1.2347616 4280296994
0.3082222 0.31031817 1.232736 4280494116
0.31033939 0.31008273 1.2317126 4280559909
0.31187263 0.30936775 1.228685 4280757288
0.31368658 0.30889252 1.2266597 4280362530
0.31549302 0.30841729 1.2246343 4279967515
0.317292 0.30794203 1.222609 4281480754
0.31967863 0.30794632 1.2225877 4284835684
0.32116687 0.30723125 1.2195606 4290691261
0.32204118 0.30603659 1.2145299 4291283397
0.32380638 0.30556127 1.212505 4291020225
0.32556409 0.30508593 1.2104801 4290625722
0.32519928 0.29934326 1.186373 4290560443
0.32783103 0.29958725 1.1873541 4290560443
0.32952312 0.29911178 1.1853298 4290494650
0.33057502 0.29815668 1.1813021 4290428856
0.33161193 0.29720154 1.1772745 4290034098
0.33359411 0.29696587 1.1762521 4289442217
0.33460665 0.2960107 1.1722246 4289310630
0.33592802 0.29529533 1.1691991 4289244582
0.33691242 0.2943401 1.165172 4289178789
0.33853704 0.29386455 1.1631483 4289244582
0.34015414 0.29338896 1.1611246 4289178789
0.34176373 0.29291335 1.159101 4289244582
0.34369907 0.29267758 1.1580791 4289112996
0.34563062 0.29244182 1.1570573 4289047203
0.34755844 0.29220605 1.1560354 4288652445
0.34948251 0.29197028 1.1550137 4288586652
0.35140285 0.29173449 1.1539919 4288060308
0.35297683 0.29125881 1.1519687 4287994515
0.35488775 0.29102302 1.150947 4287862929
0.35644862 0.29054734 1.1489239 4287862930
0.35800198 0.29007164 1.1469008 4287599758
0.35954782 0.2895959 1.1448778 4287599757
0.37529564 0.28818882 1.1387095 4287862160
0.37752667 0.28819284 1.1386896 4287994516
0.37902004 0.28771704 1.1366671 4288718239
0.38050589 0.28724122 1.1346446 4289178790
0.38235685 0.28700531 1.1336235 4289047204
0.38457853 0.2870093 1.1336037 4288849825
0.3868002 0.28701332 1.1335838 4288520860
0.38940006 0.28725725 1.1345652 4287731344
0.39200372 0.28750119 1.1355466 4287401864
0.39461109 0.28774515 1.1365278 4287665036
0.39722222 0.28798911 1.1375091 4287994001
0.3994514 0.28799313 1.1374892 4288191380
0.40168056 0.28799716 1.1374693 4288256660
0.40390974 0.28800118 1.1374494 4288190867
0.40692157 0.28848511 1.1394316 4288190867
0.41072735 0.28944898 1.143416 4288125074
0.41415304 0.2901729 1.1463991 4288124561
0.417193 0.29065689 1.1483812 4287927695
0.41984162 0.29090092 1.1493621 4287730316
0.42329544 0.2916249 1.1523451 4287270278
0.4263579 0.29210892 1.1543269 4287072899
0.42942786 0.29259297 1.1563087 4286941313
0.43209898 0.29283705 1.1572894 4286809727
0.4359985 0.2938011 1.1612729 4286678141
0.24492247 0.31429726 1.240378 4289375403
0.246153 0.31309387 1.2353439 4285954167
0.24784373 0.31237352 1.2323149 4285427823
0.25024727 0.31237787 1.2322935 4288783266
0.25289401 0.31262377 1.2332745 4286808963
0.25554451 0.31286967 1.2342554 4283585105
0.25819877 0.3131156 1.2352363 4287335305
0.2606079 0.31311992 1.2352148 4288190614
0.26301706 0.31312427 1.2351933 4282993480
0.26542622 0.31312862 1.2351717 4287467404
0.26808983 0.31337455 1.2361525 4285033063
0.27101356 0.31386209 1.2381357 4285427308
0.274203 0.3145912 1.2411211 4285229929
0.27792391 0.31580356 1.246111 4284637791
0.28140157 0.31677434 1.2500985 4285690735
0.28489423 0.31774512 1.2540858 4284901218
0.28760472 0.31799114 1.2550662 4284243801
0.29031897 0.31823716 1.2560465 4283717457
0.29249802 0.31799996 1.2550224 4282402110
0.29413062 0.31727955 1.251994 4280889128
0.29629844 0.31704232 1.25097 4281086507
0.29763719 0.31608024 1.2469395 4280889128
0.29896095 0.31511813 1.2429092 4281284145
0.29999089 0.31391436 1.2378768 4281613108
0.30212495 0.31367707 1.2368531 4282007866
0.30369005 0.31295651 1.2338252 4282139452
0.30524391 0.31223595 1.2307975 4281876281
0.30707288 0.311757 1.2287719 4281547059
0.30918255 0.31151968 1.2277484 4280889131
0.31041822 0.3105574 1.2237189 4280757288
0.31193084 0.30983675 1.2206914 4280823338
0.31372604 0.30935773 1.2186662 4280823081
0.31580949 0.30912036 1.2176429 4280691495
0.31788915 0.30888298 1.2166197 4279901466
0.31966564 0.30840394 1.2145946 4280230175
0.32143459 0.3079249 1.2125695 4282730308
0.3238025 0.30792916 1.2125484 4288651678
0.3264755 0.30817512 1.2135291 4291678154
0.32823133 0.30769601 1.2115042 4291349189
0.32905316 0.30649188 1.2064737 4291086273
0.3295455 0.30504599 1.2004415 4290559930
0.33095315 0.30432516 1.1974151 4290494137
0.33172059 0.30312091 1.1923851 4290691515
0.33310196 0.30240002 1.1893588 4290625979
0.33383566 0.30119574 1.1843292 4290560443
0.3351908 0.30047479 1.1813031 4290560442
0.33589074 0.29927042 1.1762737 4290626235
0.3362481 0.29782432 1.1702428 4290231477
0.3369087 0.29661989 1.1652137 4289770926
0.33853331 0.29614055 1.16319 4289507754
0.33949149 0.29517779 1.1591629 4289310375
0.34109733 0.29469842 1.1571393 4289441961
0.3430289 0.2944608 1.1561174 4289441961
0.34462163 0.2939814 1.154094 4289441961
0.34654385 0.29374376 1.1530721 4289508010
0.34812346 0.29326436 1.1510488 4289376168
0.34935483 0.2925432 1.1480238 4289178789
0.35091758 0.29206377 1.1460006 4289441961
0.3528173 0.29182607 1.1449791 4289573547
0.35402057 0.29110485 1.1419544 4289441961
0.35521257 0.29038364 1.1389298 4289047203
0.35674345 0.28990415 1.136907 4288981410
0.35897073 0.28990817 1.1368871 4288651676
0.35978267 0.28894511 1.1328613 4288256918
0.36093533 0.28822383 1.1298372 4287993746
0.3627919 0.28798604 1.1288159 4287796367
0.36500421 0.28799003 1.1287961 4287730829
0.36757785 0.28823581 1.1297778 4287796622
0.37015522 0.28848156 1.1307594 4287862415
0.37237126 0.28848559 1.1307396 4287730829
0.3745873 0.28848958 1.1307198 4287797136
0.37680337 0.28849357 1.1307 4287731343
0.37901941 0.28849757 1.1306802 4287928722
0.38123545 0.28850156 1.1306604 4287533964
0.38345149 0.28850555 1.1306406 4287797136
0.38566753 0.28850955 1.1306208 4288059794
0.3882618 0.28875536 1.1316023 4288257173
0.39085981 0.28900117 1.1325836 4288257173
0.39346156 0.28924701 1.1335651 4288191380
0.39606705 0.28949282 1.1345464 4288191380
0.39867631 0.28973866 1.1355277 4288191380
0.40167689 0.29022631 1.1375102 4288190867
0.40429553 0.29047215 1.1384914 4288125074
0.4077006 0.29120168 1.1414748 4288059281
0.41151011 0.29217306 1.1454593 4288124817
0.41493952 0.29290262 1.1484426 4287664267
0.41798323 0.29339036 1.1504246 4287203972
0.42063561 0.29363626 1.1514056 4287006593
0.42369244 0.29412404 1.1533875 4286809727
0.42675677 0.29461181 1.1553694 4286875520
0.43023306 0.29534146 1.1583523 4286941313
0.43331429 0.29582927 1.160334 4286743934
0.43640298 0.2963171 1.1623156 4286546555
0.24538995 0.31720263 1.2424276 4288914850
0.24638665 0.31574643 1.2363907 4283848789
0.24807926 0.31502047 1.2333615 4285559407
0.25072601 0.31526825 1.2343426 4289046436
0.2531333 0.3152726 1.234321 4286151544
0.25578564 0.31552038 1.235302 4283190603
0.25844178 0.31576818 1.2362829 4287796112
0.26085281 0.31577253 1.2362614 4287861649
0.26326382 0.31577688 1.2362399 4282664515
0.26567486 0.31578121 1.2362183 4287796369
0.26834035 0.31602904 1.2371992 4285098600
0.27177864 0.31700724 1.2411871 4285295722
0.28296939 0.32067242 1.256157 4285164647
0.28620943 0.32140729 1.2591422 4284441179
0.28919503 0.32189867 1.2611247 4282928197
0.29165292 0.32190308 1.2611028 4281875766
0.29357189 0.32142055 1.2590764 4281152556
0.2946693 0.32020754 1.2540432 4281613107
0.29629442 0.31948146 1.2510147 4282402623
0.29735813 0.31826839 1.2459819 4283257933
0.29812607 0.31681177 1.2399471 4283455312
0.29942924 0.31584209 1.2359167 4283586898
0.30127883 0.31535944 1.2338909 4283915863
0.30255574 0.31438974 1.2298609 4284113242
0.30438659 0.31390706 1.2278352 4283850070
0.30620992 0.31342432 1.2258096 4283652691
0.30802578 0.31294161 1.223784 4282731589
0.30925393 0.31197181 1.2197543 4281744694
0.31075907 0.31124553 1.2167269 4281086765
0.31284061 0.31100628 1.2157037 4280691495
0.31491843 0.31076702 1.2146804 4280560166
0.31669492 0.31028423 1.2126553 4280757288
0.31846389 0.30980143 1.2106302 4280691495
0.31992403 0.30907506 1.2076031 4280362273
0.32197931 0.30883577 1.20658 4279835416
0.32433599 0.30884001 1.2065591 4281743412
0.32607871 0.30835715 1.2045342 4283914580
0.32750511 0.30763072 1.2015074 4290362294
0.32923096 0.30714783 1.1994827 4291612361
0.3312619 0.30690849 1.1984599 4291283396
0.33328909 0.30666915 1.197437 4291217603
0.33499619 0.30618623 1.1954125 4290757052
0.33605936 0.30521616 1.1913843 4290757052
0.33742765 0.30448961 1.1883582 4290691515
0.33814073 0.30327591 1.1833285 4290757308
0.33721587 0.30084422 1.1732901 4290889150
0.33820781 0.29987401 1.1692626 4290691771
0.33983991 0.29939094 1.1672387 4290494649
0.34047616 0.29817709 1.1622096 4290428856
0.34175628 0.29745039 1.1591842 4289968305
0.34302521 0.29672369 1.1561589 4289705133
0.34495303 0.29648417 1.1551371 4289441961
0.34620318 0.29575741 1.1521119 4290297270
0.34778091 0.29527426 1.1500884 4289902512
0.34866974 0.29430386 1.1460619 4289705133
0.34988615 0.29357708 1.1430371 4289639340
0.35178021 0.29333746 1.1420155 4289573547
0.35297787 0.29261065 1.1389908 4289573547
0.35416427 0.29188377 1.1359662 4289573547
0.35568953 0.29140052 1.1339432 4289573547
0.35755923 0.29116091 1.1329218 4289573290
0.35836369 0.29019034 1.128896 4289704619
0.35950884 0.2894634 1.1258718 4289507240
0.36135793 0.28922373 1.1248506 4289046689
0.36356273 0.28922772 1.124831 4288717724
0.36612886 0.28947535 1.1258126 4288717724
0.36869875 0.28972298 1.1267943 4288520345
0.37090731 0.28972697 1.1267747 4288388759
0.37311584 0.28973097 1.1267549 4287994515
0.37569323 0.28997859 1.1277366 4288323480
0.37827435 0.29022625 1.1287181 4288651931
0.38085923 0.29047394 1.1296997 4288651931
0.38307339 0.29047793 1.1296799 4288717724
0.3856639 0.29072559 1.1306615 4288717724
0.38787994 0.29072958 1.1306417 4288651931
0.39047608 0.29097727 1.1316231 4288454552
0.392694 0.29098126 1.1316032 4288322966
0.39529574 0.29122898 1.1325847 4288322966
0.39828697 0.29172036 1.1345673 4288191380
0.40167326 0.29245546 1.1375511 4288257173
0.40429187 0.29270321 1.1385323 4287993744
0.40847957 0.29392576 1.1435182 4287730316
0.41268605 0.29514834 1.1485039 4287401351
0.41612107 0.29588354 1.1514872 4287138179
0.41956738 0.29661876 1.1544704 4286940800
0.42222723 0.29686657 1.1554513 4286875520
0.42449015 0.29687065 1.1554312 4286809727
0.42675307 0.29687473 1.1554109 4286678141
0.43022934 0.29760998 1.1583939 4286743934
0.43371689 0.2983453 1.1613767 4286678141
0.43517464 0.2978619 1.1593543 4286480762
0.24703601 0.32134199 1.2494901 4287270537
0.24828345 0.32011989 1.2444555 4282796357
0.2497516 0.31914303 1.2404236 4286612094
0.25192878 0.31890208 1.2393994 4288454298
0.25434542 0.31890643 1.2393779 4283782995
0.25651699 0.31866547 1.2383537 4283125322
0.25893176 0.31866983 1.2383322 4288060053
0.26134655 0.31867418 1.2383106 4286151801
0.26401204 0.31892386 1.2392914 4283849301
0.26668128 0.31917354 1.2402723 4284770403
0.26986319 0.31991392 1.243258 4285099369
0.28051683 0.32311651 1.2562239 4283980887
0.28401324 0.32410234 1.2602115 4283717714
0.28726077 0.32484281 1.2631965 4282994504
0.28972241 0.32484725 1.2631745 4282533953
0.29218408 0.32485169 1.2631525 4283126346
0.29383734 0.32412004 1.2601236 4284244827
0.29466531 0.32265228 1.254088 4284902757
0.29656366 0.32216597 1.2520617 4285231722
0.29735413 0.32069814 1.2460265 4285626480
0.29812211 0.31923026 1.2399914 4285429101
0.29914644 0.31800774 1.2349588 4285231723
0.30127487 0.3177667 1.2339351 4285100137
0.30255181 0.31678951 1.2299049 4285034344
0.30438265 0.31630304 1.2278792 4284639586
0.30649233 0.316062 1.2268556 4284573793
0.30831006 0.31557551 1.2248299 4284376414
0.30954012 0.31459823 1.2208002 4283915863
0.31104714 0.31386632 1.2177726 4282994761
0.31283674 0.31337979 1.2157472 4282073659
0.31461883 0.31289327 1.2137219 4281218350
0.31669101 0.31265214 1.2126987 4280823336
0.31816053 0.31192017 1.2096715 4280560165
0.31961882 0.31118816 1.2066444 4280560166
0.32136905 0.31070155 1.2046193 4280757031
0.32372195 0.31070581 1.2045983 4280493859
0.3257679 0.31046462 1.2035754 4279901465
0.32750124 0.30997801 1.2015505 4279770135
0.3289164 0.30924591 1.1985238 4281283373
0.33094546 0.30900472 1.1975009 4285033061
0.3329708 0.30876347 1.1964781 4291020224
0.33499235 0.30852225 1.1954553 4291612104
0.33701017 0.30828103 1.1944326 4291414982
0.33870417 0.30779433 1.1924081 4291414725
0.33974674 0.3068167 1.18838 4290822845
0.33850744 0.30412084 1.1773394 4290822588
0.34015831 0.30363408 1.1753153 4290691259
0.34147412 0.3029018 1.1722894 4290888637
0.34146079 0.30118766 1.1652566 4290889150
0.34241524 0.30020988 1.1612294 4290823614
0.34368789 0.29947755 1.1582038 4290692028
0.3452844 0.29899067 1.1561803 4290692029
0.34653643 0.2982583 1.153155 4290823615
0.34777722 0.29752591 1.1501298 4290692029
0.34900677 0.29679352 1.1471047 4290823615
0.35022506 0.2960611 1.1440797 4290494649
0.35177654 0.29557413 1.1420565 4290231477
0.35297421 0.29484168 1.1390316 4290034098
0.35416064 0.2941092 1.136007 4289705133
0.35568589 0.2936222 1.133984 4289705133
0.35720363 0.29313517 1.131961 4289704619
0.35836005 0.29240263 1.1289366 4289704619
0.35950524 0.29167005 1.1259123 4289901998
0.36135432 0.29142854 1.124891 4289638826
0.36355913 0.2914325 1.1248714 4289573033
0.36612526 0.291682 1.1258532 4289770412
0.36869514 0.29193151 1.1268349 4289376168
0.37053859 0.29168996 1.1258137 4289376168
0.37274525 0.29169396 1.1257939 4289376168
0.3756896 0.292189 1.1277771 4289376168
0.37827072 0.29243854 1.1287587 4289244068
0.38085559 0.29268807 1.1297404 4289244068
0.38344422 0.29293764 1.1307219 4289112482
0.3860366 0.29318717 1.1317034 4288849310
0.38863271 0.29343674 1.1326849 4288849310
0.39085251 0.29344073 1.1326652 4288519832
0.39307231 0.29344475 1.1326452 4288191380
0.3952921 0.29344875 1.1326255 4288191380
0.398669 0.29418945 1.1356094 4287928208
0.40205717 0.29493019 1.1385932 4287730829
0.40506712 0.29542539 1.1405756 4287401864
0.40925857 0.29665732 1.1455617 4287138692
0.41346875 0.29788929 1.1505476 4287072386
0.4176977 0.29912129 1.1555333 4286875520
0.42194539 0.30035335 1.1605189 4286678398
0.42421767 0.30035743 1.1604985 4286547069
0.42528784 0.29962474 1.1574749 4286481276
0.42634678 0.29889202 1.1544514 4286349690
0.42941672 0.29938731 1.1564333 4286480762
0.43249416 0.29988262 1.1584152 4286546555
0.43394631 0.29939547 1.1563928 4286546555
0.24844632 0.32526043 1.2555505 4285757554
0.24946742 0.32378179 1.249513 4283191627
0.25094494 0.32279745 1.2454809 4286020725
0.25289017 0.32230747 1.2434541 4286151542
0.2550711 0.32206464 1.2424299 4282533183
0.25724828 0.32182181 1.2414056 4285033831
0.25966871 0.32182619 1.241384 4287007621
0.26233792 0.32207775 1.2423649 4284046936
0.26476023 0.3220821 1.2423433 4284441950
0.26794025 0.32282811 1.245329 4283586641
0.271386 0.32382131 1.2493172 4283520848
0.27858073 0.32605505 1.2582955 4283784020
0.28207335 0.32704836 1.2622832 4284244571
0.28558099 0.32804167 1.2662708 4284902501
0.28831211 0.32829335 1.2672511 4285429101
0.29078123 0.32829779 1.2672291 4286350203
0.29298279 0.32805502 1.2662047 4286547582
0.29410276 0.32682329 1.261171 4286810754
0.29466128 0.32509705 1.2541329 4286679168
0.29628643 0.32435974 1.2511042 4286810754
0.29707506 0.32288066 1.2450688 4286481789
0.29784119 0.32140154 1.2390336 4286218360
0.29886365 0.32016963 1.2340008 4286086518
0.30070952 0.31967947 1.2319748 4286020726
0.30226529 0.31894201 1.2289467 4285560688
0.30409425 0.31845182 1.2269208 4285100137
0.30591574 0.3179616 1.2248951 4284968551
0.30801794 0.31771863 1.2238717 4284968551
0.30924612 0.31673387 1.2198417 4284836965
0.31075126 0.31599632 1.2168142 4284573793
0.31253901 0.31550604 1.2147887 4284047449
0.31431922 0.31501576 1.2127633 4283521105
0.31609195 0.31452546 1.2107381 4282271038
0.3172583 0.31354055 1.2067087 4281284143
0.31840959 0.31255564 1.2026794 4280626213
0.31984913 0.31181797 1.1996524 4280560164
0.32219267 0.31182221 1.1996315 4280625700
0.32392228 0.31133181 1.1976066 4280625700
0.3256444 0.31084141 1.1955817 4280691493
0.3270483 0.31010371 1.192555 4280493858
0.32906613 0.30986059 1.1915323 4279638035
0.33076575 0.30937016 1.1895076 4279835415
0.33309054 0.30937436 1.1894867 4281216812
0.33573353 0.30962586 1.190468 4286019445
0.33774009 0.30938274 1.1894453 4291414471
0.33974293 0.30913961 1.1884227 4291940815
0.34109434 0.30840179 1.1853963 4291611850
0.34210879 0.30741662 1.1813684 4291414470
0.34376341 0.3069261 1.1793442 4290822845
0.34475163 0.3059409 1.1753163 4290822845
0.34572482 0.30495563 1.1712887 4290888638
0.34634984 0.30372301 1.1662595 4290823358
0.34762627 0.30298507 1.1632339 4290691259
0.34855446 0.30199975 1.1592067 4290822845
0.34946769 0.30101439 1.1551796 4290954431
0.35036591 0.30002901 1.1511526 4290889150
0.35124913 0.2990436 1.1471258 4290889407
0.35280624 0.2985529 1.1451025 4290955200
0.35366324 0.29756746 1.1410758 4290955200
0.35450518 0.29658195 1.1370494 4290692028
0.35568225 0.29584384 1.1340247 4290494649
0.35755196 0.29560047 1.1330034 4290297270
0.35871026 0.2948623 1.1299788 4289902512
0.36021304 0.29437152 1.1279559 4289770926
0.36206588 0.29412809 1.1269345 4289573547
0.36427441 0.29413208 1.1269149 4289638826
0.36648297 0.29413608 1.1268951 4289770412
0.3686915 0.29414004 1.1268754 4289901998
0.37053496 0.29389662 1.1258541 4289769899
0.37274164 0.29390061 1.1258345 4289441447
0.37531713 0.29415202 1.1268162 4289573033
0.37826708 0.29465082 1.1287993 4289507240
0.38085195 0.29490224 1.1297809 4289441447
0.38344058 0.29515365 1.1307626 4289309861
0.38640928 0.29565251 1.1327455 4289309861
0.3890073 0.29590395 1.133727 4289243812
0.39160904 0.29615539 1.1347085 4288651931
0.39345062 0.29591197 1.1336873 4288125587
0.39567229 0.29591596 1.1336675 4287533450
0.39905107 0.29666233 1.1366515 4287336071
0.40360382 0.29815105 1.1426392 4287336071
0.41199416 0.30063367 1.1526115 4287072899
0.41700387 0.30236995 1.1595999 4286809727
0.42164475 0.30385885 1.1655868 4286678141
0.42511725 0.30460533 1.16857 4286546555
0.42740455 0.30460948 1.1685495 4286546555
0.42768833 0.30337623 1.1635233 4286480762
0.42755079 0.30189547 1.1574962 4286612348
0.24914944 0.32845423 1.2586035 4289047203
0.25017619 0.32696432 1.2525656 4288652445
0.25165936 0.3259725 1.2485334 4288126101
0.25336888 0.3252297 1.2455038 4287336328
0.25555357 0.32498503 1.2444794 4286020468
0.25797957 0.32498941 1.2444578 4287139207
0.2604056 0.32499379 1.2444361 4285889396
0.26308048 0.32524723 1.245417 4284968294
0.26575908 0.3255007 1.2463979 4285494894
0.26894662 0.32625231 1.2493837 4285823859
0.27265432 0.32750213 1.2543744 4286284410
0.27663711 0.32900107 1.2603674 4287008133
0.27986777 0.32975277 1.2633528 4287600270
0.28336975 0.33075359 1.2673405 4287666063
0.28636283 0.33125624 1.2693233 4287731856
0.28909954 0.3315098 1.2703037 4287600270
0.29130861 0.33126515 1.2692791 4287666063
0.29297876 0.3305223 1.2662499 4287666063
0.29409873 0.32928118 1.2612162 4287600013
0.29465729 0.32754183 1.2541778 4287665550
0.29628244 0.32679886 1.2511489 4287534220
0.29652092 0.3248103 1.2431087 4287139463
0.29728329 0.32331991 1.2370733 4286942084
0.29858088 0.32232776 1.2330426 4286941571
0.30042484 0.32183385 1.2310166 4286612606
0.30197877 0.32109076 1.2279885 4286283384
0.30380586 0.32059681 1.2259626 4285954676
0.3056255 0.32010284 1.2239368 4285889140
0.30772582 0.31985801 1.2229133 4285494382
0.30895212 0.31886572 1.2188833 4285231723
0.31074736 0.31837171 1.2168577 4285099881
0.31253511 0.31787768 1.2148322 4284968038
0.31401965 0.3171345 1.2118046 4284836452
0.3157905 0.31664044 1.2097793 4284178522
0.31725442 0.3158972 1.2067519 4283389519
0.31810442 0.3146556 1.2017205 4282534210
0.31923887 0.31366315 1.1976913 4281547315
0.32096851 0.31316903 1.1956663 4281085994
0.32269061 0.31267488 1.1936414 4280690980
0.32409641 0.31193155 1.1906145 4280428321
0.32580167 0.31143737 1.1885898 4280559651
0.32781199 0.31119236 1.187567 4280624930
0.32887521 0.31019977 1.1835384 4280427551
0.33087242 0.30995476 1.1825159 4280361502
0.33350226 0.31020814 1.1834971 4279703574
0.33581582 0.31021231 1.1834764 4279966489
0.33780739 0.30996728 1.1824539 4280295454
0.34011906 0.30997145 1.1824332 4284506206
0.342105 0.30972639 1.1814108 4290690748
0.34408721 0.30948135 1.1803882 4291940815
0.34606567 0.30923629 1.1793659 4291612106
0.34737772 0.30849278 1.1763399 4291349191
0.34834531 0.30750003 1.1723121 4290691259
0.35158333 0.30651137 1.1682642 4291480777
0.35285226 0.30576777 1.1652385 4290888640
0.35206571 0.30352873 1.1562026 4290822846
0.35261574 0.3022866 1.1511738 4290888638
0.35486928 0.30229068 1.1511537 4290954431
0.35504487 0.30079922 1.1451236 4290955201
0.35659075 0.30030477 1.1431003 4290889408
0.35707891 0.29906252 1.138072 4290955201
0.35895613 0.29881728 1.1370505 4290889408
0.35976812 0.29782426 1.1330242 4291020994
0.36127651 0.29732972 1.1310012 4290823615
0.36313498 0.29708445 1.1299798 4290757821
0.36534914 0.29708844 1.1299601 4291283651
0.36756331 0.29709244 1.1299403 4290691514
0.36941427 0.29684716 1.128919 4290362549
0.37126151 0.29660186 1.1278976 4290494135
0.37347192 0.29660586 1.127878 4290362549
0.37605116 0.29685912 1.1288596 4290296756
0.37863415 0.29711241 1.1298413 4290099377
0.3815935 0.29761499 1.1318245 4289836205
0.38418585 0.29786828 1.1328061 4289704619
0.38791096 0.29886952 1.1367918 4289507240
0.39127284 0.29962146 1.1397761 4288980896
0.39426592 0.30012411 1.1417589 4288191380
0.39612064 0.29987884 1.1407375 4287599243
0.39720395 0.29913491 1.1377136 4287204485
0.4040615 0.30213079 1.1497095 4287072899
0.40631318 0.30213484 1.1496893 4287138692
0.40934372 0.30263755 1.1516718 4286941313
0.41472974 0.30463627 1.1596619 4286743677
0.42014572 0.30663505 1.1676515 4286612348
0.43008879 0.30715021 1.1695722 4287007106
0.24938112 0.33115742 1.2596511 4289179045
0.25040975 0.32965627 1.2536131 4288915873
0.25189483 0.32865694 1.2495806 4289178789
0.25360623 0.32790855 1.2465509 4289113253
0.2557928 0.32766199 1.2455266 4288718494
0.25797561 0.32741541 1.2445023 4289047459
0.26064858 0.32767075 1.2454832 4288784544
0.26332533 0.32792607 1.2464641 4288652958
0.26600581 0.32818142 1.247445 4288389786
0.2694478 0.3291896 1.2514334 4288455579
0.27315924 0.33044881 1.2564242 4288323993
0.27688941 0.33170804 1.2614149 4288258200
0.28012192 0.33246535 1.2644005 4288323993
0.28362578 0.33347368 1.2683884 4288323993
0.28662074 0.33398008 1.2703712 4288192407
0.28909549 0.33398455 1.270349 4288258200
0.29103884 0.33348706 1.2683221 4288126614
0.29270712 0.33273858 1.2652928 4288192407
0.29382524 0.33148807 1.2602588 4288191894
0.29438195 0.32973558 1.2532202 4288126101
0.29600522 0.328987 1.2501913 4287994515
0.29651693 0.32723445 1.2431532 4287731344
0.2970024 0.3254818 1.2361152 4287665551
0.29801926 0.32423115 1.2310822 4287402379
0.29985949 0.32373348 1.2290561 4287073414
0.30169225 0.32323578 1.2270302 4286941828
0.30351749 0.32273808 1.2250042 4286678656
0.30533522 0.32224035 1.2229784 4286612863
0.30714548 0.32174262 1.2209526 4286086518
0.30894822 0.32124487 1.2189269 4285757810
0.31074348 0.32074711 1.2169013 4285560687
0.31253123 0.32024932 1.2148757 4285428589
0.31401578 0.31950051 1.211848 4285231210
0.31578663 0.31900269 1.2098227 4284968038
0.3169511 0.31800279 1.205793 4284836709
0.31810057 0.31700286 1.2017635 4284376414
0.31923503 0.31600294 1.1977342 4284112986
0.32065958 0.315254 1.194707 4283125577
0.32207289 0.31450504 1.1916801 4282204475
0.32378376 0.31400713 1.1896552 4281283630
0.32517645 0.31325814 1.1866283 4280691493
0.32718304 0.31301126 1.1856056 4280428064
0.32824251 0.31201118 1.181577 4280559137
0.33023596 0.31176427 1.1805543 4280493345
0.33222568 0.31151736 1.1795317 4280493346
0.33453169 0.31152153 1.1795112 4280559139
0.33651578 0.31127459 1.1784886 4280559139
0.33849612 0.31102768 1.1774662 4279703830
0.34047273 0.31078073 1.1764437 4279506451
0.34277314 0.31078488 1.1764231 4279638037
0.34474409 0.31053793 1.1754007 4283651410
0.34637997 0.31003988 1.1733764 4279638037
0.34834155 0.30979294 1.1723542 4279506451
0.35063449 0.30979705 1.1723337 4281085483
0.35326433 0.31005231 1.1733149 4287927955
0.35522029 0.30980533 1.1722927 4292204500
0.35683182 0.30930725 1.1702687 4291546570
0.35775068 0.3083069 1.1662413 4291743947
0.35934344 0.30780879 1.1642175 4291546568
0.35954341 0.30630612 1.1581869 4291020224
0.36006907 0.30505458 1.1531582 4290888638
