# .PCD v0.7 - Point Cloud Data file format
VERSION 0.7
FIELDS x y z rgba
SIZE 4 4 4 4
TYPE F F F U
COUNT 1 1 1 1
WIDTH 175
HEIGHT 1
VIEWPOINT 0 0 0 1 0 0 0
POINTS 175
DATA ascii
-0.72120476 0.20514098 1.0990096 4150370
-0.71935081 0.20416343 1.0994753 4677228
-0.7318154 0.21331534 1.0972543 4282728
-0.72618335 0.21750548 1.0967805 4215902
-0.7253145 0.22149056 1.0953455 3623764
-0.72487539 0.23567064 1.0992022 2243141
-0.72224039 0.24004976 1.0976585 3558747
-0.71484655 0.2447637 1.099679 4151139
-0.75013638 0.19266906 1.1080424 6254973
-0.74553025 0.19690734 1.1075788 6321021
-0.72459936 0.19929193 1.1085349 4018266
-0.71784174 0.19954459 1.1098793 2372927
-0.74122417 0.20230709 1.1076391 5993345
-0.73516035 0.20686898 1.1073502 4809329
-0.72508472 0.20457549 1.103135 4874350
-0.71698004 0.20459569 1.1047724 3953248
-0.73374784 0.21305381 1.1049827 4282470
-0.72419482 0.21451984 1.1036093 3689301
-0.7263121 0.22508435 1.1041913 3097677
-0.72447157 0.2352892 1.1048428 3097936
-0.72208083 0.24315029 1.1048404 3756382
-0.71487713 0.24568295 1.1056974 2965578
-0.69376898 0.24830064 1.1092236 9016213
-0.71133208 0.2505694 1.1067553 1713964
-0.70527124 0.25429547 1.1065193 1449762
-0.69792438 0.25556344 1.1097274 5331545
-0.75293654 0.16849259 1.1196269 3824245
-0.75294012 0.170673 1.1196668 1650237
-0.7479865 0.17053641 1.1186197 2375506
-0.73369384 0.17923811 1.1184011 3689046
-0.76220179 0.18656945 1.1172907 6320247
-0.75614327 0.18750991 1.1171285 6057335
-0.73326463 0.18275349 1.1177114 4281698
-0.72586322 0.18545894 1.1183378 4149599
-0.75279701 0.19153295 1.1142968 5991799
-0.74617314 0.19579329 1.115301 5794677
-0.73491663 0.19612062 1.1178805 3557714
-0.72453821 0.19547532 1.1166662 3425358
-0.7155019 0.19579199 1.116416 4280673
-0.7418282 0.20205754 1.1159989 6518917
-0.73621339 0.20378096 1.1125666 5532537
-0.71575934 0.20508385 1.1153382 4872807
-0.73682088 0.21049984 1.1112505 4479849
-0.72195995 0.21583535 1.1135905 3426645
-0.71862346 0.21194558 1.1141144 3821148
-0.7262848 0.22508183 1.115891 3294799
-0.72494459 0.23569036 1.1166068 3097422
-0.71793002 0.23785244 1.1182506 3294028
-0.72221631 0.2413861 1.1144363 3690071
-0.71578538 0.24415229 1.1155128 2307132
-0.70196664 0.24833325 1.1162992 3949382
-0.69304556 0.24638133 1.1154332 6910324
-0.6898368 0.24625696 1.1164856 8556432
-0.71225655 0.25224668 1.1170466 3554625
-0.70365661 0.25567016 1.1148589 3751744
-0.69412547 0.25585976 1.1156412 5331033
-0.68667603 0.25651482 1.1188126 4937046
-0.69581151 0.26112649 1.1134111 988689
-0.68849468 0.26046067 1.112233 725005
-0.77165639 0.16409259 1.1264298 4682383
-0.76492178 0.16640371 1.1246305 4023680
-0.75680619 0.16675471 1.1247557 4352647
-0.74803948 0.16833873 1.1260815 4286852
-0.77136081 0.17474638 1.1266224 5796226
-0.76602536 0.17550668 1.1275214 4743280
-0.7552532 0.17378674 1.1260793 992307
-0.74472094 0.17489117 1.1246715 2374217
-0.73586327 0.177545 1.1248629 991534
-0.77035666 0.18317972 1.123553 5924719
-0.76569033 0.18227425 1.1246872 6517630
-0.75458711 0.18596801 1.1261061 5927296
-0.74500078 0.18566169 1.1259432 4678000
-0.7354095 0.18622048 1.1233668 3952991
-0.72549987 0.18370351 1.1253883 1255741
-0.71843839 0.18835294 1.1241826 2967903
-0.75079185 0.19030064 1.1200074 5793909
-0.7445479 0.19287591 1.1223563 4610919
-0.73614091 0.1928459 1.123479 4215390
-0.72665286 0.19361056 1.1214769 3885653
-0.71652746 0.19325778 1.1240885 4086382
-0.71620482 0.20486239 1.1246926 4807015
-0.72133845 0.21736182 1.1248118 4215388
-0.71866018 0.21230082 1.1257237 3424331
-0.72527629 0.22543937 1.1258854 4083802
-0.70072508 0.2290121 1.1282697 2044994
-0.69852966 0.22901607 1.1282501 1715774
-0.72332489 0.23286474 1.1242087 3754582
-0.71547711 0.23723792 1.1259369 3689044
-0.70383376 0.23649675 1.1247673 3558233
-0.69783306 0.23573673 1.1246661 3229012
-0.71363908 0.24502607 1.1234782 2371895
-0.70538455 0.24413523 1.1228375 3752009
-0.69437689 0.24443333 1.123423 8555923
-0.68833113 0.2492404 1.1271958 8688791
-0.71200317 0.25189397 1.1229891 4344140
-0.7078408 0.2516447 1.1217469 7897219
-0.6913861 0.2550559 1.1221621 8884885
-0.6891765 0.25424823 1.1234277 8885911
-0.77334654 0.1575456 1.1348267 5934766
-0.77048928 0.16123673 1.1306535 5736872
-0.76554024 0.16257733 1.1361015 5473701
-0.75473499 0.16562831 1.1355938 5144735
-0.7458756 0.16857782 1.138069 4749464
-0.73906964 0.16910151 1.1390178 5077915
-0.76192695 0.17805351 1.1338857 4743534
-0.75608045 0.17829716 1.1343378 3229009
-0.74335504 0.17204957 1.133509 3956859
-0.73486727 0.17506215 1.1362555 3693686
-0.72557485 0.17769529 1.1381254 3628667
-0.71885061 0.17856979 1.1378431 3629438
-0.76150125 0.18157236 1.1342797 4744050
-0.75491232 0.18338455 1.1316344 4678258
-0.72315305 0.18417734 1.1352131 2837606
-0.71799487 0.18493237 1.1377298 3102064
-0.72054893 0.19582076 1.1398416 3100777
-0.71848816 0.19574282 1.1348206 3692911
-0.71585685 0.20579316 1.1360482 4414832
-0.72052008 0.21763739 1.1322396 3096649
-0.71413273 0.21509065 1.134529 4150630
-0.70894408 0.21672982 1.1391206 4546932
-0.72330618 0.2254813 1.134024 4083545
-0.71437812 0.22433305 1.1346408 3426648
-0.70515728 0.22707865 1.1349118 2439495
-0.72194117 0.23157625 1.1343415 3754838
-0.71534103 0.23332007 1.134775 3031631
-0.70649785 0.23257479 1.1335545 3427161
-0.69824773 0.2352033 1.1318617 2111045
-0.69379312 0.24467826 1.1346071 8031120
-0.68450111 0.24513265 1.1347545 8031121
-0.76610869 0.15786265 1.1410546 6197681
-0.75937349 0.15831095 1.1415025 6263988
-0.76342344 0.1604358 1.140911 5934253
-0.75503975 0.16365185 1.1422762 5540265
-0.74354643 0.16492528 1.1423912 5802923
-0.73568106 0.16698612 1.1452734 5934252
-0.73142827 0.170812 1.1446818 5144735
-0.72537535 0.17345557 1.1438394 4814999
-0.7187714 0.17674544 1.1454773 4551312
-0.7165938 0.18573278 1.1434402 3299957
-0.72073811 0.19467896 1.1441565 2509411
-0.7179023 0.19603175 1.1467397 2838376
-0.71265692 0.2044874 1.1437081 3297895
-0.70999879 0.20779754 1.1449676 4612728
-0.71043646 0.2112954 1.1427851 3493988
-0.70945108 0.21641672 1.1452636 3757415
-0.71032572 0.22162443 1.1417232 4217452
-0.70772737 0.22448342 1.1451281 2374732
-0.70246834 0.23498404 1.1453984 2374733
-0.72609609 0.17154859 1.1507821 5539751
-0.71778047 0.17556219 1.1526148 5341345
-0.71622783 0.18497162 1.1556072 3893123
-0.71651894 0.19564028 1.1554977 3101550
-0.71217442 0.20424233 1.1557574 2706277
-0.71099973 0.21390776 1.1544237 2309714
-0.7093327 0.21833807 1.1541567 3165278
-0.69341791 0.21719816 1.1599942 2707048
-0.7078774 0.22432594 1.1539456 3033436
-0.70366544 0.23449385 1.1555022 2441044
-0.69880176 0.23598887 1.155636 1980492
-0.71419638 0.1951689 1.1621107 3431543
-0.71121013 0.20596269 1.1636987 3035501
-0.70496196 0.20632547 1.1652567 3036527
-0.6949237 0.20827618 1.1670458 3365749
-0.68778121 0.20880458 1.1677916 3497594
-0.71117997 0.21339698 1.1627095 2572889
-0.70512336 0.2158509 1.162775 2706018
-0.69528884 0.21449131 1.1629144 2904683
-0.68814421 0.2138364 1.1663867 3233907
-0.70450699 0.22557586 1.1626006 2244696
-0.6966359 0.22663848 1.1650542 2310748
-0.70337474 0.23165499 1.1613488 2244180
-0.69513094 0.23332599 1.1652398 2309974
-0.68670052 0.23294683 1.1673492 2507609
-0.69189012 0.23263845 1.1702657 2507354
-0.68961591 0.23264255 1.1702454 2310743
