# .PCD v0.7 - Point Cloud Data file format
VERSION 0.7
FIELDS x y z rgba
SIZE 4 4 4 4
TYPE F F F U
COUNT 1 1 1 1
WIDTH 1097
HEIGHT 1
VIEWPOINT 0 0 0 1 0 0 0
POINTS 1097
DATA ascii
0.38107714 0.32720798 0.96733719 4280626213
0.3825514 0.32689264 0.96631795 4280560420
0.38314947 0.32593974 0.96329451 4280428834
0.38417438 0.32530561 0.96127325 4280165662
0.3851918 0.32467148 0.95925212 4279770904
0.38708538 0.32467487 0.95923519 4279770904
0.38897896 0.3246783 0.95921826 4279836441
0.37173435 0.3524501 1.0408988 4289047203
0.37417662 0.35277438 1.0418831 4289047203
0.37662262 0.35309866 1.0428673 4289047458
0.37827122 0.35278174 1.0418465 4288981665
0.37951362 0.35214427 1.0398233 4288981410
0.38115287 0.35182735 1.0388025 4288849824
0.3811152 0.33199543 0.97642648 4283389518
0.3821795 0.33135763 0.97440481 4282139451
0.38280383 0.33039916 0.97138101 4280692005
0.38428557 0.33008194 0.97036171 4280363040
0.38489115 0.32912344 0.96733809 4280297247
0.38504744 0.32784423 0.96331239 4280626212
0.38650855 0.32752702 0.96229327 4280757799
0.38708228 0.32656845 0.95926994 4280494627
0.38808843 0.32593054 0.95724881 4280231455
0.38997826 0.32593393 0.95723194 4279968283
0.39186808 0.32593733 0.95721501 4279836441
0.39375791 0.32594076 0.95719814 4279704598
0.39564773 0.32594416 0.95718127 4279704598
0.3970845 0.32562688 0.95616233 4279836184
0.39897245 0.32563028 0.95614547 4279836184
0.4008604 0.3256337 0.9561286 4279901976
0.37054613 0.35352814 1.0379286 4289310375
0.37258595 0.35353184 1.0379105 4289244582
0.37502447 0.35385796 1.0388948 4289310375
0.37746671 0.35418412 1.039879 4289178789
0.37951028 0.35418782 1.0398607 4289244582
0.38114953 0.35386902 1.0388401 4288981410
0.38639352 0.35001758 1.0267199 4288652702
0.38675043 0.34873125 1.0226923 4288257687
0.38750976 0.34776738 1.0196671 4288192151
0.3890965 0.3474485 1.0186468 4288586906
0.38941589 0.34616211 1.0146196 4288323735
0.39014333 0.34519818 1.0115948 4288060821
0.38706902 0.33264464 0.97238415 4281942072
0.38811082 0.33200306 0.9703626 4281020970
0.38914514 0.33136141 0.96834117 4280560420
0.38928828 0.3300747 0.96431547 4280297247
0.38986012 0.3291105 0.96129203 4280428833
0.39086631 0.32846883 0.95927083 4280626212
0.39275989 0.32847226 0.95925391 4280626213
0.39375481 0.32783055 0.95723283 4280297248
0.39429104 0.3268663 0.95420969 4279968283
0.3952691 0.32622457 0.95218873 4279902490
0.39714956 0.32622796 0.95217198 4279639318
0.39948684 0.32655394 0.95315719 4279705111
0.40182784 0.32687989 0.95414239 4279705110
0.40463319 0.32752845 0.95612955 4279705110
0.4060587 0.32720926 0.95511067 4279705110
0.37059847 0.35394996 1.0329349 4289310375
0.37262893 0.35395363 1.0329167 4289310375
0.37465936 0.3539573 1.0328985 4289310375
0.37709224 0.3542853 1.033883 4289244582
0.38680393 0.35236111 1.0277594 4288915872
0.38799384 0.35171601 1.0257365 4288850078
0.38917625 0.35107091 1.0237136 4288850078
0.39193979 0.35010505 1.0206705 4288850337
0.39183235 0.34848675 1.0156407 4288850337
0.39128125 0.34654406 1.0096089 4288587165
0.3919881 0.34557447 1.0065842 4288389786
0.3918263 0.34395608 1.0015548 4288389786
0.39207634 0.34266207 0.99752808 4288521372
0.39317626 0.34201682 0.99550593 4288258200
0.39230025 0.33845544 0.98444623 4287008133
0.39248839 0.3371613 0.98041999 4285889652
0.39310151 0.33619156 0.97739607 4284771171
0.39326155 0.33489737 0.97337013 4283192139
0.3934066 0.33360317 0.96934426 4281415728
0.3939822 0.33263335 0.96632069 4280494626
0.39499402 0.33198795 0.96429938 4280428833
0.39420104 0.33004481 0.9582696 4280494626
0.39428797 0.32875049 0.95424426 4280692006
0.39481294 0.32778057 0.95122117 4280692005
0.39669153 0.32778397 0.95120436 4280560419
0.39857009 0.32778737 0.95118761 4280099868
0.40044868 0.32779074 0.9511708 4279770903
0.40186667 0.32746968 0.95015198 4279770903
0.40328094 0.32714862 0.94913322 4279770903
0.38560319 0.35503098 1.0298195 4289244581
0.3863869 0.35405591 1.026794 4289112995
0.38757497 0.35340708 1.024771 4289376168
0.38917294 0.35308447 1.0237505 4289244582
0.39118651 0.35308811 1.0237325 4289244582
0.39235768 0.35243922 1.0217098 4289179302
0.39267522 0.35113782 1.0176822 4289113509
0.39297777 0.34983641 1.0136548 4288981923
0.39369214 0.34886122 1.0106299 4288718751
0.39396653 0.34755975 1.0066028 4288916130
0.39465651 0.3465845 1.0035781 4288652958
0.39576772 0.34593552 1.0015558 4288455579
0.39469978 0.34365514 0.99452209 4288258200
0.39360565 0.34137473 0.98748869 4288258200
0.39467558 0.34072566 0.98546678 4288126614
0.39573801 0.3400766 0.98344493 4287797649
0.39546749 0.33844864 0.97841644 4287073926
0.39562193 0.33714694 0.97439039 4286481789
0.39576134 0.33584523 0.97036445 4284705378
0.39678067 0.33519608 0.96834296 4283126346
0.39644453 0.33356801 0.96331513 4281349935
0.39608964 0.33193991 0.95828742 4280428833
0.39616907 0.33063808 0.95426202 4280165661
0.39759833 0.33031517 0.95324308 4280363040
0.39856702 0.32966593 0.95122206 4280494626
0.39952821 0.32901669 0.94920111 4280626212
0.40002134 0.32804108 0.9461782 4280626212
0.4014281 0.32771814 0.94515944 4280494626
0.40236682 0.32706884 0.94313872 4280626212
0.40423039 0.3270722 0.94312209 4280626212
0.40703008 0.32772824 0.94510943 4280099868
0.40936735 0.32805794 0.94609469 4279639317
0.41123655 0.32806131 0.946078 4279573524
0.41357946 0.32839105 0.94706327 4279573011
0.41497496 0.32806805 0.94604462 4279441425
0.41588929 0.32741871 0.94402409 4279573011
0.38312897 0.35508713 1.0238415 4289507754
0.38472882 0.35476264 1.0228209 4289376168
0.38590938 0.35411003 1.020798 4289310375
0.38791731 0.35411367 1.0207801 4289441961
0.38992527 0.35411727 1.0207621 4289376168
0.3919332 0.35412091 1.0207442 4289310375
0.39309502 0.35346827 1.0187213 4289310375
0.39467427 0.35314375 1.017701 4289178789
0.39539611 0.35216296 1.014676 4289112996
0.39610675 0.35118213 1.011651 4289112996
0.39723668 0.35052943 1.0096285 4288981410
0.39835912 0.3498767 1.007606 4288981409
0.39860541 0.34856769 1.003579 4288981664
0.39840055 0.34693047 0.99854982 4288849823
0.39817691 0.34529322 0.99352074 4288915617
0.39925435 0.34464043 0.99149871 4288586652
0.39899883 0.34300315 0.98646992 4288323480
0.39872459 0.34136581 0.98144138 4288192407
0.3984316 0.33972844 0.97641295 4288192407
0.39946216 0.33907557 0.97439128 4287534477
0.39958659 0.33776632 0.97036535 4287271305
0.39924484 0.33612886 0.96533734 4285955445
0.39888436 0.33449137 0.96030957 4284244827
0.39986995 0.33383843 0.95828831 4282797381
0.40039119 0.33285725 0.95526505 4281284142
0.4009012 0.33187607 0.95224184 4280428833
0.4009394 0.33056667 0.94821668 4283389518
0.40234992 0.33024186 0.94719785 4281481521
0.40282807 0.32926062 0.94417495 4280692005
0.40376115 0.32860756 0.94215423 4280231454
0.40562284 0.32861093 0.9421376 4280363040
0.40748453 0.32861426 0.94212097 4280757798
0.40887442 0.32828942 0.94110233 4280692005
0.41026059 0.32796454 0.94008374 4280231454
0.41116741 0.32731146 0.9380632 4279836696
0.41254416 0.32698658 0.93704468 4279507218
0.41343787 0.32633343 0.93502432 4279573011
0.41432407 0.32568032 0.93300396 4279573011
0.41665196 0.32601187 0.93398935 4279573011
0.41752881 0.32535872 0.93196911 4279573011
0.42243844 0.32373074 0.92689419 4279507218
0.38065478 0.35512078 1.017863 4289441961
0.38224339 0.35479438 1.0168426 4289507754
0.38424385 0.35479799 1.0168247 4289507754
0.38624427 0.3548016 1.0168068 4289376168
0.38824472 0.3548052 1.016789 4289441961
0.39024517 0.35480884 1.0167711 4289376424
0.39182255 0.35448241 1.0157508 4289310888
0.39339617 0.35415602 1.0147305 4289179302
0.39539284 0.35415962 1.0147126 4289178789
0.39653218 0.3535032 1.0126899 4289178789
0.39680284 0.35218671 1.0086626 4289178789
0.39835587 0.35186028 1.0076424 4289179045
0.3990365 0.35087377 1.0046177 4289244582
0.39970586 0.34988725 1.0015929 4289178789
0.39992595 0.34857067 0.99756598 4289047203
0.40101087 0.34791416 0.99554378 4288915617
0.4003211 0.34593746 0.9895125 4288915617
0.40005249 0.34429076 0.98448366 4288718238
0.40021068 0.34297407 0.98045731 4288652445
0.40124875 0.34231746 0.97843552 4288652701
0.40183002 0.34133077 0.97541159 4288323993
0.40194884 0.34001401 0.9713856 4288060821
0.40205267 0.33869725 0.96735966 4288060821
0.40305138 0.33804056 0.96533829 4286284410
0.40358576 0.33705381 0.96231478 4284968550
0.40319154 0.33540687 0.95728707 4284968550
0.40277857 0.3337599 0.95225954 4287205512
0.40419659 0.33343324 0.95124066 4286481789
0.40468225 0.33244637 0.94821757 4285363308
0.40562281 0.33178958 0.94619668 4283981655
0.40655589 0.3311328 0.94417584 4282007865
0.40842137 0.33113614 0.94415921 4280297247
0.40934318 0.33047932 0.94213849 4280363040
0.40978384 0.32949239 0.93911582 4280560419
0.41021326 0.32850546 0.93609321 4280626212
0.41063139 0.32751846 0.93307078 4280560419
0.41103831 0.32653147 0.93004841 4280428833
0.41191515 0.32587457 0.92802811 4279968282
0.41375059 0.32587788 0.92801166 4279705110
0.416071 0.3262113 0.92899722 4279638804
0.42194301 0.32523417 0.92592603 4279638804
0.38216275 0.35513911 1.0118486 4289441961
0.38457125 0.35547456 1.0128334 4289507754
0.3865642 0.35547814 1.0128156 4289441961
0.38855714 0.35548174 1.0127977 4289376168
0.38970396 0.35482159 1.010775 4289376168
0.39126822 0.35449329 1.0097547 4289441961
0.39325553 0.35449687 1.0097369 4289310631
0.39438549 0.35383669 1.0077143 4289441961
0.39507735 0.35284457 1.0046892 4289310375
0.39662287 0.35251623 1.0036691 4289244582
0.39729601 0.35152411 1.0006443 4289310375
0.39883026 0.35119575 0.99962437 4289310375
0.39992273 0.35053548 0.99760205 4289244582
0.40056774 0.3495433 0.99457741 4289244325
0.40031788 0.34788725 0.98954827 4289178275
0.40049297 0.3465631 0.98552161 4289178275
0.40109861 0.34557086 0.98249733 4288915617
0.40214044 0.3449105 0.98047549 4288784031
0.40272549 0.3439182 0.97745144 4288652701
0.40329924 0.34292588 0.97442746 4288521372
0.40386176 0.34193355 0.9714036 4288455579
0.40486798 0.34127313 0.96938205 4288192407
0.40495309 0.3399488 0.96535617 4288126614
0.40415716 0.33663619 0.95530051 4288652958
0.40558079 0.33630764 0.95428151 4288389786
0.40607208 0.3353152 0.9512583 4287995028
0.40748447 0.33498663 0.95023942 4287468684
0.40889314 0.33465803 0.94922054 4286679168
0.4098281 0.33399749 0.94719964 4284968550
0.41075554 0.33333692 0.94517881 4283718483
0.41072816 0.33201241 0.94115394 4281810486
0.41116133 0.33101985 0.93813121 4280757798
0.41062838 0.32936329 0.93310463 4280363040
0.41055599 0.32803869 0.92908013 4280428833
0.41191214 0.32771003 0.92806172 4280428833
0.41374758 0.32771334 0.92804533 4280560419
0.41606799 0.32804865 0.9290309 4280494626
0.41741851 0.32771996 0.92801255 4280297247
0.41876528 0.32739127 0.92699426 4279902489
0.42010832 0.32706258 0.92597598 4279704854
0.42144758 0.32673386 0.92495775 4279638804
0.38331568 0.35646626 1.0098622 4289441961
0.38572231 0.3568036 1.010847 4289441961
0.38729033 0.35647342 1.0098267 4289376168
0.38885459 0.35614324 1.0088063 4289441961
0.38956523 0.35514554 1.0057811 4289573547
0.39154503 0.35514912 1.0057634 4289376168
0.3926675 0.35448515 1.0037408 4289376681
0.39335188 0.35348743 1.0007157 4289245095
0.39488989 0.35315719 0.99969566 4289376168
0.39598987 0.3524932 0.99767315 4289441961
0.39751849 0.35216296 0.9966532 4289441704
0.39860532 0.35149896 0.99463087 4289309861
0.39968467 0.35083491 0.99260861 4289310118
0.39943108 0.34916949 0.98757929 4289309861
0.39915875 0.34750405 0.9825502 4289309861
0.39975879 0.34650615 0.97952586 4289375654
0.40124243 0.34617582 0.97850633 4289046946
0.402273 0.3455117 0.97648448 4288981410
0.40329608 0.34484756 0.97446275 4288915874
0.40476474 0.34451723 0.97344327 4288784544
0.40622965 0.34418687 0.97242391 4288652958
0.40677717 0.34318888 0.96940005 4288718751
0.40599629 0.33985755 0.95934391 4288784544
0.40742743 0.33952713 0.95832485 4288652958
0.40839052 0.3388629 0.9563036 4288455579
0.41027847 0.33886629 0.95628673 4288455579
0.41169837 0.33853588 0.95526773 4288323993
0.41311452 0.33820543 0.95424879 4287995028
0.41311151 0.33687347 0.95022357 4287534477
0.41261983 0.33520761 0.94519639 4286613375
0.41306049 0.33420944 0.94217348 4285363308
0.41205764 0.33220968 0.93614459 4283718483
0.41294947 0.33154529 0.93412399 4281613107
0.41383383 0.33088091 0.93210346 4281086763
0.41519374 0.33055037 0.93108499 4280231454
0.4170348 0.33055368 0.93106854 4280363040
0.41790229 0.32988927 0.92904818 4280494626
0.4182736 0.32889095 0.92602593 4280626212
0.42010531 0.32889426 0.9260096 4280626212
0.42045972 0.32789594 0.92298746 4280297247
0.42129722 0.32723147 0.92096734 4279968282
0.42311954 0.32723475 0.92095107 4279705110
0.42494187 0.32723802 0.9209348 4279507731
0.38475999 0.35644695 1.0038476 4289376168
0.38588995 0.35577926 1.0018249 4289442217
0.38701239 0.35511157 0.99980211 4289442474
0.38855416 0.35477948 0.99878198 4289310888
0.38966352 0.35411173 0.99675936 4289376681
0.39076534 0.35344401 0.99473685 4289310888
0.39229211 0.35311189 0.99371684 4289376681
0.39424944 0.35311541 0.99369937 4289376681
0.39577058 0.35278329 0.99267942 4289376424
0.3968499 0.35211551 0.99065709 4289310631
0.39792174 0.3514477 0.98863482 4289310375
0.39810249 0.35010856 0.98460782 4289310375
0.39782456 0.34843373 0.97957855 4289244582
0.39797342 0.34709454 0.97555184 4289178789
0.39989698 0.34709799 0.97553468 4289112996
0.40047264 0.34609443 0.97251046 4289112996
0.40193942 0.34576222 0.97149104 4289047203
0.4038555 0.34576568 0.97147393 4289113252
0.40486172 0.34509775 0.96945226 4289113509
0.40586042 0.34442982 0.96743059 4288784544
0.4059343 0.34309047 0.9634046 4288981410
0.40645373 0.34208682 0.96038091 4288849824
0.40788674 0.34175453 0.95936173 4288981410
0.40978032 0.34175795 0.9593448 4288850080
0.4116739 0.34176138 0.95932794 4288718492
0.41403553 0.3421005 0.96031314 4288718492
0.41499111 0.34143248 0.95829195 4288587419
0.41546741 0.34042874 0.95526862 4288521626
0.41451144 0.33841783 0.94923908 4288192406
0.41495964 0.33741403 0.94621605 4287995028
0.41491914 0.33607447 0.942191 4287797649
0.41582224 0.33540639 0.94017029 4286942340
0.41671786 0.33473825 0.93814957 4285758066
0.41760597 0.33407012 0.93612891 4284507999
0.41897148 0.33373773 0.93511039 4282534209
0.41887286 0.33239809 0.93108588 4281284142
0.41875926 0.33105841 0.9270615 4280560419
0.41961175 0.33039021 0.9250412 4280363040
0.41996431 0.32938623 0.922019 4280494626
0.42079991 0.32871801 0.91999888 4280626212
0.42311656 0.32905707 0.92098451 4280757798
0.42444083 0.32872459 0.91996634 4280494626
0.3920747 0.35338509 0.98872274 4289508267
0.39358649 0.3530511 0.98770285 4289376681
0.39465645 0.35237953 0.98568058 4289442217
0.39571893 0.35170797 0.98365831 4289376168
0.39633211 0.35069883 0.98063368 4289441704
0.39649037 0.34935215 0.97660673 4289441447
0.3966336 0.34800544 0.97257996 4289441447
0.39810413 0.34767136 0.97156042 4289375654
0.39867231 0.34666216 0.9685362 4289507240
0.39968041 0.34599051 0.96651441 4289244582
0.40068102 0.34531882 0.96449274 4289178789
0.40212902 0.34498468 0.96347344 4289178789
0.40311652 0.344313 0.96145183 4289310375
0.40409648 0.34364128 0.95943034 4289178789
0.40552953 0.34330711 0.95841116 4289112996
0.40695879 0.34297296 0.95739198 4289047203
0.40931293 0.34331393 0.9583773 4288981664
0.4116708 0.34365493 0.95936263 4289047457
0.41450047 0.34433353 0.96135014 4288850078
0.41592786 0.34399936 0.96033102 4288849822
0.41593614 0.34265241 0.95630538 4288850078
0.41592941 0.34130543 0.95227993 4288718492
0.41638321 0.34029603 0.94925672 4288718492
0.41634834 0.33894899 0.9452315 4288323992
0.4172571 0.33827713 0.94321066 4288324248
0.41863948 0.3379429 0.9421919 4288258200
0.4195351 0.33727103 0.94017112 4287666063
0.42042321 0.33659914 0.93815047 4287534477
0.42081705 0.33558962 0.93512779 4286613375
0.42071095 0.33424246 0.93110323 4285231722
0.42157093 0.33357054 0.92908275 4283784276
0.42143857 0.33222333 0.92505842 4282336830
0.42227983 0.33155137 0.92303818 4281020970
0.42460206 0.33189231 0.92402381 4280363040
0.42643002 0.33189559 0.92400748 4280297760
0.42825797 0.3318989 0.92399114 4280428833
0.42908236 0.33122689 0.92197102 4280757798
0.43040287 0.33089253 0.9209528 4280889384
0.43171969 0.33055818 0.91993469 4280494626
0.43303272 0.3302238 0.91891658 4280099868
0.39439598 0.35262829 0.98068643 4289442474
0.39500356 0.35161355 0.97766173 4289310632
0.39515617 0.35025933 0.97363472 4289376168
0.39529383 0.34890512 0.96960783 4289311145
0.39631131 0.34822974 0.96758592 4289310888
0.39732128 0.34755433 0.96556407 4289376681
0.3978726 0.34653947 0.96253985 4289245095
0.3988657 0.34586403 0.96051818 4289113509
0.40030625 0.34552801 0.95949888 4289245095
0.4021998 0.34553143 0.95948195 4289179046
0.40363473 0.34519538 0.95846272 4289112996
0.40414479 0.34418046 0.95543891 4289178789
0.40603086 0.34418386 0.9554221 4289178789
0.40791693 0.34418726 0.95540524 4288981665
0.41073534 0.34486958 0.95739287 4288981664
0.41309321 0.34521246 0.95837826 4288981407
0.41451499 0.34487641 0.95735914 4289046687
0.41498944 0.3438614 0.95433563 4289046687
0.4145053 0.34216744 0.94930786 4288980894
0.41590458 0.34183136 0.94828898 4288915871
0.4168227 0.34115577 0.9462679 4288718492
0.41821262 0.34081966 0.94524908 4288652699
0.41959879 0.34048355 0.94423032 4288718492
0.42146423 0.34048691 0.94421363 4288652955
0.42332968 0.34049028 0.94419694 4288587163
0.42422155 0.33981466 0.94217616 4288390040
0.42363992 0.33812052 0.93714929 4288060821
0.42451116 0.33744487 0.93512869 4287402891
0.42439008 0.33609018 0.93110412 4286679168
0.42573687 0.33575401 0.93008566 4285363308
0.42757607 0.33575732 0.93006921 4283981655
0.42891723 0.33542112 0.9290508 4282336830
0.4287549 0.33406636 0.9250266 4281086763
0.42857757 0.33271158 0.92100251 4280428833
0.42989624 0.33237532 0.91998434 4280363040
0.43070561 0.33169955 0.91796428 4280494626
0.4315075 0.33102378 0.91594428 4280626212
0.43230188 0.33034799 0.91392434 4280560419
0.43308875 0.32967216 0.91190451 4280363040
0.43438116 0.32933587 0.91088653 4280231454
0.43669966 0.32967868 0.91187221 4279836696
0.43902192 0.33002147 0.91285789 4279507731
0.43979192 0.32934564 0.91083819 4279376145
0.44107497 0.32900932 0.90982032 4279507731
0.40183899 0.3443599 0.95046186 4289244582
0.40325329 0.34402198 0.94944274 4289178789
0.40512809 0.34402537 0.949426 4289178789
0.40793526 0.34471139 0.95141387 4289244068
0.41028187 0.34505612 0.95239931 4289112482
0.41216233 0.34505951 0.9523825 4289244068
0.4126274 0.34403887 0.949359 4289112481
0.41308123 0.34301823 0.94633561 4289178273
0.4144749 0.34268025 0.94531673 4289047457
0.41586483 0.34234226 0.94429785 4288915871
0.41773027 0.34234563 0.94428116 4288981664
0.42007688 0.34269035 0.94526666 4288915871
0.42242724 0.3430351 0.94625211 4288850078
0.42478135 0.34337983 0.94723755 4288718491
0.42616564 0.34304184 0.94621873 4288784285
0.42656887 0.34202108 0.94319576 4288587163
0.42696083 0.34100032 0.94017291 4288455579
0.42684913 0.33963814 0.93614811 4288258200
0.42869958 0.33964148 0.9361316 4287995028
0.43055004 0.33964482 0.93611509 4287929235
0.43140441 0.33896539 0.93409455 4287402891
0.43025163 0.33692035 0.92806613 4286350203
0.42957816 0.33521667 0.92303991 4284968550
0.43090057 0.33487859 0.92202163 4283257932
0.43221924 0.33454046 0.9210034 4282205244
0.43302676 0.33386093 0.91898328 4280823591
0.4322989 0.33215716 0.91395754 4280428833
0.43308577 0.33147761 0.91193759 4280494626
0.43386516 0.33079803 0.90991777 4280823591
0.43566689 0.33080128 0.90990168 4281020970
0.43798536 0.33114594 0.91088742 4280757799
0.43875164 0.33046636 0.90886766 4280494627
0.43951041 0.32978675 0.90684795 4281020971
0.43869442 0.3280828 0.90182298 4281086764
0.43995684 0.3277446 0.90080529 4280889385
0.442794 0.32843068 0.90279281 4280297248
0.4069902 0.34316462 0.94139189 4289375652
0.40932181 0.34351119 0.94237751 4289178273
0.41118354 0.34351453 0.94236088 4289244066
0.4125697 0.34317467 0.94134206 4289178273
0.41442952 0.34317803 0.94132543 4289178273
0.41676864 0.34352461 0.94231099 4289178273
0.41911149 0.34387121 0.94329655 4289047457
0.4214581 0.34421781 0.94428205 4288981664
0.42380849 0.34456441 0.94526756 4288915871
0.42616257 0.34491104 0.946253 4288981151
0.42754313 0.34457114 0.94523418 4288850078
0.4274483 0.34320152 0.94120914 4288915871
0.42832333 0.34251836 0.9391883 4288587419
0.43017939 0.3425217 0.93917173 4288719005
0.43153933 0.3421818 0.93815309 4288784798
0.43189943 0.34115535 0.93513042 4288521370
0.43124846 0.33944234 0.93010384 4288521626
0.43007696 0.33738604 0.92407542 4288061076
0.43190491 0.33738932 0.92405909 4287337098
0.43322733 0.33704934 0.92304075 4287008133
0.43403858 0.33636609 0.92102057 4285758066
0.43382379 0.33499622 0.91699654 4284179034
0.4346163 0.33431292 0.91497648 4282600002
0.43488827 0.33328632 0.91195458 4285889652
0.43669373 0.33328956 0.91193849 4284968550
0.43849918 0.33329281 0.91192234 4283257932
0.43874869 0.33226618 0.90890068 4281284142
0.43950745 0.33158281 0.90688092 4280363041
0.44078112 0.33124274 0.90586305 4280494626
0.44257534 0.33124599 0.90584701 4280626212
0.44436955 0.33124921 0.90583098 4280955177
0.44563571 0.33090913 0.90481323 4280889384
0.44583833 0.32988241 0.90179193 4280823591
0.44709325 0.32954231 0.90077424 4279968282
0.44887811 0.32954553 0.90075833 4279573524
0.40928584 0.34399584 0.9383859 4289244066
0.4106645 0.3436541 0.93736708 4289244066
0.41251683 0.34365743 0.93735051 4289244066
0.41532773 0.34435099 0.93933845 4289309859
0.41766497 0.34469944 0.94032407 4289244066
0.42235067 0.34539637 0.94229525 4289178273
0.42607409 0.34540311 0.94226199 4289046687
0.4264642 0.34437108 0.93923897 4288915358
0.42782786 0.34402931 0.93822026 4288850078
0.42968208 0.34403265 0.93820369 4288916127
0.43104011 0.34369084 0.93718505 4288915871
0.43139836 0.34265879 0.93416226 4288718492
0.43124542 0.34128153 0.93013757 4288586906
0.43107751 0.33990428 0.92611301 4288587162
0.43341288 0.34025273 0.92709863 4288586906
0.43524644 0.34025604 0.9270823 4288258454
0.43657264 0.33991417 0.9260639 4288192407
0.43687651 0.338882 0.92304164 4287666063
0.43768027 0.33819497 0.9210214 4287271305
0.44133902 0.33579189 0.91394311 4286547582
0.44210714 0.33510479 0.91192323 4285889652
0.44339019 0.33476287 0.91090524 4283981655
0.44466951 0.33442092 0.90988725 4282402623
0.44594505 0.334079 0.90886939 4280363040
0.44668883 0.33339185 0.90684968 4280363040
0.44689521 0.33235949 0.90382826 4280494626
0.44762212 0.33167231 0.90180874 4280955177
0.44834152 0.33098513 0.89978927 4281020970
0.45066002 0.33133358 0.90077507 4280955177
0.45351964 0.3320272 0.90276259 4280494626
0.4585439 0.33410171 0.90875679 4279573524
0.46088487 0.33445019 0.90974241 4279375632
0.46051449 0.33307254 0.90571964 4279441938
0.46121889 0.33238533 0.90370029 4279376145
0.4591819 0.32997197 0.8966729 4279507731
0.45766732 0.32790381 0.89064729 4279441938
0.4588829 0.32756174 0.8896299 4279441938
0.41429383 0.34412852 0.9333424 4289244066
0.41710472 0.3448258 0.93533039 4289178273
0.42080188 0.34483248 0.93529737 4289244068
0.4253628 0.34414846 0.93324351 4288981409
0.42869046 0.34519282 0.93623346 4288981664
0.43004477 0.34484914 0.93521476 4289047457
0.4308973 0.34415844 0.93319404 4288981151
0.4307425 0.34277371 0.92916924 4288850078
0.4310745 0.34173596 0.92614663 4288850078
0.43340987 0.34208629 0.92713231 4288915871
0.4362545 0.34278366 0.92912 4288850078
0.43809184 0.34278697 0.92910355 4288652699
0.4389106 0.34209621 0.92708313 4288455066
0.43972188 0.34140545 0.92506278 4288520859
0.44052565 0.34071466 0.92304254 4288389529
0.44235173 0.34071797 0.9230262 4288060565
0.44417781 0.34072125 0.92300987 4287337098
0.44626841 0.33968666 0.91997153 4287731856
0.44599926 0.33830172 0.91594774 4287337098
0.44728795 0.33795795 0.91492969 4285889653
0.449099 0.3379612 0.91491348 4284442206
0.44932601 0.33692327 0.91189182 4282928967
0.44954178 0.33588532 0.90887022 4281613107
0.44921452 0.33450025 0.90484691 4280231454
0.44940591 0.33346224 0.90182555 4280363040
0.45065707 0.33311838 0.90080786 4280757798
0.45351672 0.33381578 0.90279537 4281086763
0.45692313 0.33486027 0.90578461 4281481521
0.45979962 0.3355577 0.907772 4281086763
0.45996851 0.33451965 0.90475088 4280823591
0.46067104 0.33382869 0.90273148 4279836696
0.45917898 0.33174929 0.89670551 4279441938
0.45766443 0.32966986 0.89067972 4279112973
0.45888001 0.32932594 0.88966227 4279376145
0.42671034 0.34564772 0.93225867 4289047457
0.42904943 0.34599996 0.93324441 4288981664
0.43039626 0.3456544 0.93222576 4289178273
0.43023959 0.34426215 0.92820084 4288981664
0.43006796 0.34286988 0.92417598 4288915871
0.43239957 0.34322205 0.92516178 4289046687
0.43473491 0.34357426 0.92614746 4288980894
0.43707401 0.34392649 0.92713314 4288849308
0.43941689 0.34427869 0.92811882 4288915101
0.44023004 0.34358418 0.92609841 4288783772
0.44154871 0.34323856 0.92508 4288718492
0.44389343 0.3435908 0.92606568 4288915357
0.44624192 0.34394303 0.92705125 4288389530
0.44755685 0.34359738 0.9260329 4288192407
0.44704106 0.34081253 0.91798484 4288521626
0.44885778 0.34081581 0.91796863 4288390040
0.45014834 0.34047017 0.91695046 4288192661
0.4503791 0.33942661 0.91392869 4287337098
0.45112851 0.33873197 0.91190881 4286744961
0.45187044 0.33803731 0.90988898 4285626480
0.45260486 0.33734268 0.90786928 4284310620
0.45279625 0.33629903 0.9048478 4282600002
0.45405117 0.33595333 0.90382999 4281020970
0.4563809 0.3363055 0.90481579 4280692005
0.45925555 0.33700669 0.90680325 4280757798
0.46050858 0.33666095 0.9057855 4280889385
0.4617579 0.33631521 0.90476775 4281020971
0.46081638 0.33457357 0.8997432 4281152557
0.45930746 0.3324829 0.89371717 4281152557
0.45997813 0.33178812 0.891698 4280428834
0.4617461 0.33179131 0.89168221 4279441939
0.46406832 0.33214349 0.89266807 4279376145
0.46639431 0.33249566 0.89365387 4279441938
0.46816602 0.33249888 0.89363801 4279376145
0.46769816 0.33110607 0.88961583 4279310352
0.42755798 0.34679249 0.93027169 4289047457
0.42989519 0.34714657 0.93125743 4289047457
0.4297367 0.34574682 0.92723233 4288915871
0.43006495 0.3446978 0.92420954 4289112482
0.4318929 0.34470111 0.9241932 4288980896
0.43372086 0.34470442 0.92417687 4289112225
0.43656361 0.34540927 0.92616475 4288980896
0.43839532 0.34541258 0.92614836 4288980896
0.43971589 0.34506509 0.92512995 4288980639
0.44154572 0.3450684 0.92511356 4289177762
0.44389042 0.34542248 0.92609924 4289112480
0.44623891 0.34577659 0.92708492 4289178273
0.44910979 0.3464815 0.9290725 4288784285
0.45094711 0.34648481 0.92905611 4288653212
0.45121726 0.34543571 0.92603379 4288784285
0.45147616 0.34438658 0.9230116 4288653212
0.45067152 0.34263578 0.91798568 4288521626
0.45090416 0.34158662 0.91496378 4288652699
0.45218533 0.34123906 0.91394567 4288521113
0.45346278 0.34089151 0.91292769 4288126355
0.45473647 0.34054393 0.91190964 4287994770
0.45493537 0.33949471 0.90888804 4286679168
0.45619783 0.33914709 0.90787011 4285955445
0.4574565 0.33879951 0.90685225 4284310620
0.4592526 0.33880275 0.90683621 4282994760
0.46104866 0.338806 0.90682018 4281349936
0.46284476 0.33880922 0.90680408 4280428834
0.46300054 0.33775991 0.90378284 4280560420
0.46149915 0.33565801 0.89775652 4280823592
0.46217731 0.33495951 0.89573723 4281218350
0.46174321 0.33355924 0.89171463 4281284143
0.46240264 0.33286071 0.88969553 4281218350
0.46416685 0.3328639 0.88967973 4280626213
0.46648908 0.33321795 0.89066559 4279770904
0.46769527 0.33287027 0.8896482 4279047181
0.46833596 0.33217168 0.88762927 4279112973
0.42160124 0.34440005 0.91827869 4288981665
0.42640606 0.34651917 0.92427576 4289178530
0.42773411 0.34616983 0.92325723 4289112480
0.42855665 0.34546784 0.92123657 4289178274
0.42987534 0.34511846 0.92021811 4289112482
0.43220133 0.34547439 0.92120397 4289046689
0.43453103 0.34583035 0.92218983 4289111969
0.43686453 0.34618628 0.92317563 4289111969
0.4386906 0.34618959 0.9231593 4289177762
0.44051668 0.34619287 0.92314303 4289112225
0.44234276 0.34619617 0.9231267 4288915103
0.44468561 0.34655213 0.92411244 4289178275
0.44755083 0.3472608 0.92610013 4289046687
0.44990307 0.34761676 0.92708576 4288980894
0.45016947 0.34656203 0.92406344 4288980894
0.44990036 0.34515458 0.92003924 4288915871
0.44909009 0.34339443 0.91501319 4288850078
0.44984517 0.34269232 0.91299313 4288849308
0.4516525 0.34269556 0.91297698 4288783515
0.45399159 0.34305152 0.91396272 4288651929
0.4558008 0.34305477 0.91394657 4288586393
0.45707449 0.34270534 0.91292852 4288586907
0.45780703 0.3420032 0.91090864 4288257687
0.45961061 0.34200644 0.91089255 4287863442
0.46087307 0.34165698 0.90987462 4287337098
0.46158874 0.34095478 0.90785491 4286218617
0.46284181 0.34060532 0.90683705 4285560687
0.46299762 0.33955038 0.90381569 4283850070
0.4625935 0.33814266 0.89979267 4282336831
0.46272492 0.33708769 0.89677155 4280560420
0.4622927 0.33567995 0.89274877 4280297248
0.46239975 0.33462492 0.88972789 4280626213
0.46416396 0.33462811 0.8897121 4281020971
0.46648619 0.33498403 0.89069802 4281152557
0.46825227 0.33498722 0.89068222 4281218350
0.46833307 0.33393213 0.88766152 4280889385
0.46840259 0.33287704 0.88464093 4280165661
0.42373198 0.34515977 0.91527289 4288980894
0.42554307 0.34516302 0.91525674 4289112480
0.42735416 0.3451663 0.91524059 4289112480
0.43017626 0.3458786 0.9172287 4289178273
0.43300587 0.34659094 0.91921681 4289112482
0.43584299 0.3473033 0.92120486 4289178275
0.43766531 0.34730658 0.92118859 4289112482
0.43897465 0.34695533 0.92017019 4289112482
0.4402802 0.34660408 0.91915184 4288915103
0.4420988 0.34660736 0.91913557 4288915103
0.44443601 0.34696519 0.92012137 4288980896
0.44729748 0.34767756 0.92210919 4289178273
0.4480769 0.34697175 0.92008889 4288980894
0.4493731 0.34662047 0.9190706 4288980894
0.44856101 0.34485093 0.91404438 4288915101
0.44931418 0.34414506 0.91202432 4288849308
0.45111963 0.34414831 0.91200817 4288915101
0.45345685 0.34450614 0.91299397 4289111967
0.45579782 0.34486398 0.91397977 4288915101
0.45760703 0.34486726 0.91396356 4288849308
0.45887884 0.34451592 0.91294551 4288784285
0.46068618 0.3445192 0.91292942 4288652445
0.46249351 0.34452245 0.91291326 4288455579
0.46321484 0.34381652 0.91089344 4288323993
0.46392864 0.34311056 0.90887368 4287929235
0.46463495 0.3424046 0.90685397 4287731856
0.4642365 0.34098944 0.90283078 4287008133
0.46547455 0.34063807 0.90181303 4286021238
0.46449932 0.33886823 0.8967883 4284508000
0.46461388 0.3378076 0.89376718 4283323726
0.4663856 0.33781078 0.89375138 4281415729
0.46871531 0.33816859 0.89473724 4280626212
0.47048891 0.33817181 0.89472139 4280692005
0.46833017 0.33569258 0.88769382 4280955177
0.46896335 0.33498651 0.88567477 4281086763
0.42353305 0.34554851 0.91128099 4289178273
0.42584026 0.34590816 0.91226709 4289178273
0.42916226 0.34698063 0.91525757 4289112480
0.4324955 0.34805313 0.918248 4289178273
0.43482149 0.34841281 0.91923392 4289244068
0.43715119 0.3487725 0.92021984 4289112482
0.43845865 0.34841937 0.91920143 4288980896
0.43924746 0.3477098 0.91718096 4289112482
0.44054553 0.34735665 0.91616261 4289112482
0.44287711 0.34771636 0.91714853 4288980894
0.44573295 0.34843248 0.91913646 4289112480
0.44755155 0.34843576 0.91912019 4289112480
0.44779736 0.34736973 0.91609782 4288980894
0.44750577 0.34594727 0.91207355 4288980894
0.44878322 0.34559408 0.91105539 4289046174
0.4505868 0.34559733 0.91103929 4289111967
0.45292214 0.34595701 0.91202515 4289046687
0.45526123 0.34631673 0.91301095 4288915101
0.45706856 0.34632 0.91299486 4288980894
0.4583385 0.34596679 0.91197675 4288980894
0.46122247 0.34668297 0.91396445 4288784285
0.46357283 0.34704271 0.91495019 4288718492
0.46429789 0.34633303 0.91293025 4288784031
0.46447057 0.34526688 0.90990853 4288455066
0.46408525 0.34384421 0.9058851 4288520859
0.46423355 0.34277803 0.90286356 4288258200
0.46602213 0.34278125 0.90284759 4288060821
0.46615356 0.34171501 0.89982623 4287468684
0.46738228 0.34136173 0.89880854 4286876547
0.46916336 0.34136495 0.89879262 4286350203
0.47094443 0.34136817 0.89877671 4284968550
0.47272554 0.34137139 0.8987608 4283521104
0.47225958 0.33994856 0.89473808 4281810486
0.47177863 0.33852574 0.89071548 4280889384
0.47015169 0.33638987 0.88468969 4280494626
0.47020438 0.33532348 0.88166904 4280692005
0.47605148 0.33462307 0.87960333 4281152556
0.48012102 0.33498588 0.88057369 4279244559
0.419516 0.34448594 0.90329587 4289177760
0.4228155 0.34556398 0.90628666 4289243553
0.42713726 0.34735858 0.91128188 4289046687
0.43097037 0.34879497 0.91527462 4289178273
0.43329072 0.34915653 0.91626066 4289178273
0.43510368 0.34915981 0.91624445 4289112480
0.44208643 0.34774292 0.91215503 4289046687
0.44441426 0.34810451 0.91314101 4289046687
0.44569734 0.34774944 0.91212279 4289244066
0.44750279 0.34775269 0.91210669 4289111967
0.44930825 0.34775597 0.91209054 4289111967
0.45058385 0.3474009 0.91107237 4289046174
0.45291919 0.34776247 0.91205829 4289111967
0.45472464 0.34776571 0.91204214 4288915101
0.45599458 0.34741065 0.91102403 4288980894
0.45779815 0.3474139 0.91100794 4288915101
0.460141 0.34777549 0.91199374 4288850078
0.46248761 0.34813708 0.91297954 4288915871
0.46375191 0.34778202 0.9119615 4288915871
0.46337786 0.34635186 0.90793782 4288915871
0.46298879 0.34492171 0.90391427 4288784028
0.46313336 0.34384987 0.90089267 4288586906
0.4649182 0.34385309 0.9008767 4288718493
0.46670303 0.34385633 0.90086079 4288586652
0.46848786 0.34385955 0.90084481 4288652445
0.47027269 0.34386277 0.9008289 4288389529
0.47149953 0.34350762 0.89981115 4287929235
0.47216272 0.34279406 0.89779174 4287600270
0.47281843 0.34208053 0.89577234 4286810754
0.47233939 0.3406502 0.89174962 4285626480
0.47127983 0.33886147 0.88672525 4284573792
0.47133628 0.33778948 0.88370448 4282994760
0.47251999 0.33743423 0.88268715 4281349935
0.47834814 0.33780211 0.88364184 4281284142
0.48125458 0.33852211 0.88562942 4281284142
0.48243266 0.33816686 0.88461208 4281152556
0.48360702 0.33781162 0.88359487 4280560932
0.48594236 0.33817318 0.88458073 4279705880
0.41928715 0.34483713 0.89930356 4289244066
0.42561778 0.34808171 0.90830809 4289178273
0.4284305 0.34880528 0.91029656 4289244066
0.44307309 0.34775397 0.90714538 4289046687
0.44592145 0.34847757 0.90913349 4289178273
0.44877729 0.3492012 0.91112161 4289177760
0.45058087 0.34920448 0.91110545 4288980381
0.45238447 0.34920773 0.91108936 4289046687
0.45418805 0.34921098 0.91107327 4288980894
0.45545611 0.34885404 0.9100551 4288980894
0.45618308 0.34813684 0.90803504 4288915871
0.45959878 0.34922072 0.91102493 4288850078
0.46194351 0.34958419 0.91201073 4289047457
0.46320596 0.34922725 0.91099268 4289046687
0.46283004 0.34778962 0.90696883 4289046687
0.46298584 0.34671217 0.90394711 4288915101
0.46367908 0.34599495 0.90192729 4289046687
0.46491528 0.34563792 0.90090948 4288980894
0.46670011 0.34564114 0.90089351 4288915101
0.46848494 0.34564435 0.90087759 4288783515
0.47026977 0.34564757 0.90086162 4288783772
0.47149661 0.34529057 0.89984387 4288652442
0.47327957 0.34529376 0.89982796 4288586907
0.47450078 0.34493673 0.89881027 4288257943
0.47515461 0.34421945 0.8967908 4288126614
0.47466993 0.3427816 0.89276797 4287929235
0.47883719 0.34207064 0.89071715 4283652690
0.48117629 0.34243411 0.89170307 4282073658
0.48294425 0.3424373 0.89168727 4281218349
0.48471221 0.34244049 0.89167148 4280494626
0.48474428 0.3413628 0.88865077 4280626212
0.48418462 0.33992484 0.88462865 4281415728
0.48535711 0.33956772 0.88361138 4280955177
0.48594156 0.33885029 0.88159257 4280758312
0.48651853 0.33813286 0.87957382 4280890154
0.485912 0.33669481 0.87555206 4281087533
0.48588035 0.33561704 0.87253195 4281415984
0.48583743 0.33453923 0.86951196 4281020970
0.48697051 0.33418205 0.86849505 4280231454
0.48869535 0.33418515 0.86847961 4279705110
0.49042019 0.33418825 0.86846423 4279178766
0.48735106 0.33130881 0.86043727 4279047180
0.48906091 0.33131188 0.86042202 4279244559
0.49318275 0.33275628 0.86441237 4279178766
0.42157081 0.34698346 0.90032262 4289047203
0.42589065 0.34879681 0.90531814 4289047203
0.44434011 0.34919122 0.90616018 4289244066
0.44719034 0.34991857 0.90814835 4289244066
0.44898829 0.34992182 0.90813226 4289046689
0.451318 0.35028714 0.90911829 4289112482
0.45311785 0.35029039 0.9091022 4289046689
0.45384666 0.34956947 0.90708202 4289112482
0.45510536 0.34921062 0.90606397 4289047457
0.45743883 0.34957597 0.90704995 4288915871
0.45923492 0.34957919 0.90703392 4289047201
0.46103099 0.34958243 0.90701783 4288980895
0.46228221 0.34922358 0.90599984 4289112480
0.46298292 0.34850261 0.90397996 4289046686
0.46477339 0.34850585 0.90396392 4289046429
0.46601334 0.34814698 0.90294605 4289046686
0.46780193 0.34815019 0.90293008 4289046687
0.46959051 0.34815341 0.90291405 4288849308
0.47082296 0.34779453 0.90189624 4288980893
0.47205168 0.34743562 0.90087843 4288849306
0.47327664 0.34707671 0.89986068 4288783771
0.4750596 0.34707993 0.89984471 4288718237
0.47684255 0.34708315 0.89982879 4288521115
0.47919101 0.3474485 0.90081465 4288455579
0.48154321 0.34781387 0.90180045 4288323993
0.4827607 0.34745494 0.90078276 4288060564
0.48340327 0.34673387 0.89876336 4287336842
0.48461136 0.34637493 0.89774573 4286481789
0.48639059 0.34637815 0.89772987 4285560430
0.48701629 0.34565705 0.89571059 4284047192
0.48647726 0.34421161 0.89168811 4282665795
0.48476225 0.34204185 0.88566244 4286152824
0.48477185 0.34095851 0.88264191 4285100136
0.48535445 0.34023735 0.88062304 4283916376
0.48592955 0.33951613 0.87860423 4282534979
0.48473316 0.33770841 0.87358081 4281350191
0.48469776 0.33662501 0.87056065 4280823591
0.48405936 0.33517939 0.866539 4280955177
0.48459321 0.33445814 0.86452061 4281020970
0.48631057 0.33446124 0.86450523 4281284142
0.48862526 0.33482653 0.86549139 4281744693
0.48674902 0.33265644 0.85946721 4281020970
0.49257693 0.33411142 0.86344242 4279376145
0.42106238 0.3484025 0.89935297 4289244068
0.44865632 0.35026723 0.90414077 4289178275
0.4509804 0.3506344 0.90512687 4289046688
0.45223722 0.3502737 0.90410876 4288915871
0.45349032 0.34991297 0.90309072 4288981664
0.4552789 0.34991619 0.90307474 4288850078
0.45706749 0.34991941 0.90305877 4288981407
0.45939907 0.3502866 0.90404475 4289046685
0.46064466 0.34992588 0.90302676 4289244064
0.46243325 0.34992909 0.90301079 4289178271
0.46422184 0.34993231 0.90299481 4289111967
0.4649094 0.34920758 0.90097493 4289111967
0.46724662 0.34957477 0.90196097 4289177760
0.47014183 0.35030597 0.90394878 4289046174
0.47193229 0.35030922 0.90393281 4289046431
0.47260675 0.34958446 0.90191305 4288980894
0.47327372 0.34885967 0.89989334 4288980895
0.47393319 0.34813488 0.89787376 4288915360
0.47571239 0.34813809 0.89785784 4288718238
0.47749162 0.34814131 0.89784199 4288784031
0.47983819 0.34850854 0.89882785 4288652445
0.48275775 0.34923977 0.90081549 4288717981
0.48454261 0.34924299 0.90079957 4288586395
0.48575443 0.3488822 0.89978188 4288389016
0.48753738 0.34888542 0.89976591 4288191894
0.48759013 0.34779653 0.89674491 4287599757
0.48705298 0.34634361 0.89272225 4288323736
0.48592037 0.34452662 0.88769805 4288192406
0.48535135 0.34307364 0.88367569 4287666062
0.48593584 0.34234869 0.88165671 4286876547
0.48651281 0.34162378 0.87963784 4286218617
0.48708227 0.34089881 0.87761903 4285231722
0.48410505 0.33798954 0.86959076 4284310620
0.48228133 0.33580831 0.86356586 4283126346
0.486233 0.33508947 0.86151683 4280889384
0.48794469 0.33509254 0.86150151 4281218349
0.48845419 0.33436748 0.85948324 4281547314
0.49257413 0.33582687 0.86347389 4281481521
0.49852365 0.33837852 0.8704688 4281152556
0.50207245 0.3394739 0.87345767 4280231454
0.45435897 0.34987879 0.89808124 4289112993
0.45668116 0.35024783 0.8990674 4289178271
0.45846224 0.35025105 0.89905149 4289112478
0.45914984 0.34952256 0.89703155 4288980893
0.46092719 0.34952578 0.89701569 4289112223
0.4638055 0.35026067 0.89900374 4289243809
0.46558657 0.35026389 0.89898783 4289111967
0.46903041 0.3513647 0.90197778 4289177760
0.47137323 0.3517338 0.9029637 4289111967
0.47316182 0.35173702 0.90294772 4289046431
0.47383067 0.3510085 0.90092796 4289046687
0.47449201 0.35027996 0.89890826 4288980896
0.47514588 0.34955141 0.89688861 4288915103
0.4763577 0.34918875 0.89587092 4288915103
0.47813317 0.34919193 0.89585507 4288849310
0.48104712 0.34992692 0.89784282 4288915103
0.48339742 0.35029602 0.89882869 4288980896
0.48517853 0.35029924 0.89881277 4288783517
0.48695961 0.35030246 0.89879686 4288586395
0.48816395 0.34993976 0.89777923 4288520858
0.48826993 0.34556159 0.88569552 4288390040
0.49178496 0.34666252 0.88868481 4288061075
0.49413529 0.34703162 0.88967073 4287863441
0.48287025 0.3378897 0.86459893 4286613375
0.48399398 0.33752686 0.86358202 4285692273
0.48511395 0.33716401 0.8625651 4284902757
0.49033883 0.33826804 0.86553913 4281942072
0.49265918 0.33863708 0.86652529 4281284142
0.49973053 0.34083903 0.87250346 4280955177
0.50267637 0.34157407 0.87449098 4281152556
0.50441241 0.3415772 0.87447542 4281349935
0.45504928 0.35092577 0.89609385 4289112479
0.45627987 0.35056123 0.89507592 4289046686
0.46116474 0.34910309 0.89100456 4289243553
0.46514779 0.35057724 0.8949967 4289243553
0.46803361 0.35131592 0.89698476 4289177761
0.47092691 0.35205463 0.89897275 4289046689
0.47158828 0.35132232 0.89695299 4289046689
0.47224215 0.35059002 0.89493328 4289112482
0.47176126 0.3491222 0.89090985 4289112482
0.47239637 0.34838986 0.88889033 4288980896
0.47472608 0.34876081 0.88987643 4288980896
0.47705951 0.34913176 0.89086252 4288980896
0.47996783 0.3498705 0.8928504 4289046176
0.48288366 0.35060924 0.89483821 4289046431
0.48580697 0.35134798 0.89682597 4289177760
0.48816103 0.35171896 0.89781189 4289046174
0.4922547 0.35319331 0.90180302 4288784028
0.49410939 0.35099623 0.89574486 4288718492
0.49354041 0.34952822 0.8917222 4288652956
0.4947204 0.34916362 0.89070475 4288521626
0.49235746 0.34659219 0.88367736 4288455578
0.48937652 0.3436529 0.87564856 4288455579
0.48814642 0.34181699 0.8706249 4288192407
0.48927954 0.3414523 0.86960781 4287995028
0.49333221 0.34182635 0.87057853 4286349947
0.49566191 0.34219727 0.87156469 4285165929
0.5009374 0.34330702 0.8745383 4282402623
0.50206679 0.34294233 0.87352127 4281020970
0.50380099 0.34294546 0.87350583 4280692005
0.50431424 0.34221289 0.87148738 4280692005
0.45203644 0.34827241 0.88406968 4289112480
0.45324078 0.34790596 0.88305199 4289112481
0.45334041 0.34680033 0.88003021 4289178019
0.45453352 0.34643385 0.87901258 4289243554
0.46757609 0.35161796 0.89299357 4289112481
0.47069705 0.34904331 0.88591695 4289046689
0.47302109 0.34941611 0.88690311 4289046689
0.47825161 0.3505314 0.88987732 4288980896
0.48173478 0.3516435 0.89286709 4289111967
0.48465434 0.352386 0.8948549 4289243553
0.48700464 0.35275885 0.89584088 4289177760
0.48878011 0.35276207 0.89582503 4289178273
0.4941065 0.35277167 0.89577746 4288915615
0.49353752 0.35129619 0.89175469 4288784285
0.49412951 0.35056004 0.88973546 4288784285
0.49294442 0.34871483 0.88471121 4288784285
0.49055713 0.34613022 0.87768376 4288850079
0.48933083 0.34428495 0.87265992 4288652445
0.49046767 0.34391838 0.87164277 4288586652
0.49339285 0.34466088 0.87363058 4288389273
0.50052017 0.34799126 0.88262957 4288257687
0.50227123 0.34799442 0.88261396 4287862929
0.50462532 0.34836727 0.88359988 4287336842
0.50577343 0.34800074 0.88258266 4286942340
0.50631106 0.34726447 0.88056391 4285692273
0.50379813 0.34467965 0.8735376 4284310620
0.44569245 0.34927297 0.88214451 4289244066
0.44820642 0.34742504 0.87708706 4289178273
0.45049486 0.34779966 0.87807363 4289178275
0.45113561 0.34705985 0.87605387 4289178275
0.45232123 0.34669149 0.8750363 4289178019
0.45627424 0.34818059 0.87902898 4289178019
0.45913005 0.34892669 0.88101745 4289243554
0.47824872 0.35229558 0.88990968 4288980896
0.4805859 0.35267028 0.89089578 4289046176
0.48235199 0.35267347 0.89087999 4289046175
0.48469481 0.35304821 0.89186609 4289111967
0.48588416 0.35267985 0.89084846 4289112480
0.4864893 0.35193998 0.88882905 4289178273
0.48883399 0.35231468 0.88981509 4289244066
0.49118242 0.35268942 0.89080113 4289112480
0.49236241 0.35232106 0.88978356 4288915614
0.49295065 0.35158113 0.88776433 4288784285
0.49294156 0.35046965 0.88474339 4288850078
0.49173775 0.34861505 0.87971914 4288981664
0.49170241 0.34750351 0.87669849 4288849821
0.49225128 0.34676352 0.87467957 4288849309
0.49697414 0.34862447 0.87967235 4288980896
0.50171572 0.35048547 0.88466501 4288849309
0.5034706 0.35048863 0.88464934 4288455065
0.5064314 0.35123497 0.88663685 4288520602
0.50818998 0.35123813 0.88662118 4287994771
0.50934184 0.35086972 0.88560385 4287994771
0.50805551 0.34901497 0.88058037 4287271049
0.43908727 0.34765899 0.87317228 4289178275
0.43919632 0.34654209 0.87015021 4289178275
0.441466 0.34691855 0.87113696 4289112482
0.44373944 0.34729502 0.87212372 4289112482
0.44711012 0.34841818 0.87511468 4288980896
0.44994339 0.349168 0.87710345 4289046689
0.45113277 0.3487978 0.87608576 4289046946
0.45287073 0.34880093 0.87607026 4289046689
0.45460868 0.34880406 0.8760547 4289112482
0.45857108 0.35030067 0.88004744 4289178275
0.46366441 0.35254404 0.88604414 4289178273
0.46766055 0.35404071 0.89003658 4289178273
0.48125243 0.35145867 0.88286591 4289112480
0.48358402 0.35183525 0.88385212 4289112480
0.48475462 0.35146499 0.88283461 4289178273
0.48708993 0.35184157 0.88382083 4289047200
0.49057928 0.35073078 0.88076854 4288850078
0.49114317 0.34998706 0.87874943 4289046687
0.49229315 0.34961677 0.8777321 4289046687
0.49343938 0.34924647 0.87671483 4288980894
0.49637392 0.34999651 0.8787027 4288980894
0.49991518 0.35111997 0.88169217 4288915101
0.5016644 0.35112312 0.88167655 4288783515
0.50341362 0.35112628 0.88166088 4288717722
0.50637251 0.35187635 0.88364851 4288717722
0.5087322 0.35225296 0.88463449 4288586907
0.50926983 0.35150921 0.88261563 4288323479
0.42830333 0.34787491 0.86927211 4289178275
0.43655545 0.35125795 0.87826198 4289178275
0.43896416 0.35051382 0.87622637 4289112226
0.43854523 0.3490161 0.8722018 4289112226
0.43865237 0.34789357 0.86917967 4289177762
0.43983424 0.34752148 0.86816204 4289112226
0.44264689 0.34827504 0.87015104 4289112482
0.44710726 0.35015425 0.87514651 4289046689
0.44994056 0.35090783 0.87713534 4289046689
0.45223087 0.3512862 0.87812197 4289112739
0.45342022 0.35091412 0.87710428 4289178275
0.45516008 0.35091725 0.87708873 4289112481
0.4580121 0.35167089 0.87907737 4289046688
0.46198761 0.35317501 0.88307011 4289112480
0.46955743 0.35356289 0.8840096 4289178275
0.47131041 0.35356605 0.88399392 4289112482
0.47249413 0.35319397 0.88297629 4289112482
0.47546142 0.35057965 0.87590027 4289112482
0.47777799 0.35095805 0.87688667 4289178273
0.48067877 0.35171178 0.8788749 4289046943
0.48242235 0.35171491 0.87885928 4289046944
0.48124483 0.34984159 0.87383449 4288981408
0.48004854 0.34796825 0.86880982 4288981664
0.48177338 0.34797135 0.86879444 4289047457
0.488217 0.35097688 0.87679338 4288981664
0.49054858 0.35135534 0.8777796 4289046943
0.49169669 0.35098317 0.87676233 4288915101
0.49284106 0.350611 0.875745 4289046431
0.4957737 0.35136476 0.87773293 4289046431
0.49871388 0.35211855 0.87972081 4288980894
0.50045931 0.35212168 0.87970525 4288849308
0.50220478 0.35212484 0.87968963 4288915101
0.50395024 0.35212797 0.87967402 4288849308
0.50630248 0.35250646 0.88066012 4288783515
0.50865841 0.35288495 0.8816461 4288652186
0.5097971 0.35251278 0.88062888 4288520600
0.50848275 0.35063919 0.87560529 4288784029
0.50837803 0.3495163 0.872585 4288455065
0.50887817 0.34876874 0.87056637 4288389272
0.51953411 0.35103339 0.8765136 4285560687
0.52127397 0.35103652 0.87649804 4284639329
0.42896187 0.3488487 0.86728364 4289244068
0.43335098 0.35073718 0.87227994 4289178275
0.43561691 0.3511174 0.87326682 4289243555
0.43681192 0.35074344 0.87224901 4289177762
0.4369247 0.34961531 0.86922669 4289309348
0.43810844 0.34924132 0.868209 4289111969
0.43874547 0.34849024 0.86618912 4289243555
0.44209921 0.34962463 0.8691805 4289112482
0.44710442 0.35189033 0.8751784 4289178275
0.4499377 0.35264766 0.87716728 4289112482
0.45277849 0.35340503 0.87915611 4289046689
0.45396972 0.35303107 0.87813836 4289244066
0.45515722 0.35265708 0.87712061 4289178273
