# .PCD v0.7 - Point Cloud Data file format
VERSION 0.7
FIELDS x y z rgba
SIZE 4 4 4 4
TYPE F F F U
COUNT 1 1 1 1
WIDTH 143
HEIGHT 1
VIEWPOINT 0 0 0 1 0 0 0
POINTS 143
DATA ascii
-0.20210525 0.30439395 0.95639527 11646643
-0.19511127 0.30329314 0.95483482 12304831
-0.1851788 0.30340213 0.95647526 12633799
-0.17501885 0.30366793 0.95720744 12896971
-0.16660683 0.3028973 0.95889997 12765129
-0.15878066 0.30167148 0.9597075 12765130
-0.2018237 0.31213686 0.95778483 12304056
-0.19696884 0.31293026 0.95665562 12369850
-0.18426973 0.31507164 0.95643097 12435899
-0.17451435 0.31585705 0.95730799 12436156
-0.16714881 0.3163285 0.95871758 12370363
-0.18403569 0.2996155 0.96589756 11449271
-0.17647183 0.29970255 0.96608138 11712442
-0.16228309 0.29985052 0.96637362 12041150
-0.15457056 0.29949251 0.96503097 12106941
-0.14496875 0.29909873 0.96353734 12106941
-0.13956413 0.29918376 0.96699119 12239040
-0.20392577 0.30450195 0.9614979 11317934
-0.19423895 0.30432191 0.96287471 11909817
-0.1844845 0.30501851 0.96189976 12107196
-0.17481838 0.30254909 0.96364605 11975613
-0.16465974 0.30438527 0.9642846 12501956
-0.15508011 0.3031421 0.96376884 12699591
-0.14454864 0.30258951 0.96418107 12830664
-0.13530993 0.3036572 0.96565968 12436161
-0.12540868 0.30315715 0.96573091 12304320
-0.11479601 0.3026455 0.9655323 11975614
-0.10542716 0.30343327 0.96806329 12107199
-0.094930194 0.30278653 0.96708566 12107455
-0.083883464 0.30245951 0.96871901 11975868
-0.074724697 0.30264989 0.96861672 12370370
-0.065479591 0.30294794 0.96902978 12633798
-0.055957481 0.30374852 0.96838802 13028297
-0.044734742 0.30449387 0.96896088 13291468
-0.034815609 0.30586144 0.9683063 13159624
-0.025368204 0.30560338 0.96886307 13159111
-0.015081144 0.30533361 0.96673787 12896194
-0.005939954 0.30667698 0.96719527 12698814
-0.19336578 0.31337294 0.96215558 12501179
-0.18457747 0.31307727 0.96153283 12633022
-0.17490286 0.31337255 0.96345615 12699071
-0.16508116 0.31410545 0.96563309 12633022
-0.15778372 0.31757987 0.96565807 12435899
-0.14360178 0.31800634 0.96987295 12370363
-0.13402274 0.31731451 0.96902418 12304570
-0.12596434 0.31748429 0.96945518 12304571
-0.11593919 0.31782332 0.96887141 12304571
-0.10931495 0.31806815 0.96956658 12304570
-0.096906409 0.31785768 0.96870136 12304570
-0.064546913 0.31616694 0.96888024 12370363
-0.056932155 0.31587207 0.96780634 12566972
-0.043480564 0.31558847 0.9675734 12566971
-0.035050247 0.31302449 0.96745795 12698813
-0.025546607 0.31201488 0.96710426 12764350
-0.015137915 0.31167549 0.96582669 12698813
-0.0042716214 0.31147158 0.96386653 12632763
0.001055424 0.31194305 0.96646422 12631994
-0.15397802 0.2997174 0.97229803 12435906
-0.14758216 0.29963169 0.97190565 12436162
-0.067399144 0.29987356 0.97152448 12172993
-0.15456781 0.30842909 0.97179615 12831176
-0.14747952 0.30686963 0.97070378 12698820
-0.12311661 0.30257243 0.97120667 12238784
-0.11512061 0.30722725 0.97142041 12568006
-0.10471314 0.30549085 0.97342062 12501956
-0.095153272 0.30363074 0.97342592 12501956
-0.084816553 0.30401564 0.97261631 12567492
-0.075414896 0.30427226 0.9731015 12568004
-0.064400129 0.30426598 0.97516221 12633540
-0.054251339 0.30359542 0.97298497 12699077
-0.044224251 0.30362573 0.97363913 12830919
-0.035085093 0.30123022 0.97490615 12699335
-0.025741581 0.30277461 0.97384566 13028043
-0.015701829 0.3013038 0.97427815 13159885
-0.0050624991 0.30350655 0.97328258 12962247
-0.16093732 0.31382459 0.97195214 12698816
-0.15480773 0.31520838 0.97580326 12567486
-0.14521146 0.31506467 0.97599262 12633279
-0.1348372 0.31423491 0.97663587 12764608
-0.12485337 0.31445664 0.97564101 12764609
-0.11489097 0.31490299 0.9753834 12633279
-0.10553786 0.31533635 0.975609 12633022
-0.093994834 0.31454009 0.97527069 12698559
-0.084733486 0.31472257 0.97692639 12698815
-0.075130202 0.31456959 0.97627735 12698814
-0.065910995 0.31348476 0.97444457 12699071
-0.054359399 0.31348979 0.97344935 12764350
-0.046075307 0.31331003 0.97324651 12764350
-0.042359427 0.29974705 0.98396695 12699337
-0.034152027 0.2993784 0.98555356 12830922
-0.025195552 0.29906297 0.98806804 13159888
-0.015630195 0.29929757 0.98705304 12896716
-0.0093339756 0.29974651 0.9868381 12699337
-0.05494386 0.30069166 0.98076308 12304579
-0.024002826 0.30064827 0.9834854 12501958
-0.012542788 0.30076814 0.98038423 12831177
-0.0059719458 0.30077597 0.9843263 12436163
-0.15179361 0.31537792 0.98165071 12633535
-0.14430642 0.31507453 0.98132789 12698815
-0.13776743 0.31565595 0.98077983 12698558
-0.12140114 0.31568545 0.98063362 12764351
-0.11610097 0.31510985 0.98146462 12698816
-0.10366588 0.31503049 0.9810183 12698558
-0.096769392 0.31508127 0.9808017 12764351
-0.032513447 0.29779264 0.99051082 12041405
-0.024106042 0.29784322 0.99307334 12304320
-0.014125368 0.29646671 0.994394 11975611
-0.0060910983 0.29630724 0.99519235 11909817
-0.004191976 0.30036205 0.99230444 13028043
-0.011852282 0.29402217 1.002259 9212048
-0.0053913062 0.2928248 1.0001787 9211787
-0.013819018 0.29494303 1.01763 7566454
-0.0068925163 0.2932604 1.0162034 6448225
-0.024896288 0.28649125 1.0257165 6513763
-0.015516143 0.28543809 1.0243789 6711143
-0.005092395 0.28652123 1.0262477 6382174
-0.024038753 0.29396021 1.0270996 9079694
-0.016241278 0.29330236 1.0224768 7895419
-0.0055333013 0.29218885 1.0232731 6119003
0.00067281199 0.29206353 1.0264492 7500653
-0.0025988121 0.26718318 1.0396919 9541012
-0.014091146 0.27868825 1.0388057 3882300
-0.0047989618 0.27870616 1.0371224 6776933
0.0014607398 0.27942935 1.03988 5724499
-0.031731766 0.28738099 1.0351223 7764086
-0.025514031 0.28336617 1.0339428 6184285
-0.014600502 0.2813713 1.0353919 5329490
-0.0054682107 0.28145432 1.0332856 6119003
0.0010405115 0.28464627 1.0326445 6382172
-0.032393843 0.29177487 1.0334084 7961212
-0.027000329 0.29559231 1.0310296 8487301
-0.0035300863 0.2667385 1.0432383 9803926
0.0024449341 0.26772484 1.0446576 9671824
-0.020728137 0.27911615 1.0470747 9013900
-0.015202921 0.27697966 1.0439022 6316386
-0.0050671292 0.27519628 1.0458622 8487296
0.0018887421 0.27517724 1.0472999 8092281
-0.023476191 0.28182554 1.0440056 8816263
-0.018940717 0.28143236 1.0400996 7500915
-0.0082082367 0.26984608 1.0507933 9212047
-0.020619461 0.27781489 1.0500505 9540247
-0.012077142 0.27366534 1.0515648 8750727
5.9267702e-05 0.27620742 1.0515026 5920857
