# .PCD v0.7 - Point Cloud Data file format
VERSION 0.7
FIELDS x y z rgba
SIZE 4 4 4 4
TYPE F F F U
COUNT 1 1 1 1
WIDTH 938
HEIGHT 1
VIEWPOINT 0 0 0 1 0 0 0
POINTS 938
DATA ascii
-0.13568488 0.23190063 1.0482402 4291348672
-0.13342623 0.23127694 1.045208 4291348671
-0.13124491 0.23086236 1.0431803 4291677122
-0.13781476 0.23416272 1.049301 4294046187
-0.13561843 0.23374443 1.0472733 4293519844
-0.13322575 0.23269309 1.0422314 4292927705
-0.13098398 0.23206376 1.0391992 4292335568
-0.12888184 0.23185642 1.0381763 4291546050
-0.12678346 0.23164907 1.0371535 4291348671
-0.12474927 0.23165274 1.0371354 4291348157
-0.12265651 0.23144539 1.0361125 4291347901
-0.1205675 0.23123802 1.0350899 4291545281
-0.11853706 0.23124169 1.0350717 4291545536
-0.11650662 0.23124535 1.0350535 4291545023
-0.11447619 0.23124902 1.0350354 4291413436
-0.11249495 0.23146372 1.0360218 4291084471
-0.11050996 0.23167843 1.0370082 4291150262
-0.10852122 0.23189315 1.0379944 4291347641
-0.10652874 0.23210786 1.0389807 4291413434
-0.1045325 0.2323226 1.0399669 4291479227
-0.10253251 0.23253733 1.0409532 4291413435
-0.10052878 0.23275207 1.0419394 4291610813
-0.0985213 0.23296683 1.0429255 4291742399
-0.096441656 0.23275945 1.0419028 4291742400
-0.094462752 0.23318528 1.0438933 4291873731
-0.092476346 0.23361112 1.0458838 4291873732
-0.090482436 0.23403697 1.0478741 4292071366
-0.088454328 0.23425175 1.0488601 4292071623
-0.13781813 0.23621939 1.0493387 4293520356
-0.1356218 0.23579735 1.0473109 4293849065
-0.13322911 0.23473665 1.042269 4294112494
-0.13092124 0.23388879 1.0382318 4294309616
-0.12875678 0.2334667 1.0362043 4294375409
-0.12666214 0.23325747 1.0351815 4294243566
-0.12457125 0.23304823 1.0341587 4293651428
-0.12248411 0.232839 1.0331359 4293256670
-0.12034402 0.23241685 1.0311086 4292796119
-0.11826625 0.2322076 1.0300859 4292203982
-0.11613929 0.23178543 1.0280586 4291808455
-0.11412197 0.23178907 1.0280406 4291545281
-0.11210466 0.2317927 1.0280226 4291348159
-0.11008735 0.23179634 1.0280046 4291216572
-0.10811549 0.2320129 1.0289911 4291282108
-0.10613988 0.23222947 1.0299776 4291281850
-0.10416052 0.23244604 1.030964 4291281850
-0.10217741 0.23266262 1.0319504 4291347900
-0.10019055 0.23287921 1.0329368 4291610815
-0.098236024 0.23330875 1.0349275 4291808194
-0.096205585 0.23331241 1.0349094 4292071366
-0.094239809 0.23374195 1.0369 4292137159
-0.09229698 0.23438448 1.0398951 4292137416
-0.090342909 0.23502702 1.04289 4292071623
-0.088324174 0.23524365 1.0438761 4291940294
-0.13774981 0.23806132 1.0483717 4293586151
-0.13555533 0.23763552 1.0463438 4293783530
-0.13316451 0.23656544 1.0413017 4293783530
-0.13092458 0.23592485 1.0382693 4293915116
-0.12876011 0.23549899 1.0362417 4293980909
-0.1267278 0.23550266 1.0362234 4294046445
-0.12463503 0.23529156 1.0352006 4294243824
-0.12254602 0.23508045 1.0341778 4294309617
-0.12034734 0.23443978 1.0311457 4294244080
-0.11826957 0.23422866 1.030123 4294375153
-0.1161426 0.23380274 1.0280957 4294243310
-0.1140742 0.23359159 1.027073 4294177774
-0.11205877 0.23359522 1.027055 4294243310
-0.11004332 0.23359886 1.027037 4294046187
-0.10802789 0.23360249 1.027019 4294111722
-0.10605603 0.23382093 1.0280056 4294045672
-0.10408042 0.23403937 1.0289921 4293717221
-0.10210107 0.23425782 1.0299785 4293585634
-0.10011796 0.23447627 1.030965 4293322719
-0.098167188 0.23490955 1.0329559 4293059290
-0.096174709 0.23512802 1.0339422 4292927704
-0.094178475 0.2353465 1.0349286 4292664532
-0.09223941 0.23599462 1.0379236 4292335568
-0.090317681 0.23685761 1.041923 4291743430
-0.088327534 0.23729095 1.0439136 4291348673
-0.086429223 0.23858365 1.0499215 4291151294
-0.13789658 0.24054937 1.050419 4293651944
-0.13562852 0.2399032 1.0473862 4293980909
-0.13323581 0.23882374 1.042344 4294112495
-0.13099401 0.23817754 1.0393114 4294178288
-0.12889186 0.23796457 1.0382884 4294244081
-0.12679346 0.2377516 1.0372654 4294244081
-0.12469882 0.23753864 1.0362426 4294178288
-0.12254934 0.23710901 1.034215 4294178288
-0.12035066 0.23646271 1.0311828 4294112495
-0.11827289 0.2362497 1.0301601 4294046702
-0.11614591 0.23582003 1.0281327 4293980652
-0.11407751 0.23560701 1.0271101 4293717480
-0.11211128 0.23582731 1.0280967 4293651686
-0.11004663 0.23561428 1.027074 4293585893
-0.10807665 0.23583458 1.0280607 4293519843
-0.10605934 0.23583822 1.0280426 4293388257
-0.10408373 0.23605855 1.0290291 4293256928
-0.10210438 0.23627886 1.0300156 4293125342
-0.10015924 0.23671588 1.0320066 4292862170
-0.098170511 0.23693623 1.0329931 4292664791
-0.096178032 0.23715657 1.0339794 4292533205
-0.094214141 0.23759362 1.0359702 4292401363
-0.092273213 0.23824738 1.0389655 4292137934
-0.090321034 0.23890115 1.0419605 4291677640
-0.088330895 0.23933825 1.0439512 4291283138
-0.086457431 0.24085891 1.0509636 4291085759
-0.13782825 0.24238941 1.0494519 4293651687
-0.13556206 0.24173762 1.046419 4293915116
-0.13323916 0.2408673 1.0423814 4294112495
-0.13099734 0.24021547 1.0393487 4294178288
-0.12883098 0.23978211 1.037321 4294309874
-0.12673447 0.23956726 1.036298 4294309874
-0.12464169 0.23935241 1.0352751 4294309874
-0.12249408 0.23891903 1.0332475 4294244081
-0.12035397 0.23848563 1.03122 4294441203
-0.1182762 0.23827076 1.0301971 4294375667
-0.11620218 0.23805587 1.0291744 4294309617
-0.1141319 0.23784098 1.0281518 4294178288
-0.11211459 0.23784462 1.0281336 4294112238
-0.11004993 0.23762971 1.0271111 4293915116
-0.10798904 0.23741479 1.0260884 4293849066
-0.10601906 0.23763698 1.0270751 4293585894
-0.10404533 0.23785917 1.0280616 4293585893
-0.1021077 0.23829992 1.0300527 4293388514
-0.1001246 0.23852213 1.0310392 4293191136
-0.098137744 0.23874433 1.0320257 4293059549
-0.09614715 0.23896655 1.0330122 4292862170
-0.094185136 0.23940735 1.0350029 4292598741
-0.092246093 0.24006674 1.0379983 4292335313
-0.09032438 0.24094471 1.041998 4291677383
-0.088360965 0.24160413 1.0449932 4291480261
-0.086460814 0.24291933 1.0510014 4291151296
-0.13790333 0.24466647 1.0504946 4293717480
-0.13563526 0.24400905 1.0474615 4293980652
-0.13324252 0.24291085 1.042419 4294112495
-0.13100068 0.24225338 1.0393862 4294112495
-0.12877011 0.24159589 1.0363535 4294309874
-0.1267378 0.24159956 1.0363353 4294244081
-0.12458456 0.24116245 1.0343076 4294309874
-0.12249741 0.24094571 1.0332847 4294309874
-0.120414 0.24072896 1.0322618 4294441203
-0.11833435 0.24051221 1.0312389 4294375410
-0.11625845 0.24029545 1.0302162 4294441203
-0.11418629 0.24007869 1.0291934 4294243824
-0.11216711 0.24008232 1.0291754 4294112238
-0.11010058 0.23986556 1.0281527 4294046445
-0.10803781 0.23964877 1.02713 4293849066
-0.10606596 0.23987283 1.0281166 4293717480
-0.10409036 0.2400969 1.0291032 4293585894
-0.10211101 0.24032097 1.0300897 4293322721
-0.10016588 0.24076548 1.0320809 4293322722
-0.098177157 0.24098958 1.0330673 4293059550
-0.096150473 0.24099323 1.0330492 4292861914
-0.09422081 0.24165823 1.0360448 4292466899
-0.092310362 0.24254368 1.0400447 4292203727
-0.090384915 0.24342917 1.0440445 4291545797
-0.088417761 0.24409422 1.0470397 4291414211
-0.13790672 0.24672501 1.0505323 4293585894
-0.13563862 0.24606197 1.0474992 4293914859
-0.13324586 0.24495441 1.0424564 4294046445
-0.13100402 0.24429131 1.0394235 4294112495
-0.12883766 0.24385047 1.0373956 4294244081
-0.12674113 0.24363187 1.0363725 4294244081
-0.12464835 0.24341327 1.0353496 4294244081
-0.12255932 0.24319465 1.0343267 4294375667
-0.12041733 0.24275376 1.0322989 4294506996
-0.11839251 0.24275741 1.0322808 4294375410
-0.11631473 0.24253879 1.031258 4294243824
-0.11429179 0.24254243 1.03124 4294178031
-0.11221964 0.2423238 1.0302172 4294112238
-0.11015123 0.24210516 1.0291944 4293980652
-0.10808658 0.2418865 1.0281717 4293914859
-0.10611286 0.24211243 1.0291582 4293783273
-0.10413539 0.24233837 1.0301449 4293454308
-0.10219401 0.24278663 1.0321361 4293454308
-0.10020717 0.24301259 1.0331227 4293125343
-0.098216578 0.24323857 1.0341091 4293059550
-0.096222229 0.24346454 1.0350957 4292796121
-0.094288826 0.24413516 1.0380912 4292401106
-0.092374645 0.24502812 1.0420913 4291874762
-0.090445466 0.24592112 1.0460912 4291414211
-0.088474564 0.24659181 1.0490865 4291348675
-0.13783836 0.24855945 1.0495651 4293520101
-0.13557215 0.24789077 1.0465319 4293914859
-0.13318124 0.24677382 1.041489 4294112238
-0.13094127 0.2461051 1.038456 4294046445
-0.12871255 0.24543637 1.0354232 4294244081
-0.12668212 0.24544004 1.035405 4294244081
-0.12459121 0.24521954 1.034382 4294309874
-0.12250406 0.24499907 1.0333591 4294244081
-0.12042064 0.24477857 1.0323361 4294309874
-0.11839584 0.24478222 1.032318 4294375667
-0.11631805 0.24456172 1.0312951 4294309874
-0.11424401 0.24434121 1.0302722 4294112238
-0.11217374 0.24412069 1.0292494 4293980652
-0.1101072 0.24390016 1.0282266 4293914859
-0.10808989 0.2439038 1.0282086 4293783273
-0.10607257 0.24390744 1.0281906 4293914859
-0.1041387 0.24435943 1.030182 4292335827
-0.10219733 0.24481145 1.0321733 4293125343
-0.1002105 0.24503927 1.0331599 4293125343
-0.098219901 0.24526712 1.0341464 4292927964
-0.09622556 0.24549496 1.0351329 4292795864
-0.094292171 0.24617121 1.0381286 4292466899
-0.092377998 0.24707167 1.0421288 4291480004
-0.090448827 0.24797216 1.0461287 4291414211
-0.088451214 0.24842428 1.0481195 4291151296
-0.13784175 0.2506161 1.0496029 4293454308
-0.13557552 0.24994183 1.0465696 4293849066
-0.13325256 0.2490415 1.0425314 4293980652
-0.13101071 0.24836716 1.0394983 4294112238
-0.12884434 0.24791881 1.0374702 4294112240
-0.1267478 0.24769647 1.0364472 4294309875
-0.12465501 0.24747412 1.0354241 4294309875
-0.12256598 0.24725176 1.0344011 4294309874
-0.12053742 0.24725541 1.0343829 4294178545
-0.118454 0.24703304 1.03336 4294178289
-0.11642732 0.24703671 1.0333419 4294112495
-0.11429843 0.24658829 1.0313141 4294244081
-0.11222627 0.2463659 1.0302913 4293980909
-0.11015785 0.2461435 1.0292685 4293914859
-0.10813867 0.24614714 1.0292504 4293322722
-0.10611948 0.24615079 1.0292324 4291283139
-0.10414202 0.24638048 1.0302191 4287598731
-0.10220065 0.24683625 1.0322105 4292533206
-0.10021382 0.24706595 1.033197 4292993757
-0.098223232 0.24729566 1.0341836 4292861914
-0.09622889 0.24752539 1.0351701 4292598486
-0.094263159 0.24798119 1.0371612 4291085246
-0.09235087 0.24888915 1.0411617 4289111456
-0.090452194 0.25002322 1.0461664 4291217088
-0.088454582 0.25047907 1.0481572 4291085759
-0.13777339 0.25244492 1.0486356 4293454308
-0.13550903 0.25176498 1.0456022 4293717480
-0.13318793 0.25085717 1.0415639 4293914859
-0.13101405 0.2504051 1.0395356 4294112238
-0.12884766 0.24995299 1.0375075 4294243824
-0.12675112 0.24972877 1.0364845 4294243826
-0.12459786 0.24927665 1.0344564 4294178034
-0.1225693 0.24928032 1.0344383 4294309619
-0.12054074 0.24928397 1.0344201 4294309620
-0.11851218 0.24928764 1.034402 4294309620
-0.11643064 0.24906339 1.0333791 4290691261
-0.11435285 0.24883913 1.0323561 4293454565
-0.11222959 0.24838695 1.0303284 4292599256
-0.11016117 0.24816269 1.0293055 4293914859
-0.10814198 0.24816632 1.0292875 4293125343
-0.10612279 0.24816997 1.0292695 4290625209
-0.1041036 0.24817361 1.0292513 4287006593
-0.10216412 0.24863312 1.0312428 4292796377
-0.10017916 0.2488647 1.0322294 4293191135
-0.098190449 0.24909629 1.0332161 4292730584
-0.096197993 0.24932788 1.0342027 4292730584
-0.094234139 0.24978742 1.036194 4290756794
-0.092323743 0.25070289 1.0401944 4289046176
-0.090426952 0.25184631 1.0451994 4290954173
-0.088457949 0.25253388 1.048195 4288717211
-0.13777676 0.2544997 1.0486733 4293388515
-0.13551238 0.25381416 1.0456398 4293651687
-0.13325927 0.25312859 1.0426064 4293849066
-0.1310174 0.25244302 1.0395731 4293980652
-0.128851 0.25198716 1.0375448 4294178031
-0.1266921 0.2515313 1.0355167 4294178031
-0.12454071 0.25107545 1.0334886 4293980652
-0.12251402 0.25107908 1.0334705 4294112238
-0.1204306 0.25085297 1.0324476 4294309364
-0.11846065 0.25108641 1.0334344 4294638328
-0.11643396 0.25109005 1.0334163 4289506730
-0.11430506 0.25063413 1.0313884 4290493880
-0.11218367 0.25017822 1.0293605 4289901743
-0.11011712 0.24995206 1.0283377 4292665049
-0.10805433 0.24972591 1.0273149 4293454308
-0.1060825 0.24995935 1.0283016 4291019967
-0.10406518 0.24996299 1.0282836 4288059281
-0.10212758 0.25042623 1.0302751 4289967278
-0.10010652 0.25042987 1.0302571 4292730584
-0.098121561 0.25066334 1.0312438 4292730584
-0.096167088 0.25112662 1.0332352 4292401619
-0.094205111 0.25158992 1.0352265 4291480517
-0.092296608 0.25251287 1.0392271 4291085759
-0.090430312 0.25389549 1.0452369 4291085759
-0.088461325 0.25458866 1.0482327 4287598987
-0.13792358 0.25701776 1.0507212 4293322209
-0.13565546 0.25632659 1.0476875 4293651687
-0.1333306 0.25540379 1.043649 4293980652
-0.13108684 0.25471258 1.0406154 4294046445
-0.12891857 0.25425297 1.0385872 4294046446
-0.1267578 0.25379339 1.036559 4294243824
-0.12460452 0.25333375 1.0345309 4293191136
-0.12245874 0.25287414 1.0325028 4291875276
-0.12043393 0.25287777 1.0324847 4293783018
-0.11846397 0.25311309 1.0334716 4294112239
-0.11643729 0.25311673 1.0334535 4291875021
-0.11435949 0.25288874 1.0324304 4289441192
-0.11228544 0.25266072 1.0314074 4292994014
-0.11016779 0.25220105 1.0293796 4293586151
-0.10810312 0.251973 1.0283567 4293652199
-0.10608581 0.25197664 1.0283387 4293257441
-0.10411023 0.25221196 1.0293255 4293322721
-0.1021309 0.25244728 1.0303122 4292862170
-0.10014782 0.25268263 1.031299 4292862170
-0.09816099 0.25291795 1.0322857 4292664791
-0.096170411 0.25315329 1.0332724 4292533205
-0.094208442 0.25362033 1.0352638 4292006861
-0.092299946 0.25455078 1.0392646 4291743689
-0.090433672 0.25594467 1.0452746 4291085759
-0.088491425 0.25687519 1.049275 4290099120
-0.13785523 0.25884283 1.0497538 4293256415
-0.13565883 0.25837952 1.0477252 4293651431
-0.13326597 0.25721571 1.0426813 4293980652
-0.13102408 0.25651887 1.0396478 4293256930
-0.12885767 0.25605553 1.0376195 4293256675
-0.12676112 0.25582567 1.0365963 4294704376
-0.12454735 0.2551288 1.033563 4293585639
-0.12240345 0.2546654 1.0315349 4291677897
-0.12038051 0.25466904 1.0315168 4292401364
-0.11835758 0.25467271 1.0314988 4292861915
-0.11633464 0.25467634 1.0314807 4294112238
-0.1143117 0.25468001 1.0314626 4293651943
-0.11223952 0.25445011 1.0304396 4293981165
-0.11012374 0.25398669 1.0284117 4293717736
-0.10806094 0.25375676 1.0273888 4293586406
-0.1060455 0.2537604 1.0273708 4293389027
-0.10403007 0.25376403 1.0273528 4293191648
-0.10209435 0.25423479 1.0293444 4292994269
-0.10015114 0.25470555 1.0313361 4292730840
-0.098200426 0.25517631 1.0333277 4292533461
-0.096207976 0.25541353 1.0343143 4292401619
-0.094211772 0.25565076 1.035301 4292072654
-0.092303291 0.25658873 1.0393019 4291743689
-0.090408422 0.25776026 1.0443075 4291151552
-0.08846806 0.25869825 1.048308 4290756793
-0.13573205 0.26066783 1.0487679 4293585637
-0.13326932 0.25925925 1.0427188 4293980652
-0.13102742 0.25855678 1.0396852 4288585627
-0.12879677 0.25785431 1.0366517 4288585627
-0.1267021 0.2576226 1.0356284 4293651688
-0.12455069 0.25715548 1.0336002 4293520101
-0.12246538 0.25692374 1.032577 4293322722
-0.12038383 0.25669199 1.031554 4294375155
-0.11836089 0.25669563 1.0315359 4294178030
-0.11633795 0.25669929 1.0315177 4294112494
-0.1142639 0.25646752 1.0304947 4293980907
-0.1121936 0.25623575 1.0294718 4293783785
-0.11012705 0.25600398 1.0284487 4293717992
-0.10810973 0.25600761 1.0284307 4293520613
-0.10609242 0.25601125 1.0284127 4293389027
-0.10411685 0.25625032 1.0293995 4293191648
-0.10217739 0.25672483 1.0313913 4293060062
-0.10019244 0.25696391 1.0323781 4292731097
-0.098239861 0.25743842 1.0343697 4292467669
-0.096245542 0.25767753 1.0353564 4292335826
-0.094247468 0.25791663 1.0363431 4292006861
-0.092306629 0.25862664 1.0393393 4291612103
-0.090440392 0.26004303 1.0453497 4291019453
-0.088471435 0.26075307 1.0483458 4290756280
-0.13580529 0.26295987 1.0498109 4293322722
-0.13327268 0.2613028 1.0427563 4293980652
-0.13096465 0.26035747 1.0387175 4290493623
-0.12873586 0.25964937 1.0356839 4286611836
-0.12670542 0.25965303 1.0356658 4290033072
-0.1246145 0.25941941 1.0346425 4293717480
-0.12252732 0.25918579 1.0336193 4294178031
-0.12044389 0.25895217 1.0325961 4294112238
-0.11836421 0.25871855 1.0315729 4294178030
-0.11628828 0.25848493 1.0305499 4293981164
-0.11426722 0.25848857 1.0305318 4293981164
-0.11219691 0.25825495 1.0295087 4293915371
-0.11017773 0.25825858 1.0294907 4293717992
-0.10820403 0.2584995 1.0304776 4293520613
-0.10622659 0.25874045 1.0314646 4293388771
-0.10420365 0.25874409 1.0314465 4293125599
-0.10222057 0.25898504 1.0324333 4292994013
-0.10027175 0.25946331 1.034425 4292862170
-0.098279305 0.25970429 1.0354117 4292467412
-0.096283115 0.25994527 1.0363985 4292335826
-0.094283171 0.26018625 1.0373852 4292006605
-0.092340469 0.2609019 1.0403816 4291611590
-0.09047237 0.26232952 1.0463922 4290953915
-0.088501543 0.26304519 1.0493883 4290559156
-0.13580866 0.26501656 1.0498486 4293125343
-0.13320804 0.26310724 1.0417886 4293585894
-0.13090187 0.26215437 1.0377496 4293849066
-0.12873919 0.26167977 1.0357211 4289440935
-0.12670876 0.26168343 1.0357029 4293717480
-0.12461782 0.26144797 1.0346797 4294178031
-0.12253064 0.26121247 1.0336565 4294112238
-0.12050395 0.26121613 1.0336384 4294112238
-0.11836753 0.26074147 1.0316101 4294112751
-0.1162916 0.26050597 1.030587 4294046957
-0.11421941 0.26027048 1.0295638 4293981164
-0.11215097 0.26003495 1.0285407 4293915371
-0.1102284 0.26051691 1.0305327 4293652199
-0.10825284 0.26075974 1.0315198 4293389027
-0.10627352 0.26100254 1.0325066 4293256928
-0.10424871 0.26100621 1.0324886 4293191135
-0.10226377 0.26124904 1.0334754 4292993756
-0.10027508 0.26149186 1.0344622 4292664791
-0.098282635 0.26173472 1.035449 4292533205
-0.096286446 0.26197758 1.0364357 4292204240
-0.094286509 0.26222044 1.0374225 4291875019
-0.092313312 0.26270249 1.039414 4291480003
-0.090447113 0.26414135 1.0454249 4290888121
-0.088531666 0.26534107 1.0504308 4290624949
-0.13588192 0.26731423 1.0508915 4293059549
-0.13327937 0.26538992 1.0428313 4293322722
-0.13097133 0.26442957 1.0387921 4293717480
-0.12880677 0.26395121 1.0367635 4293783273
-0.12671208 0.26371387 1.0357403 4294112238
-0.12468164 0.26371753 1.0357221 4294112238
-0.12259259 0.26348019 1.0346988 4294178031
-0.12050728 0.26324281 1.0336756 4294243567
-0.11842572 0.26300544 1.0326523 4294112238
-0.11629491 0.26252702 1.030624 4294046958
-0.11422272 0.26228964 1.0296009 4294046444
-0.11220353 0.26229328 1.0295829 4293717736
-0.11023172 0.26253796 1.0305698 4293586405
-0.10825615 0.26278266 1.0315568 4293389027
-0.10632046 0.26326841 1.0335488 4293256928
-0.10429378 0.26327205 1.0335307 4293059549
-0.10226709 0.26327571 1.0335126 4292927963
-0.10027841 0.26352042 1.0344994 4292796120
-0.098285966 0.26376516 1.0354862 4292467155
-0.096289776 0.26400986 1.036473 4292203983
-0.094322219 0.26449567 1.0384648 4291743687
-0.092377655 0.26522255 1.0414612 4291216828
-0.090536349 0.26691377 1.0484772 4290953912
-0.13588528 0.26937276 1.0509293 4292993756
-0.13335073 0.26767632 1.043874 4293256928
-0.13104078 0.26670849 1.0398347 4293651687
-0.12881011 0.26598352 1.0368009 4293914859
-0.12677778 0.26598719 1.0367827 4293980652
-0.12462448 0.26550508 1.0347542 4294178031
-0.12259591 0.26550874 1.034736 4294178031
-0.1205106 0.26526949 1.0337127 4294243567
-0.11842903 0.26503024 1.0326895 4294046445
-0.11629822 0.26454809 1.0306611 4294046445
-0.11422604 0.26430881 1.0296379 4293914859
-0.11220685 0.26431248 1.0296199 4293783529
-0.11023504 0.26455903 1.0306069 4293782759
-0.10825948 0.26480559 1.0315939 4293454564
-0.10628016 0.26505217 1.032581 4293322721
-0.10425535 0.26505581 1.0325629 4293125342
-0.10227042 0.26530239 1.0335498 4293124829
-0.10024372 0.26530606 1.0335317 4292664534
-0.098253168 0.26555264 1.0345185 4292466899
-0.096258856 0.26579922 1.0355054 4292072141
-0.094293177 0.26628879 1.0374972 4291808967
-0.092411511 0.26750717 1.0425036 4291348415
-0.090568349 0.2692115 1.0495198 4290888119
-0.13588867 0.27143133 1.0509671 4292927963
-0.13342208 0.26996651 1.0449169 4293191135
-0.13111027 0.26899117 1.0408775 4293454308
-0.12887768 0.26826057 1.0378433 4293717480
-0.12678112 0.2680195 1.0368199 4294045932
-0.1246883 0.2677784 1.0357965 4294242799
-0.12254062 0.2672925 1.0337681 4294506228
-0.12051392 0.26729617 1.0337499 4294046191
-0.11843236 0.26705503 1.0327266 4294374129
-0.11630154 0.26656914 1.0306982 4294374129
-0.11422934 0.26632801 1.029675 4294308593
-0.11221015 0.26633164 1.0296569 4294177004
-0.11023835 0.26658008 1.0306439 4293914346
-0.10821728 0.26658371 1.0306259 4293847784
-0.10619622 0.26658738 1.0306079 4293519077
-0.10421692 0.26683581 1.0315949 4293453283
-0.10223386 0.26708427 1.0325819 4293255648
-0.10024705 0.26733273 1.0335689 4293255902
-0.098292626 0.26782599 1.0355607 4292070601
-0.096262187 0.26782966 1.0355426 4292399309
-0.094328895 0.26856777 1.0385394 4292005321
-0.092445366 0.26979554 1.0435461 4291282622
-0.090571724 0.27126819 1.0495576 4289835431
-0.13349345 0.27226043 1.0459598 4293059549
-0.13117974 0.27127761 1.0419202 4293585637
-0.12894528 0.2705414 1.0388861 4293914346
-0.12684684 0.27029842 1.0378625 4294176750
-0.12469164 0.26980883 1.0358338 4291082939
-0.12260257 0.26956582 1.0348104 4291410879
-0.12051725 0.26932284 1.0337871 4293910497
-0.11843568 0.26907983 1.0327637 4293512404
-0.11635786 0.26883686 1.0317404 4293317591
-0.11428379 0.26859385 1.0307171 4293911525
-0.11226273 0.26859748 1.0306991 4293318617
-0.11024166 0.26860112 1.0306811 4293187544
-0.1082206 0.26860479 1.030663 4292923862
-0.10619954 0.26860842 1.030645 4292594640
-0.10422023 0.26885873 1.0316321 4292726227
-0.1021973 0.2688624 1.0316139 4291869631
-0.10025038 0.26935941 1.0336061 4291735734
-0.098332092 0.2701031 1.0366031 4290486179
-0.09633404 0.27035347 1.0375899 4289631640
-0.094397001 0.27109721 1.0405868 4288910740
-0.092509739 0.27233437 1.0455936 4289506212
-0.090632364 0.27381825 1.0516052 4283782476
-0.1334288 0.27406111 1.044992 4293059549
-0.13118309 0.27331927 1.0419576 4293519844
-0.12894861 0.27257743 1.0389234 4293979112
-0.12685017 0.27233261 1.0378999 4294242284
-0.12469497 0.27183923 1.035871 4292661969
-0.1226059 0.27159438 1.0348476 4291409338
-0.12052057 0.27134952 1.0338242 4291471280
-0.118439 0.27110466 1.0328009 4291074983
-0.11630817 0.27061126 1.0307723 4291603124
-0.11423597 0.27036637 1.029749 4291144112
-0.11221678 0.27037001 1.029731 4290092451
-0.11019759 0.27037364 1.0297129 4290620337
-0.10822392 0.27062583 1.0307001 4289632672
-0.10620285 0.27062947 1.0306821 4292065729
-0.10418179 0.27063313 1.030664 4289234064
-0.10220061 0.27088532 1.031651 4290680481
-0.1002537 0.27138609 1.0336432 4290284694
-0.098299287 0.27188686 1.0356352 4288377211
-0.096303113 0.27213907 1.0366222 4288577155
-0.094400346 0.273137 1.0406243 4289897891
-0.092482589 0.27413496 1.0446262 4289111712
-0.090635739 0.27587867 1.051643 4286743932
-0.13350017 0.27635878 1.0460349 4293125342
-0.13118643 0.27536097 1.041995 4293454307
-0.12895195 0.2746135 1.0389607 4293847783
-0.12685351 0.27436677 1.0379372 4294045162
-0.12475881 0.27412006 1.0369136 4293188826
-0.12260922 0.27362293 1.0348848 4292266441
-0.12058066 0.2736266 1.0348667 4292989395
-0.11844232 0.27312946 1.032838 4291607485
-0.11636449 0.2728827 1.0318147 4291936708
-0.11429042 0.27263594 1.0307913 4292265930
-0.11222009 0.27238917 1.029768 4290095017
-0.1102009 0.27239281 1.02975 4291805893
-0.10822723 0.27264687 1.0307372 4290357422
-0.1062498 0.27290094 1.0317243 4293909217
-0.10422686 0.2729046 1.0317062 4289564310
-0.10224382 0.27315867 1.0326933 4289497747
-0.10025702 0.27341276 1.0336803 4291473331
-0.098302618 0.27391729 1.0356725 4291145137
-0.096306443 0.27417138 1.0366595 4290621101
-0.094371304 0.27492636 1.0396566 4291478720
-0.09251646 0.27643272 1.0456688 4290756794
-0.13350353 0.27840796 1.0460726 4293059549
-0.13118978 0.27740264 1.0420326 4293388515
-0.12895529 0.27664953 1.0389981 4293782503
-0.12685685 0.27640095 1.0379745 4293848810
-0.12476214 0.27615237 1.0369509 4294111981
-0.12267119 0.27590376 1.0359274 4294440177
-0.12058399 0.27565515 1.034904 4294506483
-0.11844564 0.27515426 1.0328752 4294374640
-0.11636781 0.27490562 1.0318518 4294177261
-0.11429373 0.27465698 1.0308285 4294045933
-0.11227266 0.27466065 1.0308104 4293847784
-0.11025161 0.27466428 1.0307924 4293715428
-0.10823055 0.27466792 1.0307742 4293518562
-0.10625312 0.27492386 1.0317614 4293584355
-0.10427196 0.27517983 1.0327486 4292859605
-0.10228703 0.27543578 1.0337356 4291937732
-0.10029836 0.27569175 1.0347227 4293254618
-0.098305948 0.27594772 1.0357097 4292860117
-0.096309774 0.27620369 1.0366968 4292202957
-0.094374642 0.27696431 1.039694 4291742661
-0.092489302 0.27822956 1.0447013 4290888121
-0.13350689 0.28045714 1.0461102 4293125342
-0.13119313 0.27944431 1.04207 4293585381
-0.12902291 0.27893972 1.0400409 4293783017
-0.12686019 0.27843514 1.0380118 4293849323
-0.12470496 0.27793053 1.0359828 4294046445
-0.12261587 0.27768004 1.0349593 4294177518
-0.12053055 0.27742955 1.0339358 4294111981
-0.11844896 0.27717906 1.0329124 4294177518
-0.11637112 0.27692854 1.0318888 4294111725
-0.11429705 0.27667806 1.0308656 4293980139
-0.11227598 0.27668169 1.0308474 4293848296
-0.11025492 0.27668533 1.0308294 4293782246
-0.10827938 0.27694315 1.0318166 4293585123
-0.10625644 0.27694681 1.0317985 4293321951
-0.1042335 0.27695045 1.0317805 4293058780
-0.10225046 0.27720827 1.0327677 4292926937
-0.10026367 0.27746612 1.0337547 4292729301
-0.098273128 0.27772394 1.0347418 4292334799
-0.096313111 0.27823597 1.036734 4292137419
-0.094377987 0.27900222 1.0397314 4291611074
-0.092492662 0.28027686 1.0447389 4291019194
-0.09064588 0.28205994 1.0517564 4290493361
-0.13364629 0.28301832 1.0481588 4293256415
-0.13126263 0.28174201 1.043113 4293454307
-0.12909052 0.28123367 1.0410837 4293848810
-0.12686351 0.2804693 1.0380491 4294046445
-0.12470829 0.27996096 1.03602 4293980652
-0.1226192 0.27970859 1.0349965 4293980909
-0.12053387 0.27945623 1.033973 4294046702
-0.11845228 0.27920386 1.0329494 4294112495
-0.11637445 0.2789515 1.031926 4293915116
-0.11435151 0.27895513 1.0319079 4293849323
-0.11232857 0.27895877 1.0318899 4293717479
-0.11030563 0.27896243 1.0318718 4293520100
-0.10828269 0.27896607 1.0318537 4293454307
-0.10625976 0.27896973 1.0318357 4293191135
-0.10427859 0.27922943 1.0328228 4292993243
-0.10225378 0.27923307 1.0328047 4292729814
-0.10026699 0.2794928 1.0337919 4292532435
-0.098312601 0.28000855 1.0357842 4292269263
-0.096316442 0.28026828 1.0367713 4291940298
-0.094413728 0.28129622 1.040774 4291611587
-0.09252654 0.28258023 1.0457816 4290887864
-0.13378571 0.28558698 1.0502075 4293386204
-0.13133213 0.28404343 1.044156 4293715939
-0.12915814 0.28353134 1.0421267 4293979624
-0.12692925 0.28276137 1.0390919 4294045932
-0.12477214 0.28224927 1.0370628 4294046702
-0.12262253 0.28173715 1.0350337 4293915886
-0.12053719 0.28148291 1.0340102 4294178031
-0.1184007 0.28097075 1.0319812 4294112238
-0.11632474 0.28071651 1.0309577 4294046445
-0.11435483 0.28097805 1.031945 4293914859
-0.11233189 0.28098172 1.031927 4293849065
-0.11035635 0.28124326 1.0329143 4293520100
-0.10833154 0.28124693 1.0328962 4293454307
-0.10626307 0.28099266 1.0318727 4293322208
-0.10424013 0.28099629 1.0318546 4292927450
-0.1022172 0.28099996 1.0318366 4292664278
-0.10027032 0.28151947 1.0338291 4292532692
-0.09835209 0.28229693 1.0368267 4292269263
-0.096354052 0.28255853 1.0378139 4292005834
-0.094449475 0.28359395 1.0418166 4291676610
-0.092590958 0.28514531 1.0478296 4291018422
-0.1316001 0.28712788 1.0482157 4294898417
-0.1294186 0.28661206 1.0461863 4294833651
-0.12711979 0.2855767 1.0421458 4294571249
-0.12489653 0.2848011 1.0391111 4294308336
-0.12268451 0.28402546 1.0360764 4294242543
-0.12065407 0.28402913 1.0360583 4294177520
-0.11845892 0.28325346 1.0330237 4294243313
-0.11638108 0.28299734 1.0320002 4294111727
-0.11435814 0.28300098 1.0319822 4293914346
-0.11238448 0.28326443 1.0329695 4293717480
-0.11040708 0.28352785 1.0339568 4293651174
-0.10838039 0.28353152 1.0339386 4293453795
-0.10626639 0.28301558 1.0319098 4293322209
-0.10424346 0.28301924 1.0318918 4292993242
-0.10222052 0.28302288 1.0318737 4292861143
-0.10027364 0.28354615 1.0338663 4292531922
-0.098427728 0.28484884 1.0388746 4292530895
-0.096460231 0.28537214 1.040867 4292530380
-0.094550043 0.28641507 1.0448698 4292397762
-0.092716448 0.28823751 1.0518882 4292461502
-0.12980765 0.29023102 1.0522574 4294685126
-0.12749758 0.28918821 1.0482167 4294959340
-0.12520252 0.28814533 1.0441762 4294964473
-0.12298112 0.2873641 1.0411413 4294964470
-0.12082775 0.28684449 1.0391121 4294965496
-0.11862697 0.28606322 1.0360774 4294900216
-0.11654349 0.28580523 1.0350537 4294900215
-0.11446378 0.28554723 1.0340302 4294833651
-0.11248637 0.28581256 1.0350175 4294504942
-0.11050522 0.28607786 1.0360048 4294308333
-0.10847478 0.28608152 1.0359867 4294241770
-0.10635702 0.28556186 1.0339577 4294175464
-0.10433034 0.2855655 1.0339396 4293846499
-0.10234356 0.28583083 1.0349269 4293846498
-0.1004291 0.28661954 1.0379249 4293977056
-0.098575704 0.28793162 1.0429333 4294367962
-0.096600711 0.28845868 1.0449257 4292845226
-0.094747856 0.29003254 1.0509392 4290012274
-0.12768818 0.29203165 1.0512712 4289935708
-0.12538749 0.29098132 1.0472305 4290133345
-0.12316044 0.29019445 1.0441954 4290200165
-0.12105823 0.28993464 1.0431716 4291846787
-0.11879502 0.28888422 1.0391313 4292901528
-0.11665289 0.28836083 1.037102 4293824683
-0.11456942 0.28810096 1.0360783 4293892015
-0.11258826 0.28836817 1.0370657 4293629356
-0.11055595 0.28837183 1.0370475 4293628843
-0.10847811 0.28811195 1.036024 4293497000
-0.10640401 0.28785208 1.0350003 4293232288
-0.10437544 0.28785574 1.0349822 4291915143
-0.10238679 0.28812295 1.0359695 4290467440
-0.1005085 0.28918082 1.0399729 4288690514
-0.098687537 0.29076585 1.0459869 4287835716
-0.096706927 0.29129666 1.0479792 4287177272
-0.094880879 0.29314533 1.0549983 4287111736
-0.12769155 0.29409021 1.051309 4291251825
-0.12545139 0.29329777 1.0482737 4291317875
-0.12322246 0.29250526 1.0452386 4290924143
-0.12117515 0.29250896 1.0452203 4290529899
-0.1189631 0.29171646 1.0421853 4290266727
-0.11681534 0.29118934 1.040156 4290069091
-0.11467507 0.2906622 1.0381267 4289871453
-0.11264089 0.29066586 1.0381085 4289804890
-0.1106067 0.29066956 1.0380903 4289738327
-0.10857251 0.29067323 1.0380721 4289212753
-0.10658199 0.29094231 1.0390594 4289015888
-0.10454593 0.29094598 1.0390413 4288885070
-0.1025897 0.29148051 1.041034 4288951632
-0.10070205 0.29254591 1.0450374 4288819531
-0.098835558 0.29387677 1.0500461 4288557129
-0.096813165 0.29414591 1.051033 4288033351
-0.12750769 0.29534698 1.0483297 4284226859
-0.12521259 0.29428163 1.0442888 4285935423
-0.12304982 0.29375076 1.0422592 4288101715
-0.12100814 0.29375446 1.042241 4289545056
-0.11891153 0.29349086 1.0412171 4290463847
-0.11676564 0.29295999 1.0391878 4290857578
-0.11462724 0.29242909 1.0371584 4290792296
-0.11259493 0.29243276 1.0371403 4290332259
-0.11051521 0.29216915 1.0361166 4290134880
-0.10853031 0.29244009 1.037104 4289937244
-0.10658533 0.29297835 1.0390968 4289542999
-0.10459106 0.29324934 1.0400841 4288625489
-0.10267288 0.2940549 1.0430822 4287444551
-0.10074345 0.29486051 1.0460804 4285869626
-0.098802768 0.29566613 1.0490783 4283572774
-0.096782245 0.29593715 1.0500654 4282327070
-0.094887652 0.29727742 1.0550741 4281671709
-0.12988545 0.29874185 1.0534143 4282134570
-0.12732379 0.2965925 1.0453503 4282463022
-0.12503432 0.29551962 1.0413092 4282725937
-0.12287717 0.29498503 1.0392797 4282594351
-0.12078431 0.29471955 1.0382558 4282856496
-0.1186952 0.29445407 1.037232 4282855983
-0.1165568 0.29391944 1.0352026 4283052079
-0.11447707 0.29365394 1.0341789 4283051052
-0.11245038 0.2936576 1.0341609 4282853414
-0.11042369 0.29366124 1.0341427 4282985000
-0.10839701 0.2936649 1.0341246 4282787108
-0.10641399 0.29393774 1.035112 4282459426
-0.10446902 0.29447973 1.037105 4281999902
-0.10251655 0.29502174 1.0390978 4282065951
-0.10063267 0.29610214 1.0431015 4281606427
-0.098697625 0.29691339 1.0460997 4281345565
-0.096682735 0.29718626 1.0470868 4280820250
-0.094793782 0.29853591 1.0520957 4280952352
-0.12988883 0.30080417 1.0534521 4281938990
-0.12732716 0.2986398 1.0453879 4282202162
-0.12503766 0.29755944 1.0413467 4282399541
-0.12282183 0.29675007 1.0383114 4282465591
-0.12078764 0.29675373 1.0382931 4282268982
-0.11864361 0.29621536 1.0362636 4282334261
-0.11656012 0.295948 1.0352398 4282334261
-0.11442922 0.29540959 1.0332104 4282267955
-0.11240441 0.29541323 1.0331924 4282135853
-0.11037959 0.29541689 1.0331743 4281938472
-0.10835478 0.29542053 1.0331562 4281741863
-0.10637365 0.29569525 1.0341437 4281412900
-0.10443056 0.29624099 1.0361366 4281544486
-0.10251988 0.29705781 1.0391351 4281018142
-0.10059797 0.29787463 1.0421335 4281215778
-0.098700985 0.29896256 1.0461372 4280559131
-0.096686095 0.29923731 1.0471244 4280229912
-0.094829582 0.30086741 1.0531389 4280362013
-0.12982792 0.30259356 1.0524842 4281611052
-0.12726809 0.3004142 1.0444196 4283057986
-0.12498045 0.29932633 1.0403783 4281873969
-0.12276649 0.29851136 1.0373429 4282005812
-0.12067738 0.29824212 1.036319 4281940276
-0.11853709 0.29769999 1.0342895 4281808946
-0.11645735 0.29743072 1.0332657 4281940532
-0.11443254 0.29743439 1.0332476 4281545774
-0.11240773 0.29743803 1.0332295 4281677358
-0.11038291 0.29744169 1.0332115 4281479979
-0.1083581 0.29744536 1.0331933 4281282600
-0.10633329 0.29744899 1.0331752 4280756769
-0.10439208 0.29799849 1.0351683 4280690463
-0.10244337 0.29854801 1.0371614 4280427291
-0.10056327 0.2996434 1.0411654 4280362011
-0.098631985 0.30046585 1.0441638 4280296218
-0.096620858 0.30074248 1.045151 4281019430
-0.094768107 0.30238381 1.0511657 4282861634
-0.1298313 0.304654 1.0525219 4283585098
-0.12733386 0.3027344 1.045463 4287006080
-0.12498379 0.30136427 1.0404158 4283255879
-0.12276983 0.30054364 1.0373802 4285492841
-0.1206807 0.30027255 1.0363563 4282795328
-0.11848549 0.29945189 1.0333209 4285953393
-0.11640762 0.29918075 1.0322971 4282926915
-0.11443586 0.29945919 1.0332848 4283124036
-0.11246035 0.29973763 1.0342723 4282466363
-0.11043367 0.29974127 1.0342542 4281611308
-0.10836142 0.29947016 1.0332304 4284045908
-0.10633661 0.29947379 1.0332124 4281085223
-0.1043954 0.30002704 1.0352055 4284309593
-0.10244671 0.30058029 1.0371987 4282533182
-0.10052856 0.30140838 1.0401973 4283388491
-0.098599166 0.30223647 1.0431957 4284178007
-0.096589908 0.30251497 1.044183 4283454284
-0.094706625 0.30389273 1.0491924 4282203704
-0.12739965 0.30505833 1.0465063 4283190086
-0.1250477 0.30367884 1.041459 4282597949
-0.12283184 0.3028526 1.0384233 4285427048
-0.12068404 0.30230296 1.0363935 4283453259
-0.11843388 0.30120003 1.0323523 4287466632
-0.11635788 0.30092704 1.0313284 4284637532
-0.114388 0.30120733 1.0323162 4285690220
-0.11241437 0.30148765 1.0333039 4286808187
-0.11043699 0.30176795 1.0342914 4283848016
-0.1084103 0.30177161 1.0342733 4287598730
-0.10638361 0.30177528 1.0342551 4282861890
-0.10439873 0.3020556 1.0352428 4285033830
-0.10248997 0.30288929 1.0382415 4282533696
-0.10056996 0.30372298 1.0412402 4283060040
-0.098602511 0.30428004 1.0432333 4282139195
-0.096558951 0.30428371 1.0432149 4280691492
-0.094709992 0.30594754 1.0492301 4280822564
-0.12734058 0.30682901 1.0455381 4286479736
-0.12505104 0.30571863 1.0414964 4283124293
-0.12277649 0.30460826 1.0374547 4283386951
-0.12063055 0.30405489 1.0354249 4283189317
-0.11838226 0.30294445 1.0313836 4282795072
-0.11630814 0.30266955 1.0303597 4282400056
-0.11434013 0.30295172 1.0313475 4281807919
-0.11236838 0.30323392 1.0323352 4281939505
-0.11044031 0.30379462 1.0343286 4281610540
-0.10841362 0.30379829 1.0343105 4281611054
-0.10638694 0.30380195 1.0342923 4281545774
-0.10440206 0.30408415 1.03528 4281348908
-0.10249331 0.30492344 1.0382788 4281151529
-0.1005733 0.3057628 1.0412776 4280823078
-0.098605864 0.30632359 1.0432707 4282204731
-0.096562304 0.30632725 1.0432525 4282796868
-0.09471336 0.30800232 1.0492678 4284178007
-0.13163713 0.30971006 1.04863 4281479981
-0.12951988 0.30943337 1.0476058 4282663742
-0.1272815 0.3085959 1.0445697 4286413943
-0.12505439 0.30775845 1.0415337 4286216564
-0.12283851 0.30692095 1.0384979 4286742394
-0.12074751 0.30664423 1.0374739 4287729290
-0.11849545 0.30552629 1.0334324 4287465861
-0.11636451 0.30496913 1.0314026 4287860875
-0.11434345 0.3049728 1.0313846 4284965983
-0.1123717 0.30525684 1.0323724 4282926400
-0.1103962 0.30554089 1.03336 4284242260
-0.10841694 0.30582497 1.0343477 4284769118
-0.10643395 0.30610904 1.0353353 4287072386
-0.1044472 0.30639312 1.036323 4283388491
-0.10253658 0.30723807 1.0393219 4284375386
-0.10061471 0.30808303 1.0423207 4286414969
-0.098645404 0.30864757 1.0443139 4285230695
-0.096634284 0.30893168 1.0453012 4282862147
-0.094716735 0.31005713 1.0493056 4280953637
-0.13342117 0.31063026 1.044662 4281151016
-0.13111097 0.30950496 1.0406199 4281348395
-0.12907304 0.30950862 1.0406016 4281414188
-0.12697266 0.30923003 1.0395775 4281545774
-0.1249366 0.30923373 1.0395594 4282268984
-0.12278315 0.30867285 1.0375293 4282268984
-0.12069403 0.30839425 1.0365052 4283584844
-0.11849876 0.30755109 1.0334696 4283321672
-0.11636782 0.30699021 1.0314397 4285163362
-0.11429557 0.30671155 1.0304158 4283518537
-0.11227638 0.30671519 1.0303978 4283321158
-0.11025719 0.30671886 1.0303798 4283453258
-0.10832914 0.30728707 1.0323733 4283322185
-0.10639358 0.30785531 1.0343667 4284046421
-0.10440871 0.30814126 1.0353544 4281217322
-0.10246003 0.3087095 1.0373478 4280625185
-0.10050386 0.30927777 1.0393411 4280954150
-0.098540179 0.30984607 1.0413343 4280690978
-0.096569009 0.31041437 1.0433275 4281085736
-0.094622776 0.31126499 1.0463262 4283716943
-0.13301611 0.31097096 1.0386634 4281151016
-0.13071716 0.30983812 1.0346212 4281151016
-0.12862615 0.30955765 1.0335971 4281479981
-0.12660134 0.30956128 1.033579 4281611311
-0.12457652 0.30956495 1.0335609 4281808433
-0.12255172 0.30956858 1.0335429 4282202677
-0.12047008 0.30928808 1.0325189 4286611322
-0.11844715 0.30929175 1.0325007 4283650637
-0.11631807 0.30872709 1.0304708 4285492327
-0.11419649 0.30816242 1.0284411 4282268470
-0.11218105 0.30816606 1.0284231 4281282343
-0.11011817 0.30788553 1.0273992 4282927168
-0.10815018 0.30817333 1.0283871 4283124806
-0.10622213 0.30874529 1.0303807 4282927940
-0.10424476 0.30903313 1.0313685 4282927940
-0.10226364 0.30932093 1.0323561 4281414701
-0.10027877 0.30960876 1.0333438 4282335290
-0.09836255 0.31046495 1.036343 4284506459
-0.096366435 0.31075281 1.0373305 4284572252
-0.09443146 0.31160903 1.0403296 4284243287
-0.092546381 0.31303367 1.0453398 4281085736
-0.13288331 0.31243312 1.0366886 4281086250
-0.13058808 0.31129277 1.0326463 4281151529
-0.12850083 0.31101042 1.0316222 4281348395
-0.12647976 0.31101406 1.0316042 4281611823
-0.1244587 0.31101772 1.0315861 4281743153
-0.12243764 0.31102136 1.0315681 4282532156
-0.12041658 0.31102499 1.0315499 4286611322
-0.11839551 0.31102866 1.0315319 4286677115
-0.11632138 0.31074628 1.0305079 4287926925
-0.11419979 0.31017786 1.028478 4284176467
-0.11213504 0.30989546 1.0274541 4282136884
-0.11012147 0.30989909 1.0274361 4285558632
-0.10815348 0.31018877 1.028424 4285559147
-0.10618174 0.31047845 1.0294119 4284835424
-0.10420625 0.31076813 1.0303997 4282664255
-0.10226696 0.31134388 1.0323932 4281743153
-0.1002821 0.31163356 1.033381 4282006325
-0.098329678 0.31220934 1.0353744 4282072118
-0.096335441 0.31249905 1.0363621 4280427293
-0.09440235 0.3133609 1.0393611 4280558879
-0.092488587 0.31450886 1.0433658 4280362270
-0.13032661 0.31216419 1.0286591 4280954664
-0.12824684 0.31187996 1.027635 4281283372
-0.11812408 0.31161022 1.0265391 4282006325
-0.11611239 0.31161386 1.0265211 4281874739
-0.1141007 0.31161746 1.0265032 4282137654
-0.11203969 0.31133321 1.0254792 4281743151
-0.11002988 0.31133682 1.0254613 4281480235
-0.10802006 0.31134045 1.0254433 4281283115
-0.10605395 0.31163198 1.0264312 4281151529
-0.10408408 0.31192353 1.0274191 4280822819
-0.10215043 0.31250301 1.0294129 4280624672
-0.10017119 0.3127946 1.0304006 4280361757
-0.098188199 0.31308615 1.0313884 4280493599
-0.096201465 0.31337774 1.0323762 4280427806
-0.094275884 0.31424519 1.0353755 4280362013
-0.092369631 0.31540063 1.0393803 4280230941
-0.11395039 0.31275982 1.0235221 4282007352
-0.11194433 0.31276342 1.0235041 4281678387
-0.10993826 0.31276706 1.0234863 4281152043
-0.1079322 0.31277066 1.0234684 4280888871
-0.10596984 0.3130641 1.0244564 4280494113
-0.10400373 0.3133575 1.0254443 4279902230
-0.10203387 0.31365094 1.0264323 4279836437
-0.10006026 0.31394437 1.0274202 4279771157
-0.0980829 0.3142378 1.0284079 4279836950
-0.096101791 0.31453124 1.0293958 4280955431
-0.094181843 0.31540433 1.0323952 4282731588
-0.11380006 0.3138909 1.0205408 4282928708
-0.11179962 0.31389451 1.020523 4282599743
-0.10784432 0.3141934 1.0214932 4282007606
-0.10584201 0.314197 1.0214753 4282204985
-0.10388153 0.31449229 1.0224633 4282731329
-0.1019173 0.3147876 1.0234513 4284639326
-0.099949315 0.31508288 1.0244393 4285824113
-0.097977579 0.31537819 1.0254273 4287074180
-0.096002102 0.3156735 1.0264152 4288521626
-0.094055332 0.31626049 1.0284089 4288587419
-0.092131637 0.31713921 1.0314084 4288323992
-0.10184066 0.31620654 1.0214763 4288652699
-0.099876434 0.3165037 1.0224643 4288718492
-0.09790846 0.31680086 1.0234524 4288652699
