# .PCD v0.7 - Point Cloud Data file format
VERSION 0.7
FIELDS x y z rgba
SIZE 4 4 4 4
TYPE F F F U
COUNT 1 1 1 1
WIDTH 116
HEIGHT 1
VIEWPOINT 0 0 0 1 0 0 0
POINTS 116
DATA ascii
-0.10800661 0.29823002 1.2392474 11187388
-0.24185906 0.2854901 1.2492161 10530230
-0.23524931 0.28699654 1.2461839 10530745
-0.22752284 0.28895622 1.2471507 10925760
-0.22244383 0.2903809 1.2491316 10925247
-0.21151829 0.29040062 1.249034 10858941
-0.20070194 0.2906425 1.2499417 10924475
-0.12232985 0.29884139 1.2463886 11647940
-0.11397297 0.29747614 1.2456521 11516355
-0.1072937 0.29450354 1.2461742 10463925
-0.11411352 0.30103558 1.241104 11647681
-0.25031239 0.28478098 1.2572806 10464949
-0.24474297 0.28335425 1.2552874 10595766
-0.23477854 0.28300777 1.2539263 10464180
-0.22442533 0.28522617 1.2539934 10464694
-0.21516518 0.28644529 1.256353 10398901
-0.20507555 0.28721079 1.2565026 10662073
-0.19587453 0.28837824 1.2579697 11188160
-0.18616641 0.28855503 1.2586082 10925245
-0.17607655 0.28801367 1.2596747 11056831
-0.16873097 0.28802693 1.2596091 10925504
-0.12206821 0.2898981 1.2562244 10991296
-0.11596096 0.28990912 1.2561698 9938867
-0.22014014 0.29060745 1.2501153 10859454
-0.21649548 0.29061401 1.2500827 10793405
-0.19368699 0.29124817 1.2525572 11253953
-0.18501708 0.29104188 1.2551428 11254210
-0.17580172 0.29099321 1.2566013 11385539
-0.16523542 0.2920742 1.2567347 10859196
-0.15520874 0.29540569 1.2557132 11056575
-0.14485089 0.29687724 1.2573568 11779529
-0.13387652 0.29471925 1.2562518 11451077
-0.12493252 0.29389161 1.2523849 11451075
-0.11493344 0.29283834 1.2511021 10661818
-0.10848439 0.29147598 1.2521306 10135474
-0.2516776 0.27549526 1.2623737 5999269
-0.24483179 0.27718708 1.2615931 6458532
-0.23519422 0.27869356 1.2627846 8296874
-0.22553897 0.27897489 1.2639534 9413809
-0.21583296 0.27920353 1.2648708 9743289
-0.2062254 0.27964312 1.2667931 10400704
-0.19286267 0.27818766 1.268397 7705257
-0.18805423 0.27784202 1.2695978 6851744
-0.25234181 0.28351483 1.2627766 10662328
-0.24721649 0.28075278 1.2611797 11320003
-0.23360479 0.28056437 1.2600541 11318979
-0.22516197 0.28079259 1.2609828 10990267
-0.21466288 0.28184134 1.2619081 10464949
-0.20519741 0.28225967 1.26372 10464950
-0.19511856 0.28285515 1.2648188 10596023
-0.18478575 0.28292435 1.2642487 10596536
-0.17439489 0.28404853 1.2630492 10596279
-0.16415992 0.28525126 1.263661 10004657
-0.15450031 0.28699237 1.2658806 10202038
-0.14473107 0.28724486 1.2668812 10530747
-0.13480356 0.28697205 1.2654536 11188419
-0.12658116 0.28784031 1.2660863 10794174
-0.16024248 0.29071125 1.2605824 10399416
-0.15370582 0.29212028 1.2621214 11122627
-0.14407368 0.29326957 1.2618483 11385543
-0.1381889 0.29075104 1.2603854 11385543
-0.082774393 0.29403496 1.2669501 10661562
-0.075775281 0.29449564 1.265229 10661818
-0.066269115 0.29431641 1.2652617 10333109
-0.058958992 0.29296213 1.2653832 10069938
-0.18336824 0.27717137 1.2722108 6458532
-0.1748438 0.27749044 1.2735987 6721959
-0.16514058 0.2780292 1.2760222 7378862
-0.15625128 0.27902374 1.2786696 8627644
-0.13305458 0.2786338 1.2783711 8431039
-0.12934066 0.27869281 1.2785889 8496828
-0.17459807 0.28059745 1.2707779 11385537
-0.1641653 0.28160629 1.2730533 11122880
-0.15505141 0.28247544 1.2735126 10728123
-0.14532107 0.28304932 1.2760615 10596793
-0.13552387 0.28258854 1.2756594 10596538
-0.1252262 0.28409079 1.2748168 10464695
-0.11728015 0.28570968 1.2753086 10333109
-0.1048606 0.2879042 1.2768712 10398644
-0.097549431 0.28846356 1.2785829 10267059
-0.082147032 0.28758362 1.2788287 10070708
-0.075906262 0.28835183 1.2765363 9938866
-0.065981627 0.28858534 1.2774519 9938351
-0.09327814 0.29074597 1.2764859 10398390
-0.085266508 0.29196393 1.2746505 10793405
-0.075855434 0.29109126 1.2720852 10464696
-0.065963142 0.29121843 1.272499 10201524
-0.057297096 0.29066515 1.2754951 10333367
-0.15305305 0.27771902 1.2802839 6130859
-0.14549419 0.27773172 1.2826169 6066094
-0.13657269 0.27646819 1.281947 5606316
-0.12782544 0.2763806 1.2813668 5802927
-0.094836049 0.27975962 1.2891346 9087935
-0.14565715 0.28042954 1.2812675 10928340
-0.13943414 0.28044075 1.281212 11256536
-0.12285344 0.28136972 1.2814138 11123139
-0.11538803 0.28297907 1.2834433 10859450
-0.10593492 0.28363913 1.2840542 10662073
-0.09567377 0.28412148 1.2843492 10596023
-0.08654727 0.28532591 1.2858284 10398900
-0.076012425 0.28532094 1.2856086 10070192
-0.066767074 0.28602988 1.2852637 10004142
-0.056030013 0.28745484 1.2835932 9872815
-0.046026446 0.28792858 1.2856376 9741486
-0.037290245 0.28781044 1.284932 9477285
-0.092144854 0.29048511 1.280972 10201524
-0.087172978 0.29056633 1.2812624 10201524
-0.052308545 0.29055697 1.280616 10136501
-0.046061262 0.29105592 1.2828196 10004404
-0.039830629 0.29101297 1.282513 10201265
-0.085360385 0.28074846 1.2913349 9875393
-0.076851495 0.28260371 1.2928929 10531002
-0.065513752 0.28430998 1.2933369 10004400
-0.055998165 0.28464544 1.2939186 9872303
-0.046356242 0.28425729 1.2938944 9872046
-0.037646528 0.28485087 1.2933829 9477801
