# .PCD v0.7 - Point Cloud Data file format
VERSION 0.7
FIELDS x y z rgba
SIZE 4 4 4 4
TYPE F F F U
COUNT 1 1 1 1
WIDTH 119
HEIGHT 1
VIEWPOINT 0 0 0 1 0 0 0
POINTS 119
DATA ascii
-0.1823829 0.30718717 1.1472592 11975615
-0.17613789 0.30481118 1.1474597 11712956
-0.28214222 0.19796608 1.1579542 13750475
-0.27474001 0.19853739 1.1543976 14539991
-0.26626796 0.19844966 1.1546772 14276819
-0.28142878 0.20402077 1.1582255 15921901
-0.27494225 0.20547359 1.1555893 15790572
-0.26520622 0.20522867 1.1572852 14935263
-0.25875446 0.20059595 1.1597931 14014161
-0.28200889 0.2147553 1.1573856 15330021
-0.27432859 0.21493995 1.1532469 15264228
-0.26499534 0.214755 1.1555364 13619403
-0.28095853 0.22159885 1.1578767 15922415
-0.2748149 0.2251581 1.1563199 15725036
-0.26553732 0.22459348 1.1567432 14803677
-0.27420765 0.23516022 1.1580648 14867677
-0.26534948 0.23528859 1.1576455 12040884
-0.28108394 0.24202164 1.1587522 14603478
-0.27475214 0.24374077 1.157584 15328740
-0.26590243 0.24349308 1.1573927 14737627
-0.26659915 0.25920448 1.1599376 3352613
-0.27209729 0.27253652 1.1592311 3355694
-0.29246682 0.29509139 1.1598272 11974587
-0.28794849 0.29509956 1.1597867 11908794
-0.27427506 0.29496223 1.1589949 11514035
-0.26648644 0.29513824 1.159595 11448243
-0.19273676 0.30738065 1.1560147 12041408
-0.18555175 0.30460897 1.1546044 11778236
-0.17528568 0.30304193 1.1560049 11449784
-0.1680465 0.30385146 1.1568716 10858417
-0.19489656 0.31005701 1.1552258 12107201
-0.27483845 0.19626583 1.1612582 12763064
-0.26426658 0.19702677 1.1629778 13026752
-0.25765938 0.19813909 1.1641392 13553609
-0.28506699 0.20532632 1.1616161 15987951
-0.26127753 0.20650256 1.1614243 14474969
-0.25631386 0.20511857 1.1643217 13751245
-0.28664565 0.21479039 1.1641042 13422281
-0.25716352 0.21487656 1.1640414 13158852
-0.28406057 0.22524635 1.1624722 15988208
-0.27916712 0.22884551 1.160494 15856622
-0.2619265 0.22711538 1.1609745 14277846
-0.25789657 0.22447865 1.1658243 12238262
-0.28333545 0.2345535 1.1630911 15393250
-0.27926937 0.23572978 1.1611211 14340050
-0.26123476 0.23133034 1.1613789 14145747
-0.25844201 0.23478109 1.1643066 11711150
-0.2829116 0.24503033 1.1625746 15262178
-0.27928793 0.2470504 1.1613288 15986669
-0.26239267 0.24718222 1.1616799 14342099
-0.25837049 0.24507658 1.1654949 13355460
-0.28047848 0.25177932 1.1679276 16709366
-0.27404889 0.25543177 1.1647257 10838643
-0.26471969 0.25547045 1.1653271 9391966
-0.28058642 0.26212874 1.1686184 4208178
-0.27423158 0.26529053 1.1637065 4933699
-0.2644867 0.26585311 1.164597 4079931
-0.25984547 0.26184475 1.1669269 2302750
-0.27417305 0.27483681 1.1641594 5526863
-0.26423135 0.27510557 1.1647348 3816502
-0.29324907 0.28840834 1.1697137 9738647
-0.28449717 0.28700498 1.1673014 7040360
-0.27481031 0.28682974 1.167519 7040361
-0.26530975 0.28533557 1.168354 5527635
-0.30043602 0.29426461 1.1658847 11514804
-0.29470727 0.29250813 1.1655511 11185326
-0.28556439 0.29315478 1.164654 11119275
-0.27536941 0.29280502 1.1628144 11316911
-0.26417503 0.29225779 1.1649073 10987946
-0.2561473 0.29509303 1.1660483 11382450
-0.24868856 0.29735735 1.168478 12040123
-0.23973677 0.29989442 1.1694444 11712185
-0.19298489 0.29985631 1.1685244 11581114
-0.18832451 0.29961985 1.1674781 11646908
-0.20175464 0.30819127 1.1657552 12107201
-0.19509278 0.30446753 1.1646655 11778236
-0.18542528 0.30041969 1.1614654 11580857
-0.17524794 0.30046272 1.1614751 11055283
-0.16849534 0.30283839 1.1618581 10660525
-0.25366729 0.21716718 1.1705534 12961473
-0.25480795 0.22565179 1.1716479 11711662
-0.2553255 0.23555136 1.1715721 12698558
-0.2560719 0.24236947 1.171537 12829887
-0.28160423 0.25752661 1.1710436 10634848
-0.26074231 0.25502324 1.1723111 11296368
-0.28259933 0.26573846 1.1713698 5591885
-0.25851557 0.2653639 1.1727306 2960936
-0.28416246 0.27563575 1.174042 5066312
-0.26035675 0.27160478 1.1701109 2501155
-0.25737211 0.27665797 1.1751779 2040348
-0.29376453 0.28525719 1.1747617 4803655
-0.28523329 0.28239122 1.1730323 3881525
-0.27591488 0.28370595 1.1706724 2829350
-0.26037544 0.28300369 1.17032 1974554
-0.25484934 0.28580141 1.1749729 6777959
-0.2445351 0.28908589 1.1766658 9804441
-0.2993423 0.29115003 1.1718191 10527907
-0.25419497 0.29295561 1.1726975 11448241
-0.24506512 0.29514691 1.1753063 11317170
-0.23581257 0.29488903 1.1774956 10922926
-0.2240968 0.29502884 1.178063 11317685
-0.21811706 0.29640126 1.1781883 10528939
-0.19735663 0.29963696 1.1770613 11647166
-0.23457775 0.30082202 1.173166 11909564
-0.22491305 0.30222091 1.1759554 11580600
-0.2154416 0.30437717 1.175233 11449271
-0.20456345 0.3048164 1.1747538 11712700
-0.19870953 0.30112785 1.1738501 11515578
-0.25199422 0.28233516 1.1822351 5002065
-0.24583724 0.28614318 1.182083 9212560
-0.23819181 0.28926688 1.1822385 10002078
-0.23204207 0.29397413 1.1826696 10857133
-0.22519699 0.29397154 1.1825416 10922926
-0.21487732 0.29575551 1.1846874 9936803
-0.20523684 0.29822451 1.1856079 10265768
-0.23116365 0.30054799 1.1813821 12041152
-0.22663245 0.30067766 1.1818439 11712444
-0.21412234 0.30213487 1.1829253 11252406
-0.20761795 0.30180261 1.1823943 11450041
