# .PCD v0.7 - Point Cloud Data file format
VERSION 0.7
FIELDS x y z rgba
SIZE 4 4 4 4
TYPE F F F U
COUNT 1 1 1 1
WIDTH 838
HEIGHT 1
VIEWPOINT 0 0 0 1 0 0 0
POINTS 838
DATA ascii
0.0061762114 0.47599763 1.0594442 4280097302
0.012061595 0.47386521 1.0543513 4279241483
0.013855296 0.47215399 1.0503031 4279241226
0.015771115 0.47130024 1.0482697 4279372300
0.018031599 0.47259015 1.0512738 4279372300
0.020592563 0.47559503 1.0583074 4279307020
0.022883043 0.47688499 1.0613111 4279241484
0.0042749266 0.47935545 1.0625235 4280032278
0.0061728172 0.47806743 1.0594822 4279571984
0.0081205145 0.47720999 1.0574486 4278913798
0.010123642 0.4767831 1.0564226 4279044871
0.011993411 0.47549504 1.0533816 4278848262
0.013851929 0.47420692 1.0503407 4278848519
0.015904864 0.47421062 1.0503224 4278979335
0.01809866 0.47507554 1.0523189 4279110407
0.020299952 0.4759405 1.0543154 4279110920
0.022434566 0.47637483 1.0553045 4279110407
0.024648983 0.47723979 1.0573009 4279110151
0.026715042 0.47724351 1.0572824 4279175944
0.0041569173 0.48056594 1.0605463 4280098070
0.0060510673 0.47927231 1.057505 4279242761
0.0080560734 0.47884354 1.056479 4278848518
0.01005733 0.4784148 1.0554529 4278782981
0.011925233 0.47712111 1.0524118 4278717445
0.013848563 0.47625986 1.0503783 4278782981
0.015832946 0.47583106 1.0493525 4278782981
0.017954433 0.47626725 1.0503417 4278782980
0.020151971 0.47713593 1.0523384 4278848518
0.022357007 0.47800463 1.0543349 4278848261
0.024569545 0.47887334 1.0563314 4278848517
0.026633728 0.47887707 1.0563129 4278848517
-0.020497868 0.48519856 1.0668535 4280098067
-0.018488288 0.48433372 1.0648192 4279966481
-0.016409107 0.48433745 1.0648006 4280032275
-0.014329923 0.4843412 1.0647821 4280163861
-0.012166139 0.48521358 1.0667791 4280163862
-0.010039031 0.48565164 1.0677682 4280163862
-0.0017514778 0.48523235 1.066686 4280032276
1.0153476e-05 0.48263013 1.0606213 4279966740
0.0019709868 0.48176521 1.0585874 4280032533
0.0039243205 0.48090029 1.0565537 4279835156
0.0059293299 0.48046967 1.0555276 4278979847
0.007991639 0.48047337 1.0555092 4278717188
0.0099910237 0.48004276 1.0544832 4278848774
0.011986659 0.47961211 1.0534571 4278782981
0.01391187 0.47874713 1.0514235 4278782981
0.015829582 0.47788212 1.0493901 4278782982
0.017951066 0.47832018 1.0503794 4278782981
0.020076299 0.47875825 1.0513685 4278782981
0.022205282 0.47919631 1.0523577 4278782725
0.024414062 0.48006877 1.0543543 4278782981
0.02655242 0.48050687 1.0553434 4278782981
0.028774325 0.48137933 1.0573398 4278782726
-0.020640478 0.48553678 1.0628601 4280032272
-0.01871174 0.48379585 1.0588101 4279966479
-0.016643805 0.48379958 1.0587916 4280032276
-0.014575873 0.4838033 1.0587732 4280032276
-0.012465641 0.48424321 1.0597626 4280032276
-0.01035166 0.48468313 1.0607519 4280098069
-0.0082339291 0.48512307 1.0617411 4280163862
-0.0061124484 0.48556301 1.0627304 4280098069
-0.004086813 0.48513055 1.061704 4280032276
-0.0021165994 0.48426187 1.0596701 4280098069
-0.00015388509 0.48339322 1.0576361 4280098069
0.0018567517 0.48296073 1.05661 4280098070
0.003863639 0.48252824 1.0555838 4279703570
0.0059259478 0.48253196 1.0555655 4278716675
0.0080493037 0.48297191 1.0565547 4278782725
0.010050566 0.48253942 1.0555285 4278782981
0.012048079 0.48210689 1.0545025 4278782725
0.013975171 0.48123816 1.0524689 4278716933
0.01596331 0.48080564 1.051443 4278651141
0.0179477 0.48037311 1.0504171 4278782726
0.02007293 0.48081306 1.0514063 4278782726
0.022201911 0.481253 1.0523955 4278716933
0.024410684 0.48212919 1.0543921 4278716933
0.026471119 0.48213291 1.0543736 4278716933
0.028611347 0.48257288 1.0553627 4278782726
0.030836996 0.4834491 1.0573592 4278848520
0.033153687 0.48476163 1.0603632 4278585349
0.03531079 0.4852016 1.0613521 4278584836
0.037471641 0.48564163 1.062341 4278584836
0.039636243 0.48608163 1.0633298 4278650629
0.041713551 0.48608539 1.0633113 4278584836
0.043883778 0.48652539 1.0643002 4278584836
0.04596296 0.48652914 1.0642816 4278716422
0.047848806 0.48566034 1.0622483 4278716422
-0.022521788 0.49023673 1.0689645 4279900688
-0.020678677 0.48717418 1.0618904 4279900688
-0.018751802 0.48542571 1.0578402 4280032273
-0.016685743 0.48542944 1.0578218 4280032274
-0.014619684 0.48543316 1.0578033 4280032274
-0.012595921 0.48499885 1.0567769 4280163603
-0.010531737 0.48500255 1.0567585 4280098069
-0.0084675532 0.48500627 1.05674 4280032276
-0.0064033689 0.48501 1.0567216 4280163862
-0.0042893905 0.48545182 1.057711 4280098069
-0.0022233319 0.48545554 1.0576925 4280098069
-0.00021081722 0.48502117 1.0566663 4280098069
0.0019087855 0.48546299 1.0576556 4280098069
0.0039748442 0.48546672 1.0576371 4279243019
0.0060409028 0.48547044 1.0576186 4278848261
0.0081680054 0.48591226 1.0586079 4278782468
0.01017302 0.48547789 1.0575818 4278782981
0.012174286 0.48504353 1.0565556 4278782726
0.014171802 0.48460913 1.0555296 4278717189
0.016097026 0.48373663 1.0534959 4278585861
0.018155586 0.48374036 1.0534775 4278651911
0.020214144 0.48374408 1.053459 4278651910
0.022346871 0.4841859 1.0544482 4278651140
0.024407305 0.48418963 1.0544299 4278651140
0.026467741 0.48419333 1.0544114 4278716933
0.028528174 0.48419705 1.0543931 4278782726
0.030588608 0.48420078 1.0543747 4278782726
0.032649044 0.4842045 1.0543562 4278453763
0.034709476 0.4842082 1.0543379 4278519299
0.036857203 0.48465005 1.0553269 4278519299
0.038830344 0.48421565 1.054301 4278585093
0.040890779 0.48421934 1.0542827 4278584837
0.042858299 0.48378491 1.0532568 4278584837
0.045011647 0.48422679 1.0542458 4278584836
0.047072083 0.48423052 1.0542274 4278584836
0.049033977 0.48379606 1.0532017 4278650629
0.05099212 0.4833616 1.0521759 4278650629
0.052946515 0.48292714 1.0511502 4278584836
0.055001326 0.48293087 1.0511318 4278584836
0.057162177 0.48337275 1.0521208 4278716422
0.059218861 0.48337644 1.0521024 4278716422
0.061495122 0.48425651 1.0540985 4278650629
0.063890547 0.48557478 1.0571018 4278716422
0.066183686 0.48645487 1.0590979 4278650629
0.068368904 0.48689681 1.0600865 4278650372
0.07044059 0.48690054 1.060068 4278650629
0.072393104 0.48646608 1.0590423 4278716422
-0.022558128 0.49188349 1.0679947 4280031759
-0.020647286 0.48968765 1.0629363 4280031759
-0.018718522 0.4879317 1.0588861 4279966737
-0.016650589 0.48793542 1.0588676 4280032274
-0.014582655 0.48793915 1.0588491 4280098067
-0.012557014 0.48750293 1.0578227 4280098067
-0.010535122 0.48706675 1.0567963 4279966482
-0.0084709376 0.48707047 1.056778 4280097555
-0.0064067538 0.4870742 1.0567595 4280163604
-0.0042927787 0.48751786 1.0577489 4280032275
-0.0022267201 0.48752159 1.0577304 4280032275
-0.00016066134 0.48752531 1.057712 4280032276
0.0019053974 0.48752904 1.0576935 4279966483
0.0040287469 0.48797271 1.0586828 4279045639
0.0061558457 0.4884164 1.0596721 4278782467
0.0082256543 0.48842016 1.0596535 4278717188
0.010232547 0.48798391 1.0586274 4278717189
0.012300481 0.48798764 1.0586089 4278586116
0.01430175 0.48755139 1.0575827 4278520324
0.016299268 0.48711514 1.0565566 4278586117
0.018293038 0.48667887 1.0555305 4278651910
0.020355348 0.48668259 1.0555121 4278717446
0.02249182 0.48712632 1.0565013 4278717445
0.024632044 0.48757002 1.0574905 4278585603
0.026698101 0.48757374 1.057472 4278651396
0.028684372 0.48713747 1.056446 4278979846
0.030666893 0.48670119 1.05542 4278782468
0.032729201 0.48670492 1.0554016 4278519297
0.034791511 0.48670864 1.0553831 4278519554
0.03685382 0.48671237 1.0553647 4278519298
0.03891613 0.48671609 1.0553463 4278585091
0.040887401 0.48627979 1.0543205 4278585091
0.042947836 0.48628348 1.054302 4278650628
0.045008268 0.48628721 1.0542836 4278584835
0.047068704 0.48629093 1.0542651 4278650371
0.049030602 0.4858546 1.0532393 4278584835
0.05108916 0.48585832 1.053221 4278519299
0.052943148 0.48498195 1.0511879 4278650628
0.054893795 0.48454562 1.0501622 4278585348
0.056946728 0.48454931 1.0501438 4278650885
0.058999665 0.48455301 1.0501255 4278650628
0.06127217 0.48543683 1.0521218 4278650628
0.063552178 0.48632067 1.0541179 4278650885
0.065612614 0.48632437 1.0540996 4278584836
0.067788459 0.48676816 1.0550884 4278650629
0.069850765 0.48677188 1.0550699 4278650629
0.071793914 0.48633552 1.0540442 4278584836
-0.020685479 0.49132127 1.0619664 4280031503
-0.018721914 0.48999962 1.058924 4280097553
-0.016653979 0.49000335 1.0589055 4280031761
-0.014586046 0.49000707 1.058887 4280163347
-0.012560402 0.48956901 1.0578606 4280163346
-0.010538506 0.48913091 1.0568342 4280163090
-0.008428284 0.48957646 1.0578237 4280097297
-0.0063622254 0.48958018 1.0578052 4280228883
-0.0042961668 0.48958391 1.0577868 4280228883
-0.0022301082 0.48958763 1.0577683 4280163347
-0.00016404946 0.48959136 1.0577499 4280032275
0.0019574219 0.4900369 1.0587392 4279769361
0.004082643 0.49048248 1.0597285 4278914051
0.0061524515 0.4904862 1.05971 4278848258
0.0082222596 0.49048996 1.0596915 4278716930
0.010292068 0.49049369 1.0596731 4278716931
0.012297089 0.49005556 1.0586468 4278651394
0.014365023 0.49005929 1.0586283 4278519809
0.016432956 0.49006301 1.0586098 4278585601
0.018430479 0.48962489 1.0575837 4279636746
0.020424252 0.48918676 1.0565577 4279373575
0.022488436 0.48919049 1.0565392 4279373575
0.024552619 0.48919421 1.0565207 4279307781
0.026616802 0.48919794 1.0565023 4279307781
0.028680988 0.48920166 1.0564839 4279110659
0.030663511 0.48876351 1.0554578 4278715904
0.032725818 0.48876721 1.0554394 4278650112
0.034788128 0.48877093 1.055421 4278584320
0.036850438 0.48877466 1.0554025 4278518528
0.038912747 0.48877838 1.0553842 4278387200
0.040884022 0.4883402 1.0543582 4278452736
0.042944457 0.48834392 1.0543398 4278518785
0.045004889 0.48834765 1.0543214 4278584577
0.046968665 0.48790944 1.0532955 4278518785
0.048928693 0.48747125 1.0522697 4278519297
0.050884966 0.48703304 1.0512439 4278585089
0.052837495 0.48659483 1.0502182 4278650883
0.054786272 0.48615661 1.0491924 4278650884
0.056731299 0.4857184 1.0481668 4278585347
0.058780484 0.48572209 1.0481485 4278519297
0.06093945 0.48616773 1.0491375 4278585347
0.062990509 0.48617142 1.0491192 4278650884
0.065155104 0.48661706 1.0501082 4278650884
0.067208037 0.48662075 1.0500898 4278650885
0.06926097 0.48662445 1.0500715 4278585092
0.071194753 0.48618621 1.0490459 4278585092
0.073487878 0.48707381 1.051042 4278519299
0.075665593 0.48751947 1.0520308 4278519299
0.077971838 0.48840711 1.0540268 4278519300
-0.020688878 0.49339482 1.0620044 4280163090
-0.018725304 0.49206755 1.0589619 4280163090
-0.016657371 0.49207127 1.0589434 4280097297
-0.014589437 0.492075 1.0589249 4280097040
-0.01256379 0.49163505 1.0578985 4279965711
-0.010453571 0.49208245 1.058888 4280031247
-0.0083396016 0.49252987 1.0598774 4280162833
-0.0063177035 0.49208993 1.058851 4280162832
-0.0042497697 0.49209365 1.0588325 4280294418
-0.0021818364 0.49209738 1.058814 4280294418
-0.00011390281 0.4921011 1.0587956 4280229138
0.0019540307 0.49210483 1.0587771 4280294675
0.0040792488 0.49255228 1.0597665 4279768588
0.0062082163 0.49299973 1.0607558 4279834381
0.0082798991 0.49300346 1.0607373 4279768844
0.010288673 0.49256349 1.059711 4279703052
0.012358482 0.49256721 1.0596925 4279637258
0.014428291 0.49257094 1.059674 4279637259
0.016429566 0.49213094 1.0586479 4281675811
0.018497499 0.49213469 1.0586294 4281675811
0.02049315 0.49169466 1.0576031 4281873188
0.022410892 0.49081093 1.0555694 4282004518
0.024473201 0.49081463 1.0555509 4281872931
0.026535511 0.49081835 1.0555325 4282070311
0.028597821 0.49082208 1.0555141 4281741090
0.030660128 0.4908258 1.0554956 4281675554
0.03272244 0.49082953 1.0554773 4281873190
0.034870155 0.49127701 1.0564663 4281807398
0.036934339 0.49128073 1.056448 4281873192
0.038998522 0.49128443 1.0564295 4281807400
0.040971674 0.4908444 1.0554036 4281412643
0.043033984 0.49084812 1.0553851 4280557334
0.045001511 0.49040806 1.0543592 4279965454
0.047061946 0.49041179 1.0543408 4279637002
0.049023848 0.4899717 1.0533149 4279307781
0.050982002 0.48953164 1.0522891 4279110659
0.052936409 0.48909155 1.0512633 4278847744
0.054887064 0.48865145 1.0502375 4278715904
0.056727938 0.48776758 1.0482044 4278453248
0.058777124 0.48777127 1.0481861 4278453248
0.060826309 0.48777497 1.0481678 4278453248
0.062987149 0.48822248 1.0491568 4278519040
0.065151736 0.48866999 1.0501459 4278519041
0.067204669 0.48867369 1.0501275 4278519297
0.06914033 0.48823357 1.0491018 4278585089
0.071072236 0.48779345 1.0480763 4278585090
0.073121421 0.48779714 1.0480579 4278453504
0.075293511 0.48824465 1.0490469 4278585090
0.077718906 0.48957986 1.0520502 4278519043
-0.020622712 0.49635944 1.0640587 4279570953
-0.018692037 0.49458101 1.0600079 4279636746
-0.016660763 0.49413919 1.0589813 4279636746
-0.014592829 0.49414292 1.0589628 4279636489
-0.012524895 0.49414665 1.0589443 4279702282
-0.010368646 0.49504149 1.0609419 4279833868
-0.0082509313 0.49549079 1.0619314 4279965452
-0.0061773728 0.49549454 1.0619128 4280228624
-0.0042033792 0.49460715 1.0598785 4280294417
-0.0021852276 0.4941653 1.0588521 4280426002
-0.0001708257 0.49372345 1.0578257 4280557588
0.0019506395 0.49417275 1.0588151 4280689174
0.0040758546 0.49462208 1.0598044 4280886553
0.0062048188 0.49507138 1.0607939 4281149725
0.0082765026 0.49507514 1.0607753 4281215775
0.010348185 0.49507886 1.0607568 4281412124
0.012419868 0.49508262 1.0607383 4281412123
0.014424896 0.49464074 1.0597121 4281609502
0.016494704 0.49464446 1.0596935 4281806625
0.018494109 0.49420261 1.0586673 4282003745
0.020489762 0.4937607 1.057641 4282200867
0.022407511 0.49287322 1.0556072 4282266660
0.024393789 0.49243131 1.054581 4282464038
0.026454225 0.49243504 1.0545627 4282727210
0.02843488 0.49199313 1.0535367 4282595625
0.030575093 0.49244246 1.0545259 4282529833
0.032719057 0.49289182 1.0555151 4282726956
0.034866769 0.49334118 1.0565042 4282727213
0.036930952 0.4933449 1.0564858 4282858542
0.039084289 0.49379426 1.057475 4282990385
0.041059319 0.49335235 1.0564489 4282924593
0.043123506 0.49335605 1.0564305 4282858800
0.045187689 0.49335977 1.0564121 4283056179
0.04715522 0.49291787 1.0553861 4283056436
0.049118999 0.49247593 1.0543602 4282727984
0.051179435 0.49247962 1.0543418 4282465068
0.053137593 0.49203768 1.0533159 4282201897
0.054987848 0.49115005 1.0512826 4282004776
0.056936629 0.49070808 1.0502568 4281807655
0.058881663 0.49026611 1.0492311 4281347360
0.060932722 0.49026981 1.0492128 4280426260
0.063095436 0.4907192 1.0502018 4279965966
0.065261893 0.49116859 1.0511909 4279439367
0.067316703 0.49117228 1.0511725 4279176195
0.069136962 0.49028462 1.0491395 4278584320
0.071068875 0.48984262 1.0481138 4278518784
0.072997034 0.48940063 1.0470883 4278452992
0.075044341 0.48940432 1.0470699 4278387457
0.077341206 0.4902994 1.0490662 4278518785
0.079518914 0.49074882 1.0500551 4278650371
-0.0206609 0.49798933 1.0630887 4279504903
-0.018732088 0.49620339 1.0590378 4279504649
-0.016702684 0.4957597 1.0580112 4279570696
-0.014636625 0.49576342 1.0579928 4279504902
-0.012528286 0.49621457 1.0589824 4279701512
-0.010416199 0.49666575 1.0599719 4279833354
-0.0082543315 0.49756435 1.0619694 4280030731
-0.0061807735 0.4975681 1.0619508 4280228109
-0.0042067734 0.49667695 1.0599164 4280424975
-0.0022402725 0.49578577 1.0578821 4280557072
-0.00017421383 0.4957895 1.0578636 4280622865
0.0018918449 0.49579322 1.0578451 4280820244
0.0040151817 0.4962444 1.0588346 4281017110
0.0061422684 0.49669561 1.059824 4281148696
0.0082120765 0.49669933 1.0598055 4281214744
0.010281885 0.49670306 1.0597869 4281411352
0.012286916 0.49625933 1.0587606 4281608218
0.014354849 0.49626306 1.0587422 4281739804
0.016354255 0.4958193 1.0577159 4281871389
0.018349912 0.49537554 1.0566896 4282002974
0.020341819 0.49493179 1.0556635 4282134046
0.022255825 0.49404052 1.0536295 4282396961
0.024162332 0.49314925 1.0515957 4282528803
0.026217142 0.49315298 1.0515773 4282660389
0.028351728 0.49360418 1.0525666 4282791719
0.030490063 0.49405539 1.053556 4282725926
0.03263215 0.4945066 1.0545453 4282725926
0.034777984 0.49495783 1.0555345 4282726183
0.036927566 0.49540907 1.0565237 4282791977
0.038991753 0.4954128 1.0565052 4282857512
0.041055936 0.49541652 1.0564868 4282989099
0.04312012 0.49542025 1.0564684 4283120941
0.045089528 0.49497643 1.0554423 4283120684
0.047055189 0.49453261 1.0544164 4283186476
0.049115621 0.49453634 1.0543979 4283055148
0.051075656 0.49409252 1.053372 4283056175
0.053134218 0.49409622 1.0533537 4283121712
0.054984476 0.49320486 1.0513203 4282990640
0.056933265 0.49276102 1.0502945 4282991154
0.058878299 0.49231717 1.0492687 4283122997
0.060929362 0.49232087 1.0492504 4283122998
0.063092068 0.49277213 1.0502394 4283254584
0.065145001 0.49277583 1.0502211 4283188792
0.067197941 0.49277952 1.0502028 4283188791
0.069133602 0.49233568 1.0491771 4282859827
0.070946366 0.49144423 1.0471441 4282531120
0.072872654 0.49100035 1.0461185 4282268207
0.074918091 0.49100402 1.0461001 4280952862
0.077088296 0.49145532 1.0470892 4278781698
0.079515547 0.49280176 1.0500927 4278453505
-0.020629525 0.50051403 1.0641348 4279373063
-0.018698826 0.49872062 1.0600839 4279307270
-0.016629018 0.49872434 1.0600653 4279373063
-0.014599611 0.49827877 1.0590388 4279438856
-0.012489401 0.49873179 1.0600283 4279635719
-0.010375441 0.49918485 1.0610179 4279635719
-0.0082117058 0.5000872 1.0630155 4279898889
-0.0061362726 0.50009096 1.0629969 4280162059
-0.0041603916 0.49919605 1.0609623 4280359180
-0.0021920099 0.49830115 1.0589279 4280556046
-0.00017760196 0.49785554 1.0579015 4280753681
0.0018884568 0.49785927 1.057883 4280885011
0.0040117907 0.49831232 1.0588725 4281017107
0.0061980244 0.49921474 1.0608698 4281279766
0.0082697077 0.49921846 1.0608513 4281410839
0.010341391 0.49922222 1.0608329 4281542168
0.012348299 0.49877661 1.0598065 4281739545
0.014284809 0.49788162 1.0577723 4282002461
0.016282344 0.49743602 1.056746 4282133789
0.018346528 0.49743974 1.0567275 4281936410
0.020338438 0.49699408 1.0557013 4282265375
0.022326598 0.49654844 1.0546751 4282462752
0.024311008 0.49610281 1.0536489 4282594337
0.026369568 0.49610651 1.0536305 4282725923
0.028428128 0.49611023 1.0536121 4282725923
0.030568335 0.49656332 1.0546014 4282791203
0.032712292 0.4970164 1.0555907 4282725666
0.034774601 0.49702013 1.0555723 4282791203
0.036924183 0.49747324 1.0565616 4282725411
0.039077513 0.49792635 1.0575508 4282988324
0.041143574 0.49793008 1.0575323 4282988324
0.043116733 0.49748442 1.0565063 4283054373
0.045086145 0.49703872 1.0554802 4283119908
0.04705181 0.49659306 1.0544542 4283054371
0.049112242 0.49659675 1.0544357 4282988839
0.051273074 0.4970499 1.0554249 4283054632
0.053233113 0.4966042 1.054399 4283120426
0.055189401 0.49615848 1.0533731 4282791974
0.057035919 0.49526337 1.0513396 4282726695
0.059090726 0.49526706 1.0513213 4282989868
0.061035767 0.49482134 1.0502955 4283121453
0.0630887 0.49482504 1.0502771 4283121709
0.065141641 0.49482876 1.0502588 4282990380
0.067194574 0.49483246 1.0502404 4283121968
0.069130234 0.4943867 1.0492147 4283187761
0.070823863 0.49304208 1.0461743 4283254069
0.072748281 0.49259633 1.0451486 4283385657
0.074668944 0.49215055 1.0441231 4283715139
0.076960169 0.49305314 1.0461195 4282531637
0.079512179 0.49485469 1.0501304 4278978817
0.082464747 0.49800462 1.0571631 4278584833
-0.020632932 0.50259131 1.064173 4279438858
-0.01870222 0.50079042 1.0601218 4279438858
-0.016632412 0.50079411 1.0601033 4279373063
-0.014562604 0.50079787 1.0600848 4279373063
-0.012450522 0.50125277 1.0610744 4279504903
-0.01033469 0.50170773 1.0620639 4279636489
-0.0082611321 0.50171143 1.0620455 4279898889
-0.006187574 0.50171518 1.062027 4279964937
-0.0041637891 0.50126773 1.0610003 4280227596
-0.0021437535 0.50082028 1.0599738 4280424973
-0.0001274676 0.50037283 1.0589473 4280753425
0.001940466 0.50037652 1.0589288 4280819218
0.0040656715 0.50083148 1.0599184 4281082387
0.0062537738 0.50173765 1.0619158 4281345046
0.0083883535 0.50219256 1.0629052 4281345046
0.01040089 0.5017451 1.0618787 4281541912
0.012344905 0.50084639 1.0598444 4281607705
0.014281421 0.4999477 1.0578102 4281739547
0.016278958 0.49950019 1.0567838 4281739545
0.018343143 0.49950391 1.0567654 4281871130
0.020407327 0.49950764 1.056747 4282200095
0.022545656 0.4999626 1.0577363 4282265888
0.024535693 0.49951509 1.0567101 4282265888
0.026599878 0.49951881 1.0566916 4282463009
0.028664062 0.49952251 1.0566732 4282594337
0.030646602 0.499075 1.055647 4282594081
0.03279243 0.49952996 1.0566363 4282725410
0.034856614 0.49953368 1.0566179 4282659617
0.037008066 0.49998868 1.0576072 4282725154
0.039074127 0.4999924 1.0575887 4282922274
0.041049164 0.49954486 1.0565625 4282988067
0.043113351 0.49954858 1.0565441 4282988322
0.044987995 0.49864975 1.0545104 4282922529
0.047048431 0.49865347 1.054492 4282988321
0.049108863 0.4986572 1.0544735 4283054116
0.051269691 0.49911219 1.0554627 4283185702
0.053332001 0.49911591 1.0554444 4283054119
0.055290166 0.49866834 1.0544183 4282922789
0.057244584 0.49822074 1.0533924 4282923046
0.05919525 0.49777317 1.0523665 4283120425
0.061142169 0.49732557 1.0513406 4283054889
0.063085333 0.49687797 1.0503148 4282989351
0.065138273 0.49688166 1.0502964 4282989096
0.067075811 0.49643406 1.0492706 4282923559
0.069126874 0.49643776 1.0492524 4282989353
0.070939653 0.49553883 1.0472192 4283317806
0.072744928 0.49463987 1.0451862 4282989870
0.074665599 0.49419221 1.0441605 4283187509
0.076832049 0.49464723 1.0451496 4283451710
0.079382174 0.49645627 1.0491607 4280491284
0.082204327 0.49916798 1.0551864 4278583808
-0.020671109 0.5042156 1.0632029 4279373063
-0.018742261 0.50240713 1.0591515 4279373063
-0.016635807 0.50286394 1.0601413 4279373063
-0.014565998 0.50286764 1.0601227 4279373063
-0.012411648 0.5037775 1.0621206 4279570696
-0.01033809 0.50378126 1.0621021 4279702280
-0.0082645323 0.50378501 1.0620835 4279964682
-0.0062388694 0.50333565 1.0610569 4280162316
-0.004216956 0.50288635 1.0600303 4280293387
-0.0021471477 0.50289005 1.0600119 4280556046
-7.7339399e-05 0.50289381 1.0599934 4280819218
0.001992469 0.50289756 1.0599748 4280885008
0.0041195466 0.50335437 1.0609643 4281081873
0.0062503736 0.50381118 1.0619538 4281147668
0.0083849505 0.50426799 1.0629432 4281278742
0.010460383 0.50427175 1.0629247 4281476119
0.012341511 0.50291622 1.0598824 4281607959
0.014278033 0.50201374 1.0578481 4281673752
0.016275574 0.50156438 1.0568217 4281805338
0.018339757 0.50156808 1.0568032 4281870874
0.020476209 0.50202489 1.0577927 4282133533
0.022616411 0.50248176 1.0587821 4282330911
0.024684343 0.50248545 1.0587636 4282462497
0.026752276 0.50248921 1.0587451 4282594082
0.028820211 0.50249296 1.0587267 4282594080
0.030806502 0.50204355 1.0577004 4282659617
0.032789044 0.50159413 1.0566741 4282593824
0.034853227 0.50159788 1.0566558 4282527776
0.036917411 0.50160158 1.0566373 4282659618
0.038981598 0.50160533 1.0566188 4282725409
0.041045781 0.50160903 1.0566005 4282725408
0.043017074 0.50115961 1.0555743 4282856994
0.044984616 0.50071019 1.0545481 4282856994
0.046948411 0.50026071 1.0535221 4282922530
0.049105484 0.50071764 1.0545114 4282988580
0.051266309 0.50117451 1.0555006 4282922787
0.053328618 0.50117821 1.0554821 4282922787
0.055286787 0.50072879 1.0544561 4282988582
0.057347223 0.50073248 1.0544378 4282856996
0.059299767 0.500283 1.0534118 4283185961
0.061248563 0.49983355 1.0523858 4283120168
0.063081972 0.4989309 1.0503525 4282988838
0.065021388 0.49848142 1.0493267 4283054375
0.067072451 0.49848512 1.0493083 4282857252
0.069123507 0.49848881 1.0492899 4282922790
0.070936292 0.49758613 1.0472567 4283054375
0.072741576 0.49668342 1.0452236 4283054634
0.074785136 0.49668711 1.0452054 4282989358
0.076953463 0.49714398 1.0461944 4283253048
0.079378814 0.49850732 1.0491984 4281609251
0.082329459 0.50168347 1.0562316 4278518016
-0.020639746 0.50674593 1.0642492 4279373063
-0.01870901 0.50493002 1.0601977 4279373063
-0.016600683 0.50538868 1.0611874 4279373063
-0.014529 0.50539237 1.0611689 4279438856
-0.01241505 0.50585103 1.0621586 4279570696
-0.010297349 0.50630975 1.0631483 4279636487
-0.0082679335 0.50585854 1.0621215 4279833096
-0.006194375 0.5058623 1.062103 4280162316
-0.0041705836 0.50541109 1.0610764 4280293387
-0.0020989005 0.50541478 1.0610579 4280490766
-2.721734e-05 0.50541854 1.0610393 4280753679
0.0020444659 0.50542229 1.0610209 4280885008
0.0041734152 0.50588095 1.0620104 4281213459
0.0063061137 0.50633967 1.0629998 4281345046
0.0084425621 0.50679839 1.0639893 4281213460
0.01051987 0.50680214 1.0639708 4281541912
0.012402882 0.50544095 1.0609283 4281607704
0.014341285 0.50453478 1.0588939 4281673752
0.016340703 0.50408351 1.0578675 4281805338
0.018406762 0.50408721 1.057849 4282002460
0.020545086 0.50454593 1.0588385 4282265119
0.022687158 0.50500464 1.0598279 4282265119
0.024832981 0.50546342 1.0608172 4282528290
0.026826775 0.50501215 1.059791 4282528290
0.028896583 0.50501585 1.0597724 4282725668
0.030884754 0.50456458 1.0587461 4282660130
0.032785658 0.50365829 1.056712 4282594080
0.034935232 0.50411707 1.0577013 4282593824
0.036914028 0.50366575 1.0566752 4282725410
0.038978212 0.5036695 1.0566567 4282923045
0.041042395 0.5036732 1.0566382 4282791458
0.043106578 0.50367695 1.0566199 4282988580
0.045076001 0.50322562 1.0555937 4282988580
0.047138311 0.50322932 1.0555753 4282988323
0.049200617 0.50323308 1.0555569 4283054116
0.051363315 0.50369185 1.0565461 4282856994
0.053427499 0.50369555 1.0565276 4282725408
0.055387545 0.50324422 1.0555016 4282791202
0.057343844 0.50279289 1.0544755 4282791203
0.059404276 0.50279659 1.0544572 4282922789
0.061245188 0.50189024 1.0524236 4283054375
0.063190237 0.50143886 1.0513977 4282988582
0.065131538 0.50098753 1.0503718 4282856996
0.067184471 0.50099123 1.0503534 4282791203
0.069237404 0.50099492 1.050335 4282922789
0.071052074 0.50008851 1.0483018 4282922789
0.072859235 0.49918205 1.0462686 4282791462
0.074904673 0.49918574 1.0462502 4282726186
0.07707487 0.49964452 1.0472394 4282923826
0.079502083 0.50101346 1.0502434 4282464303
0.082326069 0.5037477 1.0562694 4278912000
-0.020643152 0.50882322 1.0642873 4279307270
-0.018675763 0.5074566 1.061244 4279438856
-0.016604081 0.50746036 1.0612254 4279373063
-0.014492008 0.50792086 1.0622152 4279438856
-0.012376186 0.50838143 1.0632049 4279504903
-0.010256614 0.50884199 1.0641944 4279504901
-0.0082253199 0.50838888 1.0631677 4279768073
-0.0061498866 0.50839263 1.0631492 4280030730
-0.0040744538 0.50839639 1.0631306 4280228107
-0.001999021 0.50840014 1.0631121 4280490766
2.2898568e-05 0.50794703 1.0620855 4280687632
0.0020964565 0.50795078 1.0620669 4280885265
0.0042272774 0.50841135 1.0630565 4281081874
0.0063027102 0.5084151 1.063038 4281279253
0.0084391562 0.50887567 1.0640274 4281345046
0.010516464 0.50887942 1.0640088 4281476119
0.012464247 0.5079695 1.0619743 4281673498
0.014404531 0.50705951 1.0599399 4281673497
0.016474338 0.50706327 1.0599214 4282068510
0.018544147 0.50706702 1.0599029 4281936924
0.020613955 0.50707072 1.0598843 4282134303
0.022757901 0.50753134 1.0608737 4282265632
0.024753572 0.50707817 1.0598474 4282330912
0.026823381 0.50708193 1.0598289 4282462498
0.02889319 0.50708568 1.0598104 4282462497
0.030881362 0.50663251 1.058784 4282462753
0.032782275 0.50572246 1.0567499 4282660130
0.034846459 0.50572622 1.0567315 4282725923
0.036910642 0.50572991 1.056713 4282660130
0.038974825 0.50573367 1.0566946 4282791714
0.04122103 0.50665116 1.0586916 4282791714
0.043288965 0.50665492 1.0586731 4282857507
0.045262136 0.50620174 1.057647 4282856994
0.047231562 0.50574857 1.0566208 4282856994
0.049295746 0.50575227 1.0566024 4282922787
0.051359929 0.50575602 1.0565839 4282988580
0.053424112 0.50575972 1.0565655 4282856994
0.055384163 0.50530654 1.0555394 4282988581
0.057340465 0.50485331 1.0545133 4282988582
0.059293017 0.50440013 1.0534873 4282988582
0.061241817 0.5039469 1.0524613 4282988582
0.063298501 0.5039506 1.0524429 4283054375
0.06524168 0.50349736 1.051417 4282922789
0.06729649 0.50350112 1.0513986 4282922789
0.069234043 0.50304788 1.0503727 4282988582
0.071167842 0.50259459 1.0493469 4283120168
0.0730979 0.50214136 1.0483211 4283054377
0.075147085 0.50214505 1.0483028 4282857258
0.07719627 0.50214875 1.0482844 4282528809
0.079498716 0.50306636 1.050281 4282924596
0.082194179 0.50535488 1.0552999 4279372548
-0.020611797 0.51135921 1.0653337 4279373063
-0.018642524 0.50998694 1.0622902 4279373063
-0.016568966 0.50999069 1.0622717 4279439110
-0.014455021 0.5104531 1.0632614 4279373317
-0.012337328 0.51091552 1.0642512 4279504903
-0.010260019 0.51091927 1.0642326 4279504901
-0.0081827119 0.51092303 1.064214 4279833866
-0.0061054043 0.51092678 1.0641955 4279965451
-0.0040280968 0.51093048 1.0641769 4280293645
-0.0019507891 0.51093423 1.0641583 4280490766
7.3008327e-05 0.51047927 1.0631317 4280556560
0.0020930562 0.51002431 1.0621049 4280818962
0.0041666143 0.51002806 1.0620865 4281081876
0.0062993066 0.51049054 1.063076 4281147668
0.0083747394 0.51049429 1.0630575 4281345046
0.010450172 0.51049799 1.0630389 4281279253
0.012460846 0.51004303 1.0620123 4281476632
0.01446777 0.50958806 1.0609858 4281542424
0.016470945 0.50913304 1.0599593 4281739544
0.018540753 0.5091368 1.0599408 4282002716
0.020682819 0.50959927 1.0609303 4282134302
0.022754503 0.50960302 1.0609118 4282134303
0.024750179 0.509148 1.0598854 4282199839
0.026819987 0.50915176 1.0598669 4282396705
0.028810037 0.50869673 1.0588405 4282396704
0.03087797 0.50870043 1.058822 4282528289
0.032778889 0.50778669 1.0567877 4282725923
0.034843072 0.50779039 1.0567694 4282725923
0.036907256 0.50779408 1.0567509 4282594336
0.039149705 0.50871539 1.0587481 4282594335
0.041308645 0.50917786 1.0597374 4282660128
0.043378454 0.50918162 1.059719 4282725921
0.045353506 0.50872654 1.0586927 4282725921
0.047324806 0.50827152 1.0576664 4282791714
0.049390867 0.50827521 1.0576479 4282857251
0.051456925 0.50827897 1.0576295 4282922787
0.05342073 0.50782388 1.0566033 4282856994
0.05538078 0.5073688 1.0555773 4283053861
0.057337087 0.50691372 1.0545511 4282988069
0.059289638 0.50645864 1.0535251 4282922276
0.0613482 0.5064624 1.0535067 4282856483
0.063406758 0.50646609 1.0534883 4282988069
0.065351814 0.50601101 1.0524623 4282791203
0.067408495 0.5060147 1.052444 4282988582
0.069347925 0.50555962 1.0514179 4282922789
0.071283609 0.50510448 1.050392 4282922789
0.073215537 0.50464934 1.0493662 4283054634
0.0752666 0.50465304 1.0493479 4282726440
0.07719291 0.50419796 1.0483221 4282726699
0.079368718 0.50466049 1.0493113 4282990387
0.082062297 0.50695837 1.0543302 4280885271
-0.020615205 0.51343834 1.0653719 4278190080
-0.018609291 0.51252103 1.0633366 4278190080
-0.016533857 0.51252478 1.063318 4278190080
-0.014418041 0.51298904 1.0643078 4278190080
-0.012340734 0.5129928 1.0642892 4278190080
-0.010263426 0.51299655 1.0642707 4278190080
-0.0081861187 0.51300031 1.0642521 4278190080
-0.0060609286 0.51346463 1.0652418 4278190080
-0.0039817458 0.51346838 1.0652232 4278190080
-0.0019025635 0.51347214 1.0652046 4278190080
6.960483e-05 0.51255471 1.0631697 4278190080
0.0020896557 0.5120979 1.0621431 4278190080
0.0041632135 0.51210165 1.0621245 4278190080
0.0062367716 0.51210535 1.062106 4278190080
0.0084323427 0.51303029 1.0641037 4278190080
0.01050965 0.51303405 1.0640851 4278190080
0.012522202 0.51257718 1.0630585 4278190080
0.014464373 0.51165974 1.0610238 4278190080
0.016467551 0.51120287 1.0599973 4278190080
0.018466977 0.510746 1.0589708 4278190080
0.020607168 0.51121032 1.0599602 4278190080
0.022751106 0.5116747 1.0609498 4278190080
0.024822788 0.5116784 1.0609313 4278190080
0.026894473 0.51168215 1.0609127 4278190080
0.0288864 0.51122528 1.0598863 4278190080
0.03087458 0.51076835 1.0588599 4278190080
0.032942515 0.51077211 1.0588415 4278190080
0.035010446 0.5107758 1.058823 4278190080
0.037165634 0.51124018 1.0598123 4278190080
0.03932457 0.51170456 1.0608017 4278190080
0.041487258 0.51216894 1.0617911 4278190080
0.043560818 0.5121727 1.0617726 4278190080
0.045444869 0.51125515 1.0597384 4278190080
0.04732142 0.51033753 1.0577043 4278190080
0.049387477 0.51034129 1.0576859 4278190080
0.051453538 0.51034498 1.0576674 4278190080
0.053519595 0.51034874 1.057649 4278190080
0.055481527 0.50989181 1.0566227 4278190080
0.057333708 0.50897419 1.0545889 4278190080
0.05939414 0.50897789 1.0545706 4278190080
0.061344825 0.5085209 1.0535444 4278190080
0.063403383 0.50852466 1.053526 4278190080
0.065461941 0.50852835 1.0535077 4278190080
0.067520499 0.50853205 1.0534893 4278190080
0.069461808 0.50807512 1.0524633 4278190080
0.071399368 0.50761813 1.0514374 4278190080
0.073333174 0.50716114 1.0504113 4278190080
0.075386114 0.50716484 1.0503931 4278190080
0.077314295 0.50670779 1.0493672 4278190080
0.079365358 0.50671154 1.0493488 4278190080
0.081930414 0.50855803 1.0533606 4278190080
-0.020653371 0.51505512 1.0644016 4278190080
-0.018649325 0.51413405 1.0623664 4278190080
-0.016575767 0.51413774 1.0623478 4278190080
-0.014461828 0.51460391 1.0633376 4278190080
-0.012386396 0.51460767 1.0633191 4278190080
-0.010310963 0.51461142 1.0633005 4278190080
-0.00823553 0.51461518 1.063282 4278190080
-0.0061122174 0.51508135 1.0642717 4278190080
-0.0040349099 0.5150851 1.0642531 4278190080
-0.0019576023 0.51508886 1.0642346 4278190080
0.00011970536 0.51509261 1.064216 4278190080
0.0021416342 0.51463389 1.0631893 4278190080
0.0041025598 0.5137127 1.0611544 4278190080
0.0062333713 0.51417893 1.062144 4278190080
0.0083679324 0.5146451 1.0631336 4278190080
0.010506243 0.51511133 1.0641233 4278190080
0.012518798 0.51465261 1.0630965 4278190080
0.014460975 0.51373142 1.0610619 4278190080
0.016395653 0.51281017 1.0590272 4278190080
0.018393209 0.51235145 1.0580007 4278190080
0.020459268 0.51235515 1.0579822 4278190080
0.022673581 0.51328385 1.0599798 4278190080
0.024743389 0.5132876 1.0599613 4278190080
0.026813198 0.5132913 1.0599428 4278190080
0.028803255 0.51283258 1.0589163 4278190080
0.030871188 0.51283628 1.0588979 4278190080
0.032939121 0.51284003 1.0588794 4278190080
0.035092432 0.51330626 1.0598688 4278190080
0.037249491 0.51377249 1.0608582 4278190080
0.039321173 0.51377624 1.0608398 4278190080
0.041392855 0.51378 1.0608212 4278190080
0.043371666 0.51332122 1.0597949 4278190080
0.045346722 0.51286238 1.0587685 4278190080
0.04731803 0.51240361 1.0577422 4278190080
0.049285591 0.51194477 1.056716 4278190080
0.051349774 0.51194853 1.0566975 4278190080
0.053413957 0.51195222 1.0566791 4278190080
0.055374019 0.51149344 1.0556529 4278190080
0.057330329 0.51103461 1.0546267 4278190080
0.059282888 0.51057577 1.0536005 4278190080
0.061341446 0.51057947 1.0535822 4278190080
0.063288383 0.51012063 1.0525562 4278190080
0.065345071 0.51012433 1.0525378 4278190080
0.067401752 0.51012808 1.0525194 4278190080
0.06934119 0.50966918 1.0514934 4278190080
0.071396001 0.50967288 1.051475 4278190080
0.073329814 0.50921404 1.050449 4278190080
0.075382747 0.50921774 1.0504308 4278190080
0.077310935 0.50875884 1.0494049 4278190080
0.079235367 0.50830001 1.0483789 4278190080
0.081670046 0.50969142 1.0513833 4278190080
-0.020656778 0.5171324 1.0644397 4278190080
-0.018689353 0.51574326 1.061396 4278190080
-0.016579168 0.51621133 1.0623858 4278190080
-0.014505609 0.51621509 1.0623673 4278190080
-0.012432051 0.51621878 1.0623488 4278190080
-0.010314367 0.51668686 1.0633386 4278190080
-0.008238934 0.51669061 1.06332 4278190080
-0.0061156242 0.51715863 1.0643098 4278190080
-0.0040383167 0.51716238 1.0642912 4278190080
-0.0019093828 0.51763046 1.0652809 4278190080
0.00016979975 0.51763421 1.0652623 4278190080
0.0021936065 0.51717365 1.0642356 4278190080
0.004156413 0.5162487 1.0622005 4278190080
0.0062299711 0.51625246 1.0621821 4278190080
0.0083645293 0.51672053 1.0631717 4278190080
0.010502838 0.51718861 1.0641613 4278190080
0.012580145 0.51719236 1.0641428 4278190080
0.014524203 0.51626742 1.0621079 4278190080
0.016392263 0.51487809 1.0590651 4278190080
0.018389821 0.51441747 1.0580386 4278190080
0.02045588 0.51442122 1.0580201 4278190080
0.022670187 0.51535368 1.0600177 4278190080
0.024815993 0.51582175 1.0610073 4278190080
0.026887678 0.51582551 1.0609888 4278190080
0.02895936 0.51582921 1.0609703 4278190080
0.031031044 0.51583296 1.0609518 4278190080
0.033186223 0.5163011 1.0619413 4278190080
0.035259783 0.51630485 1.0619227 4278190080
0.037420589 0.51677293 1.0629121 4278190080
0.039406899 0.5163123 1.0618857 4278190080
0.041389462 0.51585168 1.0608592 4278190080
0.043368272 0.51539099 1.0598328 4278190080
0.045343332 0.51493031 1.0588064 4278190080
0.047218021 0.51400524 1.0567722 4278190080
0.049183708 0.51354456 1.055746 4278190080
0.051346388 0.51401269 1.0567354 4278190080
0.053410575 0.51401639 1.0567169 4278190080
0.055370636 0.51355571 1.0556908 4278190080
0.057432946 0.51355946 1.0556723 4278190080
0.059387382 0.51309872 1.0546461 4278190080
0.061447818 0.51310247 1.0546278 4278190080
0.06350825 0.51310617 1.0546093 4278190080
0.065455191 0.51264542 1.0535831 4278190080
0.067513749 0.51264918 1.0535648 4278190080
0.069572307 0.51265287 1.0535464 4278190080
0.071511745 0.51219213 1.0525204 4278190080
0.073568434 0.51219589 1.052502 4278190080
0.075502247 0.51173514 1.051476 4278190080
0.077432312 0.5112744 1.0504501 4278190080
0.079485245 0.51127809 1.0504317 4278190080
0.081795171 0.51221073 1.0524285 4278190080
