# .PCD v0.7 - Point Cloud Data file format
VERSION 0.7
FIELDS x y z rgba
SIZE 4 4 4 4
TYPE F F F U
COUNT 1 1 1 1
WIDTH 833
HEIGHT 1
VIEWPOINT 0 0 0 1 0 0 0
POINTS 833
DATA ascii
-0.047713194 0.27621359 1.2363029 4286745741
-0.045295123 0.27643093 1.2372853 4285890174
-0.042885974 0.27643529 1.2372638 4282797902
-0.040462278 0.27665266 1.2382462 4285165936
-0.038051251 0.27665702 1.2382247 4286546818
-0.035695098 0.27602226 1.2351913 4286612096
-0.057332102 0.28075227 1.2464744 4284771951
-0.052521367 0.27904192 1.2383982 4286021760
-0.050117381 0.27883139 1.2373725 4286679688
-0.047734968 0.27819106 1.2343389 4286876553
-0.045342229 0.27798048 1.2333133 4284705126
-0.042940579 0.27798483 1.2332919 4284836453
-0.040553465 0.27777424 1.2322664 4286283385
-0.038153686 0.27777857 1.232245 4286875264
-0.035753909 0.27778292 1.2322235 4287072386
-0.033374295 0.27757233 1.2311981 4287203972
-0.03097639 0.27757666 1.2311766 4287796109
-0.028602401 0.27736604 1.2301513 4287861902
-0.026206372 0.27737036 1.23013 4287861902
-0.023727357 0.27801949 1.2331202 4287664523
-0.021207556 0.27888355 1.2371143 4287269765
-0.059761643 0.28295717 1.2455363 4287008652
-0.057344552 0.28187776 1.2404938 4286021245
-0.054923203 0.28231564 1.2424805 4286218368
-0.052535642 0.28101942 1.2364341 4287073418
-0.050135404 0.28080699 1.2354085 4287468173
-0.047729999 0.28081134 1.235387 4287138694
-0.045324598 0.28081566 1.2353655 4284704351
-0.042919196 0.28082001 1.2353441 4287335557
-0.040513795 0.28082436 1.2353226 4287532678
-0.0381248 0.2806119 1.234297 4287664263
-0.03573956 0.28039947 1.2332715 4288058764
-0.033358067 0.28018701 1.232246 4287993228
-0.031002358 0.27975774 1.2302166 4288124559
-0.028654149 0.27932847 1.2281873 4288190352
-0.02626187 0.27933279 1.228166 4288256144
-0.023841932 0.27955392 1.2291485 4288190608
-0.021388711 0.27999184 1.231135 4288255890
-0.018990809 0.27999616 1.2311136 4288255633
-0.016592905 0.28000048 1.2310921 4288321426
-0.06947019 0.28558242 1.2466717 4279179537
-0.067050248 0.2858054 1.2476543 4280692776
-0.064618133 0.28559119 1.2466284 4284837222
-0.062185086 0.28493968 1.2435939 4288192408
-0.059763286 0.28428817 1.2405597 4288126359
-0.05734992 0.28407389 1.2395339 4287533967
-0.054940302 0.28385961 1.2385082 4287138696
-0.052539591 0.28342667 1.2364783 4287203973
-0.050132316 0.28343102 1.2364568 4285230180
-0.047707222 0.28387266 1.2384436 4282992959
-0.045296196 0.28387702 1.238422 4285689957
-0.042859852 0.28431866 1.2404087 4287860868
-0.040445074 0.28432301 1.2403871 4288321417
-0.038046706 0.2841087 1.2393615 4288518282
-0.035633806 0.28411305 1.2393399 4288781197
-0.033261217 0.28368008 1.2373103 4288781199
-0.03091816 0.28302842 1.2342767 4288649870
-0.028610259 0.28215808 1.2302393 4288584334
-0.026240012 0.28194374 1.2292138 4288650384
-0.023901172 0.28151068 1.2271845 4288519055
-0.021510767 0.281515 1.2271632 4288519055
-0.019120364 0.28151932 1.2271417 4288453008
-0.016696678 0.2817423 1.2281244 4288387216
-0.069418386 0.28646502 1.239686 4280823591
-0.067017667 0.28691036 1.241673 4279507731
-0.064605236 0.28713521 1.2426558 4279178766
-0.062186711 0.28713956 1.2426341 4278586372
-0.059768185 0.28714395 1.2426125 4278915081
-0.05734966 0.2871483 1.2425909 4278849031
-0.054934416 0.28693214 1.2415651 4279046153
-0.052528072 0.28649548 1.2395351 4279111431
-0.050122201 0.28627932 1.2385093 4279505160
-0.047693364 0.28672472 1.2404962 4282334257
-0.04527859 0.28672907 1.2404746 4287136373
-0.042825848 0.287395 1.2434654 4288057216
-0.04039092 0.28761989 1.2444479 4289043595
-0.037952241 0.28784481 1.2454304 4289306767
-0.03552809 0.28784916 1.2454087 4289570197
-0.033124093 0.287633 1.244383 4289965212
-0.030745873 0.28719628 1.2423532 4289899676
-0.028422961 0.28631845 1.2383155 4289768603
-0.026037712 0.28610227 1.2372899 4289571226
-0.023711519 0.28544495 1.2342564 4289176725
-0.021367047 0.28500816 1.232227 4288979346
-0.019030076 0.28457138 1.2301975 4288979348
-0.016600769 0.28479627 1.2311801 4289110679
-0.014202867 0.28480059 1.2311587 4286411886
-0.07181555 0.28842884 1.237743 4284902497
-0.069430314 0.28910026 1.2407346 4285297255
-0.067033827 0.28977174 1.243726 4285428842
-0.064617649 0.28999847 1.2447088 4284310106
-0.062197719 0.29022521 1.2456914 4279704340
-0.059774041 0.29045194 1.2466741 4279375118
-0.057346616 0.29067871 1.2476566 4279374861
-0.054925267 0.29023832 1.2456264 4279176968
-0.052516576 0.28957555 1.2425921 4280689692
-0.050112102 0.28913513 1.240562 4286742132
-0.047706228 0.28891709 1.2395363 4287267960
-0.04528255 0.28914383 1.2405188 4287531129
-0.04284247 0.28959298 1.2425057 4288254336
-0.040394891 0.29004216 1.2444923 4289437838
-0.037939813 0.29049134 1.2464789 4289964182
-0.035495512 0.29071814 1.2474614 4290227354
-0.03302731 0.29116732 1.2494479 4290753698
-0.030617686 0.29094931 1.2484221 4290951590
-0.028235711 0.29050884 1.2463923 4290886311
-0.025835462 0.2902908 1.2453666 4290886825
-0.02349426 0.28962788 1.2423328 4290821032
-0.021164309 0.28896496 1.2392991 4290821032
-0.018782808 0.28874686 1.2382735 4290952361
-0.016338507 0.28897366 1.239256 4291543215
-0.013890455 0.28920045 1.2402384 4285488719
-0.011475679 0.28920481 1.2402169 4284501568
-0.0090998011 0.28898671 1.2391913 4284765000
-0.071819499 0.29083797 1.2377872 4281612073
-0.06943427 0.29151502 1.2407789 4282730556
-0.067037798 0.2921921 1.2437705 4283651917
-0.064625844 0.29264498 1.2457576 4283257673
-0.062204044 0.29287359 1.2467402 4280889125
-0.059778497 0.2931022 1.2477229 4280625439
-0.057349198 0.29333085 1.2487055 4280493340
-0.054925971 0.29288673 1.2466751 4280098069
-0.052515391 0.2922183 1.2436407 4281676843
-0.050116062 0.29154989 1.2406063 4285887079
-0.047710184 0.29132998 1.2395805 4286808180
-0.045297284 0.29133433 1.2395589 4287597180
-0.042871732 0.29156294 1.2405416 4288254595
-0.040427908 0.29201585 1.2425284 4288649096
-0.037976589 0.29246879 1.2445152 4289898904
-0.03553604 0.29269743 1.2454976 4290490528
-0.033071592 0.2931504 1.2474842 4290885285
-0.03062167 0.29337907 1.2484667 4291082663
-0.028215794 0.29315916 1.2474409 4291148970
-0.025813665 0.29293925 1.2464151 4291215019
-0.023470581 0.29227069 1.2433813 4291215019
-0.0210797 0.29205075 1.2423556 4291346090
-0.018661175 0.29205513 1.2423339 4291740333
-0.016209377 0.2922838 1.2433163 4292396207
-0.013718684 0.2927368 1.2453027 4286405701
-0.011257512 0.2929655 1.2462851 4286142011
-0.008831487 0.29296985 1.2462634 4285749563
-0.0066093155 0.29185262 1.2412219 4285946173
-0.071823448 0.2932471 1.2378315 4281348128
-0.069446214 0.29415593 1.2418276 4281348386
-0.067047872 0.29483861 1.2448193 4281348644
-0.064629823 0.2950691 1.245802 4281875247
-0.062210377 0.29552573 1.2477891 4281875249
-0.059782956 0.29575622 1.2487718 4282006579
-0.05735039 0.29621288 1.2507588 4282269494
-0.054920133 0.29599112 1.2497326 4281874478
-0.052493632 0.29576939 1.2487066 4283584581
-0.050077897 0.29532149 1.2466763 4286216044
-0.047660768 0.29509971 1.2456504 4287268475
-0.045247387 0.29487795 1.2446245 4287728768
-0.042837758 0.29465616 1.2435986 4288057475
-0.040417355 0.29466054 1.243577 4288517769
-0.037996955 0.29466489 1.2435553 4289241233
-0.035576556 0.29466927 1.2435337 4289701270
-0.033115864 0.29512596 1.2455205 4290095514
-0.030691713 0.29513031 1.2454988 4290424478
-0.028243668 0.29536086 1.2464813 4290950822
-0.025843412 0.29513907 1.2454555 4291082408
-0.023446906 0.29491726 1.2444297 4291542701
-0.021024629 0.29492164 1.2444081 4291870894
-0.018570961 0.29515219 1.2453905 4292199600
-0.016080273 0.29560894 1.2473769 4292657836
-0.013546944 0.29629189 1.2503674 4286405949
-0.011039383 0.29674867 1.2523537 4286799675
-0.0086021088 0.29675305 1.252332 4286930749
-0.0062871375 0.29607886 1.2492982 4286733885
-0.00389813 0.29585704 1.2482725 4286472002
-0.001468355 0.29586142 1.2482507 4286079566
-0.074166171 0.29428402 1.2318702 4280953112
-0.071817547 0.29542828 1.2368711 4281216026
-0.069434211 0.29611659 1.239863 4281215771
-0.067039631 0.2968049 1.2428548 4281282079
-0.064625338 0.29703727 1.2438376 4281151008
-0.062207289 0.29726961 1.2448204 4281348646
-0.059785977 0.29773 1.2468076 4281743148
-0.057357166 0.29819039 1.2487947 4282071344
-0.05492739 0.29819477 1.2487729 4282531638
-0.052492473 0.29842716 1.2497555 4285755237
-0.050053805 0.29865956 1.2507381 4287202682
-0.047620282 0.29866394 1.2507164 4287531389
-0.045186754 0.29866832 1.2506946 4288057476
-0.042765874 0.29844469 1.2496686 4288254855
-0.040363256 0.29799303 1.2476385 4288452233
-0.037951749 0.29776937 1.2466124 4288781197
-0.035525724 0.29777375 1.2465909 4289307027
-0.033119839 0.29755008 1.2455649 4289372818
-0.030695688 0.29755446 1.2455432 4289438868
-0.028295429 0.2973308 1.2445174 4289767833
-0.02589892 0.2971071 1.2434916 4289833370
-0.023506159 0.29688343 1.2424659 4290292893
-0.021087633 0.29688779 1.2424443 4290818465
-0.018637717 0.29712021 1.2434268 4291673002
-0.016184051 0.29735264 1.2444092 4290948505
-0.013656355 0.29804119 1.2473998 4286013256
-0.01119144 0.29827365 1.2483822 4287064908
-0.0087616649 0.29827803 1.2483605 4287326276
-0.0063318894 0.29828241 1.2483388 4287391300
-0.0038168358 0.29874295 1.2503251 4287063882
-0.07415837 0.29645205 1.2309097 4280887316
-0.071791917 0.29714596 1.2339017 4281150232
-0.069414221 0.29783988 1.2368938 4281215771
-0.067019157 0.29830396 1.2388812 4281281823
-0.064612366 0.29853818 1.2398642 4281347618
-0.062201824 0.29877239 1.2408471 4281282083
-0.05978753 0.29900664 1.2418299 4281216548
-0.0573681 0.29947075 1.2438172 4281544999
-0.054944433 0.299705 1.2448 4281478948
-0.052511878 0.30016914 1.2467871 4285163099
-0.050071824 0.30063328 1.2487741 4286610545
-0.047624271 0.30109745 1.250761 4287333496
-0.045190748 0.30110186 1.2507393 4287727998
-0.042757221 0.30110624 1.2507175 4287991170
-0.040338211 0.30088073 1.2496915 4288320391
-0.037922949 0.30065522 1.2486656 4288452234
-0.035511438 0.30042967 1.2476395 4288715405
-0.033083539 0.30043405 1.2476178 4289110162
-0.03067765 0.30020851 1.2465919 4289307541
-0.028275514 0.29998296 1.2455661 4289636504
-0.025877126 0.29975742 1.2445402 4289833883
-0.023510126 0.29930195 1.2425102 4289964956
-0.021121113 0.29907638 1.2414845 4290161563
-0.018735848 0.2988508 1.2404587 4290555294
-0.016321072 0.29885516 1.2404372 4288778880
-0.013871158 0.29908946 1.2414197 4286080334
-0.011491518 0.29886386 1.240394 4286605392
-0.0090767425 0.29886821 1.2403724 4286341963
-0.0065804431 0.29933247 1.242359 4286406726
-0.0040340079 0.30002671 1.2453495 4286408524
-0.074150562 0.29861635 1.2299491 4280821519
-0.071785994 0.29931587 1.2329413 4281216276
-0.069402188 0.29978368 1.234929 4281413146
-0.067010887 0.30025148 1.2369164 4281347103
-0.064607851 0.30048758 1.2378994 4281018398
-0.06220106 0.30072367 1.2388824 4281215778
-0.059790518 0.30095977 1.2398653 4281215778
-0.057376232 0.30119586 1.2408482 4281544486
-0.054954931 0.30166376 1.2428355 4281478435
-0.052526131 0.30213162 1.2448227 4285096792
-0.050089832 0.30259952 1.2468098 4286215017
-0.047646035 0.30306745 1.2487969 4286412139
-0.045216259 0.30307183 1.2487752 4287530619
-0.042786483 0.30307621 1.2487535 4287859583
-0.040356711 0.30308059 1.2487319 4287860096
-0.037959706 0.30262139 1.2467015 4288320648
-0.035533682 0.30262578 1.2466798 4288386439
-0.033107653 0.30263016 1.2466581 4288518025
-0.030681629 0.30263454 1.2466365 4288846990
-0.028255604 0.30263892 1.2466148 4289110162
-0.025855338 0.3024115 1.2455889 4289439127
-0.023486458 0.30195224 1.2435588 4289833627
-0.021095566 0.30172482 1.242533 4290096285
-0.018739808 0.30126557 1.2405031 4290424224
-0.016325032 0.30126992 1.2404815 4288646787
-0.01394539 0.30104247 1.2394557 4286804067
-0.011606505 0.30058318 1.2374259 4287001699
-0.0091973534 0.30058753 1.2374045 4286870114
-0.0067066844 0.30105552 1.2393911 4286475871
-0.00412325 0.30198717 1.2433858 4286607717
-0.071740605 0.3005476 1.2279625 4282531613
-0.069366179 0.30101913 1.2299502 4281676312
-0.066978142 0.30125704 1.2309333 4280755222
-0.064586356 0.30149499 1.2319164 4279044610
-0.062188454 0.30149934 1.2318951 4279374088
-0.05979104 0.30173728 1.2328781 4280097554
-0.057389878 0.30197522 1.2338612 4280689434
-0.054984968 0.30221319 1.2348442 4281083934
-0.05256604 0.30291843 1.237836 4281741350
-0.050142869 0.30339006 1.2398233 4283057209
-0.047721084 0.30362806 1.2408062 4283649088
-0.045295551 0.30386606 1.2417891 4284372554
-0.0428789 0.30387041 1.2417674 4285293655
-0.040462248 0.30387479 1.2417458 4286543722
-0.03806198 0.30364549 1.2407199 4287859582
-0.035647202 0.30364984 1.2406983 4288254340
-0.033232428 0.30365419 1.2406768 4288715147
-0.030795643 0.30389223 1.2416595 4288517768
-0.02835511 0.30413026 1.2426422 4288715404
-0.025962342 0.30390093 1.2416164 4289044369
-0.02357332 0.30367163 1.2405905 4289307028
-0.021188051 0.3034423 1.2395647 4289438358
-0.01880653 0.30321297 1.238539 4289963931
-0.016428759 0.30298361 1.2375132 4287463283
-0.014089869 0.3025206 1.2354833 4286410337
-0.011721473 0.30229124 1.2344576 4286804580
-0.0093568256 0.30206189 1.2334321 4286804581
-0.0069144182 0.30229992 1.2344147 4286870891
-0.0042977398 0.30347276 1.2394137 4286937454
-0.0016178082 0.30487937 1.2454168 4281477407
-0.07167545 0.30128959 1.220974 4283979304
-0.069314152 0.30176485 1.2229619 4282136858
-0.066945359 0.30224013 1.2249498 4280031241
-0.064564824 0.30247992 1.2259331 4279044609
-0.062178172 0.30248424 1.2259117 4279242500
-0.059792012 0.30272403 1.226895 4279440136
-0.057402104 0.30296385 1.2278782 4279834638
-0.055008445 0.30320367 1.2288613 4279899917
-0.052605905 0.30367902 1.2308489 4280228624
-0.050195865 0.30415437 1.2328364 4280689175
-0.047787208 0.30439422 1.2338194 4280689172
-0.045385554 0.30439854 1.2337979 4281280538
-0.042971272 0.30463839 1.2347809 4281477916
-0.040567745 0.30464274 1.2347594 4282069796
-0.038164217 0.30464706 1.234738 4283056691
-0.03576069 0.30465141 1.2347165 4283714364
-0.033357162 0.30465573 1.234695 4285030481
-0.030931631 0.30489561 1.2356778 4287201906
-0.028502349 0.30513549 1.2366607 4288452229
-0.026095072 0.30513984 1.2366391 4288583561
-0.023715423 0.30490863 1.2356133 4288715147
-0.02131002 0.30491295 1.2355919 4289240722
-0.018935997 0.30468175 1.2345662 4289635223
-0.01653247 0.30468607 1.2345448 4286608488
-0.01416407 0.30445486 1.233519 4286213474
-0.011836423 0.30398804 1.2314892 4286608230
-0.0094385194 0.30399236 1.2314677 4286607972
-0.0069998642 0.30423227 1.2324505 4286542184
-0.0044722049 0.30494332 1.2354414 4286017125
-0.0018442931 0.30612558 1.2404406 4280820760
0.00066323677 0.30660111 1.2424272 4279768331
-0.073950917 0.30152637 1.2119969 4285163815
-0.071620122 0.30224273 1.2149898 4284966441
-0.069270082 0.30272171 1.2169778 4283913513
-0.066912547 0.30320072 1.2189659 4280689428
-0.064539015 0.30320498 1.2189447 4280756249
-0.062167857 0.30344665 1.219928 4280493336
-0.059792947 0.30368832 1.2209114 4280427546
-0.05741429 0.30392998 1.2218947 4280427545
-0.055031881 0.30417165 1.222878 4280690715
-0.052640598 0.30465072 1.2248658 4280624409
-0.050241813 0.3051298 1.2268535 4280755481
-0.047844406 0.30537149 1.2278366 4281018394
-0.045454003 0.30537581 1.2278153 4281149466
-0.0430636 0.30538011 1.2277938 4281149208
-0.040658694 0.30562183 1.2287769 4281214744
-0.03825004 0.30586356 1.2297599 4281346329
-0.035855886 0.30586788 1.2297386 4281477915
-0.033441607 0.30610961 1.2307216 4281741344
-0.03104558 0.30611393 1.2307001 4282135845
-0.028649552 0.30611825 1.2306788 4282793775
-0.026227772 0.30635998 1.2316617 4284570443
-0.02382987 0.3063643 1.2316402 4287267701
-0.021431966 0.30636865 1.2316189 4287596410
-0.019034063 0.30637297 1.2315974 4287398774
-0.016669411 0.30613986 1.2305717 4285358935
-0.014308507 0.30590674 1.2295461 4285029970
-0.011914354 0.30591106 1.2295247 4285029970
-0.0095202001 0.30591539 1.2295033 4285359448
-0.0070852977 0.30615714 1.2304862 4286083429
-0.0045613977 0.30687383 1.2334772 4286149993
-0.0020262485 0.30759051 1.2364683 4282465844
0.00047377599 0.3080698 1.2384551 4280689949
-0.076260693 0.30292562 1.2080424 4285624106
-0.073919535 0.30316907 1.2090261 4285558316
-0.0715845 0.30365181 1.2110144 4284703018
-0.069241971 0.30413452 1.2130027 4282860320
-0.066891938 0.30461726 1.2149909 4282794797
-0.06452591 0.30462155 1.2149698 4282531889
-0.062164627 0.30510429 1.2169578 4282335795
-0.059795346 0.30534783 1.2179413 4282270260
-0.057422314 0.30559134 1.2189246 4282336053
-0.055045538 0.30583489 1.219908 4282401846
-0.05265988 0.30631769 1.2218958 4282532919
-0.050266728 0.30680051 1.2238836 4282663991
-0.04787495 0.30704409 1.2248669 4282532405
-0.045490172 0.30704838 1.2248455 4282531890
-0.043105394 0.30705267 1.2248243 4282729011
-0.040706113 0.30729628 1.2258074 4282729011
-0.038303088 0.30753985 1.2267905 4282728754
-0.035896309 0.30778345 1.2277737 4282596911
-0.033505905 0.30778775 1.2277523 4282596655
-0.031115502 0.30779207 1.227731 4282596655
-0.028725099 0.30779639 1.2277095 4282333995
-0.026308948 0.30803999 1.2286927 4282531631
-0.023889046 0.3082836 1.2296755 4282728498
-0.021494893 0.30828792 1.2296542 4283386171
-0.019100741 0.30829224 1.2296327 4286083171
-0.016739834 0.30805725 1.2286071 4285491034
-0.014382676 0.30782226 1.2275815 4285359448
-0.011992273 0.30782655 1.22756 4285030996
-0.0096018687 0.30783087 1.2275387 4284241482
-0.0071299733 0.30831382 1.2295258 4283518274
-0.0046505779 0.30879679 1.2315129 4283321153
-0.0021191877 0.30951911 1.2345041 4281545258
0.00037708096 0.31000212 1.236491 4282400826
0.0030738306 0.31144249 1.2424943 4280164634
-0.076210044 0.30431411 1.2040665 4285690163
-0.073876388 0.30455944 1.2050503 4285360691
-0.071548864 0.30504587 1.2070388 4284439088
-0.069205835 0.30529124 1.2080225 4284570690
-0.066865183 0.3057777 1.2100109 4284702797
-0.064512774 0.30602309 1.2109945 4284768849
-0.062156621 0.30626845 1.2119781 4284572243
-0.059796721 0.30651385 1.2129616 4284441428
-0.057431694 0.30700037 1.2149497 4284309842
-0.055065665 0.30700463 1.2149286 4284441428
-0.05268427 0.30773228 1.2179211 4284506965
-0.050305616 0.30797771 1.2189045 4284704087
-0.047923215 0.30822313 1.2198879 4284769623
-0.045537066 0.30846858 1.2208712 4284703316
-0.043147165 0.308714 1.2218544 4285097559
-0.040739018 0.30920061 1.2238423 4284965973
-0.038323373 0.3096872 1.22583 4285097559
-0.035936721 0.30969152 1.2258086 4285031766
-0.033529945 0.30993697 1.2267917 4284965973
-0.031141417 0.30994129 1.2267704 4284900180
-0.028776757 0.30970442 1.2257446 4284834387
-0.02636436 0.3099499 1.2267277 4284768594
-0.023948211 0.31019539 1.2277107 4284505422
-0.021557808 0.31019971 1.2276894 4284044871
-0.019167405 0.31020403 1.227668 4283978564
-0.016810244 0.30996713 1.2266424 4284899667
-0.014421715 0.30997145 1.226621 4285425754
-0.012033186 0.30997574 1.2265997 4285492317
-0.0096057896 0.31022125 1.2275826 4285294940
-0.0071338993 0.31070799 1.2295698 4284637268
-0.0046545104 0.31119469 1.2315569 4283651145
-0.0021676219 0.31168142 1.2335439 4283914832
0.00028039824 0.31192696 1.2345266 4284375386
0.0029733798 0.3133786 1.2405304 4285954932
-0.078481779 0.3054404 1.1991066 4284374064
-0.076186635 0.30617353 1.2021 4285689917
-0.073844977 0.30617777 1.2020791 4284965946
-0.071523078 0.30666795 1.2040677 4285360202
-0.069185674 0.30691516 1.2050514 4285689432
-0.066844523 0.3071624 1.2060353 4285426778
-0.064495362 0.30716664 1.2060143 4285492828
-0.06214859 0.30741388 1.2069979 4285362015
-0.059798062 0.30766112 1.2079816 4285296481
-0.057441048 0.30839437 1.2109745 4285428323
-0.055082519 0.3083986 1.2109535 4285296737
-0.052713748 0.30888888 1.2129416 4285625446
-0.050337482 0.30937919 1.2149297 4285888616
-0.047953714 0.30986947 1.2169178 4286282861
-0.045583934 0.30987376 1.2168965 4286216554
-0.043188918 0.31036407 1.2188845 4286545262
-0.040771913 0.31109744 1.2218769 4286742384
-0.038360022 0.31158778 1.2238647 4287005556
-0.035958875 0.31183511 1.2248479 4286939763
-0.033574097 0.31183943 1.2248266 4287005556
-0.031189317 0.31184372 1.2248052 4287071349
-0.028804539 0.31184801 1.2247839 4287268728
-0.026394017 0.31209537 1.225767 4287268728
-0.023979748 0.31234273 1.2267501 4287005556
-0.021620709 0.31210399 1.2257245 4287071349
-0.019234056 0.31210828 1.2257031 4286808177
-0.016847402 0.3121126 1.2256818 4286413419
-0.014460747 0.31211689 1.2256604 4285492574
-0.012037103 0.31236428 1.2266434 4285492319
-0.0095708445 0.31285474 1.2286308 4285755748
-0.0071785655 0.31285903 1.2286094 4285690470
-0.0047010574 0.31334952 1.2305965 4285296226
-0.0021715604 0.31408307 1.233588 4285164899
0.00023009225 0.31408742 1.2335665 4285099107
0.0028729413 0.31530717 1.2385662 4285362795
-0.078501113 0.30802128 1.2001542 4283781685
-0.076149575 0.30778065 1.1991285 4285426758
-0.0738253 0.30802971 1.2001125 4285623884
-0.071497269 0.30827877 1.2010963 4286084187
-0.069165498 0.30852786 1.2020802 4286018657
-0.06682384 0.30853209 1.2020593 4285755744
-0.064482182 0.30853632 1.2020384 4285887845
-0.062142909 0.30878541 1.2030221 4285888359
-0.059800394 0.30927938 1.2050107 4285822824
-0.057449013 0.31001824 1.2080038 4285691239
-0.055092867 0.31026739 1.2089874 4286020204
-0.052732971 0.31051651 1.209971 4286348656
-0.050362334 0.31101054 1.2119592 4286546034
-0.047984198 0.31150457 1.2139473 4286743156
-0.045609299 0.31175375 1.2149308 4286874486
-0.043205425 0.3124927 1.2179234 4287137143
-0.040804792 0.31298679 1.2199113 4287137142
-0.038396657 0.31348088 1.2218993 4287334521
-0.036017504 0.31348518 1.2218781 4287400314
-0.033618234 0.31373438 1.2228613 4287663486
-0.031215217 0.31398359 1.2238445 4287729536
-0.028808448 0.3142328 1.2248276 4287795329
-0.026397932 0.31448203 1.2258109 4287729536
-0.023983665 0.31473124 1.226794 4287597952
-0.021624623 0.31449062 1.2257682 4287729538
-0.019269332 0.31424999 1.2247424 4287729538
-0.016884552 0.31425431 1.2247212 4287532159
-0.014464661 0.31450355 1.2257042 4287203194
-0.01204102 0.31475279 1.2266873 4286940023
-0.0096136294 0.31500205 1.2276703 4286743158
-0.0071824887 0.31525132 1.2286533 4286546293
-0.0047049867 0.31574553 1.2306405 4286151794
-0.0021754988 0.31648472 1.233632 4286020209
0.00027251517 0.31673402 1.2346148 4285428587
0.0028689874 0.31771818 1.2386104 4285626224
-0.078489438 0.31011245 1.1991923 4285427550
-0.076112494 0.30937648 1.1961569 4285887843
-0.073793851 0.30962741 1.1971408 4286413673
-0.071491227 0.31037182 1.2001345 4286545258
-0.069161326 0.31062278 1.2011184 4286545772
-0.066821545 0.31062698 1.2010975 4286546030
-0.064481758 0.31063122 1.2010765 4286743410
-0.062144361 0.31088218 1.2020605 4286743412
-0.059804242 0.31162664 1.2050537 4286874999
-0.057452872 0.31237113 1.2080469 4286874744
-0.055096727 0.31262216 1.2090306 4286677620
-0.052736834 0.31287315 1.2100142 4287006584
-0.050366204 0.31337094 1.2120025 4287072378
-0.047988072 0.31386873 1.2139907 4287203451
-0.045613181 0.31411976 1.2149743 4287532159
-0.043209314 0.31486434 1.2179669 4287663489
-0.040808689 0.31536219 1.219955 4287794817
-0.038416922 0.31561324 1.2209383 4287926402
-0.036021404 0.31586429 1.2219217 4287926402
-0.033622138 0.31611538 1.2229049 4288124038
-0.031197138 0.31661326 1.2248927 4288255882
-0.0287885 0.31686434 1.225876 4288190089
-0.02637611 0.31711546 1.2268591 4288255882
-0.023987582 0.31711978 1.2268378 4288256395
-0.021628538 0.31687728 1.225812 4288125066
-0.019241882 0.31688157 1.2257906 4288125066
-0.016855229 0.31688589 1.2257694 4287927687
-0.014468575 0.31689018 1.2257481 4287861639
-0.012044937 0.31714129 1.2267311 4287664260
-0.0095786899 0.31763926 1.2287185 4287795847
-0.0071864119 0.31764358 1.2286972 4287861898
-0.0046663075 0.31838837 1.2316889 4287532934
-0.0021349539 0.31913319 1.2346804 4287138692
0.00031493191 0.31938437 1.2356633 4287072899
0.0029614998 0.32062289 1.2406633 4287336328
0.0056769238 0.32210827 1.2466674 4287402378
-0.078477755 0.31219986 1.1982301 4285625186
-0.076089039 0.31120968 1.1941898 4286217321
-0.07376238 0.31121388 1.194169 4286612080
-0.071455501 0.31171528 1.1961579 4286874739
-0.069133103 0.31196812 1.197142 4286808945
-0.066800818 0.31197232 1.1971211 4286809460
-0.064472802 0.31222513 1.1981051 4287006584
-0.062143423 0.31272659 1.2000937 4287072121
-0.059807062 0.31347668 1.2030872 4287138173
-0.057459451 0.31422678 1.2060806 4287137917
-0.055107057 0.31447965 1.2070643 4287203965
-0.052750915 0.31473252 1.208048 4287532674
-0.050384041 0.31523404 1.2100364 4287730053
-0.048000809 0.31598422 1.2130294 4287795846
-0.045627795 0.31623712 1.214013 4288124554
-0.04323842 0.31673869 1.2160012 4288256140
-0.04084155 0.31724027 1.2179893 4288387726
-0.038453534 0.3174932 1.2189727 4288519055
-0.036061771 0.31774613 1.219956 4288584848
-0.033666261 0.31799909 1.2209395 4288716433
-0.031245016 0.3185007 1.2229273 4288584847
-0.02881627 0.31900233 1.2249151 4288650640
-0.026431492 0.31900662 1.2248939 4288716434
-0.024019105 0.31925961 1.225877 4288848277
-0.021632452 0.31926391 1.2258558 4288651411
-0.019277154 0.31901953 1.2248299 4288980120
-0.016892375 0.31902385 1.2248087 4288980120
-0.014507595 0.31902814 1.2247874 4288914328
-0.012085835 0.31928113 1.2257705 4288914329
-0.0096214693 0.31978282 1.227758 4288848793
-0.0071903346 0.32003585 1.228741 4288848538
-0.0047128452 0.32053757 1.2307284 4288256658
-0.0021833759 0.32128799 1.2337202 4288125330
0.00031098729 0.32178974 1.2357074 4288059794
0.0029093097 0.32278892 1.2397033 4287994258
0.0056228405 0.32428557 1.2457076 4287994515
-0.08083313 0.31478027 1.1992989 4285625703
-0.078450546 0.31403306 1.1962632 4286414961
-0.076051928 0.31278491 1.1912177 4286546546
-0.073730893 0.31278908 1.1911969 4286875255
-0.07142964 0.31329423 1.193186 4287203963
-0.069120891 0.31379941 1.1951749 4287203964
-0.066792361 0.31380361 1.1951542 4287203964
-0.064472362 0.31430879 1.1971431 4287335550
-0.062144864 0.314814 1.1991318 4287335295
-0.059809867 0.31531921 1.2011206 4287401088
-0.057466015 0.31607494 1.2041141 4287401088
-0.055117376 0.31632966 1.2050979 4287335295
-0.052759882 0.31683493 1.2070864 4287861639
-0.050394885 0.3173402 1.2090749 4287993226
-0.048013538 0.31809598 1.212068 4288059019
-0.045642402 0.31835076 1.2130517 4288256398
-0.043254908 0.31885606 1.2150398 4288453776
-0.040859919 0.31936139 1.2170281 4288519569
-0.038457427 0.31986672 1.2190162 4288650898
-0.036083896 0.31987101 1.2189951 4288782484
-0.033690263 0.32012582 1.2199785 4288782227
-0.031270899 0.32063118 1.2219664 4288848021
-0.028844036 0.32113656 1.2239543 4288979607
-0.026435401 0.3213914 1.2249377 4288979863
-0.024023019 0.32164624 1.2259209 4289045913
-0.021606887 0.32190111 1.2269042 4289045914
-0.019249711 0.32165486 1.2258782 4289111706
-0.016896285 0.3214086 1.2248524 4289111708
-0.014511506 0.32141292 1.2248311 4288849049
-0.012126727 0.32141721 1.2248098 4288783256
-0.0096253892 0.32217321 1.2278018 4288848794
-0.0071942578 0.32242811 1.2287849 4288848795
-0.0046315696 0.32343474 1.2327813 4288783515
-0.0020983596 0.3241908 1.235773 4288783515
0.00035339483 0.32444572 1.2367558 4288651929
0.0029535799 0.32545242 1.2407519 4288455066
0.0056188651 0.32670972 1.2457521 4288455066
0.0084068524 0.32846823 1.2527608 4288521116
-0.08081957 0.31686395 1.1983367 4286480757
-0.078423329 0.31585878 1.194296 4286875770
-0.076042086 0.31485358 1.1902553 4287072636
-0.073722929 0.31485775 1.1902347 4287270015
-0.07142356 0.31536666 1.1922238 4287401600
-0.069108672 0.31562319 1.1932079 4287401601
-0.066790029 0.31587976 1.1941921 4287335808
-0.064467646 0.31613633 1.1951761 4287533187
-0.062143903 0.31664526 1.197165 4287598467
-0.059812661 0.31715423 1.1991539 4287598467
-0.05747392 0.31766319 1.2011427 4287664261
-0.05513091 0.31791979 1.2021265 4287730054
-0.052779045 0.31842878 1.2041152 4287795847
-0.050405726 0.31944257 1.2081133 4288190606
-0.04802626 0.32020399 1.2111065 4288322448
-0.045657001 0.32046062 1.2120903 4288585364
-0.043271393 0.32096967 1.2140785 4288716950
-0.040878281 0.32147875 1.2160668 4288651413
-0.03846132 0.32224023 1.2190598 4288782741
-0.036087789 0.32224452 1.2190386 4288848534
-0.033694159 0.32250121 1.2200221 4288848535
-0.031296778 0.3227579 1.2210054 4288980122
-0.028871795 0.32326704 1.2229935 4289045915
-0.02646504 0.32352373 1.2239767 4289177501
-0.024026932 0.3240329 1.2259647 4289243294
-0.021610804 0.32428962 1.2269479 4289243550
-0.019253625 0.32404152 1.225922 4289178014
-0.016900197 0.32379338 1.2248962 4289178015
-0.014515417 0.32379767 1.2248749 4289112221
-0.012093663 0.32405442 1.2258581 4288980635
-0.0096293092 0.32456362 1.2278457 4288980380
-0.0071574561 0.32507282 1.2298332 4288915101
-0.0046355049 0.32583448 1.2328253 4288980894
-0.0021023043 0.3265962 1.2358172 4288652186
0.00034944716 0.32685298 1.2368001 4288652444
0.0029496199 0.32786718 1.2407962 4288587165
0.0055647912 0.32888138 1.2447921 4288521372
0.0082989084 0.33040056 1.2507967 4288586652
0.01084013 0.33090991 1.2527837 4288784031
-0.080788597 0.31868967 1.1963694 4287072895
-0.078380577 0.31742278 1.1913236 4287270274
-0.076004945 0.31641006 1.1872829 4287467908
-0.073691413 0.31641424 1.1872623 4287467907
-0.071407571 0.31718108 1.1902565 4287533700
-0.069096431 0.3174395 1.1912407 4287599493
-0.066775396 0.3174437 1.1912199 4287533444
-0.064462915 0.31795636 1.1932091 4287730567
-0.062142927 0.31846905 1.1951981 4287664774
-0.059814919 0.31872749 1.1961821 4287730055
-0.057481807 0.31924021 1.198171 4287795848
-0.055144425 0.31949869 1.199155 4287927435
-0.052793089 0.32026565 1.2021486 4288059022
-0.05043051 0.32103267 1.205142 4288322451
-0.048047829 0.32205397 1.2091403 4288585622
-0.045671597 0.32256675 1.2111287 4288783000
-0.043287866 0.32307956 1.2131172 4288783256
-0.040896639 0.32359236 1.2151055 4288849049
-0.03849791 0.3241052 1.2170938 4288914842
-0.036091682 0.32461804 1.2190821 4288980635
-0.033698052 0.32487661 1.2200656 4289046171
-0.031322647 0.3248809 1.2200444 4289111708
-0.028923396 0.32513946 1.2210279 4289309087
-0.026520392 0.32539806 1.2220112 4289243294
-0.024086041 0.32591093 1.2239993 4289243807
-0.021673664 0.32616955 1.2249825 4289243807
-0.019288886 0.32617384 1.2249612 4289309346
-0.016904106 0.32617813 1.2249399 4289244066
-0.014519327 0.32618245 1.2249186 4289112222
-0.012097577 0.32644105 1.2259018 4289046430
-0.0096720755 0.32669967 1.2268851 4289046687
-0.0072021042 0.32721263 1.2288727 4289046687
-0.0047246329 0.32772562 1.2308604 4288980895
-0.0022396622 0.32823858 1.2328478 4288849567
0.00025280748 0.32875159 1.2348353 4288849824
0.0028009973 0.32951891 1.2378272 4288718495
0.005410532 0.33054063 1.2418233 4288587165
0.0080350647 0.33156237 1.2458193 4288718751
0.010566906 0.33207542 1.2478064 4288850337
0.013217687 0.33309722 1.2518022 4288850338
-0.08079242 0.32102007 1.1964122 4287401860
-0.078368858 0.31948769 1.1903611 4287599239
-0.076022394 0.31897968 1.1883304 4287730824
-0.073706985 0.31898385 1.1883097 4287665031
-0.071411371 0.31950024 1.190299 4287665288
-0.069100238 0.31976053 1.1912832 4287599495
-0.066785358 0.32002082 1.1922674 4287731080
-0.064466722 0.32028115 1.1932516 4287730825
-0.062146746 0.32079756 1.1952407 4287730569
-0.059818737 0.32105789 1.1962248 4287796619
-0.057485636 0.32157436 1.1982138 4287862156
-0.055148255 0.32183468 1.1991978 4288059536
-0.052802026 0.32235119 1.2011867 4288125073
-0.050434358 0.32337993 1.2051852 4288454037
-0.048060536 0.32415259 1.2081786 4288717209
-0.045686185 0.32466912 1.2101672 4288783258
-0.04329174 0.32544184 1.2131605 4288849306
-0.040900517 0.32595837 1.2151489 4288849050
-0.038485449 0.32673112 1.2181422 4288914843
-0.036095574 0.32699156 1.2191256 4289111966
-0.033681855 0.32750815 1.2211139 4289177758
-0.031304576 0.32751244 1.2210927 4289309088
-0.028903449 0.32777289 1.2220762 4289309345
-0.026524294 0.32777718 1.2220548 4289309344
-0.024089949 0.32829383 1.2240429 4289375394
-0.021677576 0.3285543 1.2250262 4289309602
-0.019261453 0.32881477 1.2260096 4289375652
-0.0168748 0.3288191 1.2259883 4289310116
-0.014488145 0.32882339 1.2259669 4289112480
-0.012064522 0.32908389 1.2269502 4288980894
-0.0096371491 0.32934439 1.2279334 4289046688
-0.0072060269 0.32960489 1.2289166 4289046688
-0.0047285622 0.33012164 1.2309042 4288784030
-0.0022435978 0.33063835 1.2328919 4288718495
0.00024886592 0.33115509 1.2348794 4288850081
0.0027970467 0.33192807 1.2378714 4288784544
0.0053564762 0.33270106 1.2408632 4288784544
0.0079271551 0.33347407 1.2438549 4288916130
0.01045524 0.33399087 1.2458422 4288981923
0.013102259 0.33502015 1.2498381 4288916130
-0.080726624 0.32231858 1.1924345 4287665032
-0.078310542 0.32077494 1.1863834 4287665032
-0.075985223 0.32052115 1.1853577 4287862411
-0.073675439 0.32052532 1.1853371 4287730825
-0.071385466 0.32104546 1.1873264 4287730825
-0.06908799 0.3215656 1.1893158 4287796619
-0.066776857 0.32182777 1.1903001 4287862412
-0.064461976 0.32208994 1.1912843 4287796620
-0.062143348 0.32235211 1.1922686 4287730827
-0.059821498 0.32287231 1.1942577 4287862413
-0.057492152 0.32339251 1.1962467 4287993999
-0.055158522 0.32365471 1.1972308 4288125329
-0.052816052 0.32417494 1.1992198 4288322452
-0.050452143 0.3252112 1.2032185 4288322451
-0.04808208 0.32598945 1.206212 4288651673
-0.045722205 0.32625172 1.2071959 4288783515
-0.043333393 0.32703003 1.2101893 4288849308
-0.040947802 0.32755032 1.212178 4288783515
-0.038554709 0.32807064 1.2141664 4289046687
-0.036172338 0.32833293 1.2151501 4289178016
-0.033766121 0.32885328 1.2171385 4289243553
-0.031352408 0.32937363 1.2191268 4289375139
-0.028955035 0.32963595 1.2201103 4289309347
-0.02657963 0.32964024 1.2200891 4289309347
-0.024176633 0.32990256 1.2210726 4289375653
-0.021769887 0.33016491 1.222056 4289375653
-0.019328048 0.33068532 1.2240441 4289375653
-0.016945144 0.33068961 1.2240227 4289375910
-0.014527149 0.33095199 1.2250061 4289178530
-0.012105404 0.33121434 1.2259895 4289112481
-0.0097187506 0.33121866 1.2259681 4288981153
-0.0073320963 0.33122295 1.2259468 4289046946
-0.0048602619 0.33174342 1.2279346 4288981667
-0.0023809283 0.33226389 1.2299223 4288916130
5.9565009e-05 0.3325263 1.2309054 4288850337
0.0026002373 0.33330485 1.2338976 4288784544
0.0051020687 0.33382538 1.235885 4288784544
0.0076633641 0.334604 1.2388769 4288916130
0.01018207 0.33512452 1.2408644 4288916130
0.012763987 0.3359032 1.2438561 4289047717
-0.080643401 0.32334226 1.1874516 4287730827
-0.078236669 0.32178739 1.1814003 4287796619
-0.075948037 0.32205138 1.1823847 4287862412
-0.073655657 0.32231539 1.1833693 4287796618
-0.071369439 0.32283926 1.1853588 4287730826
-0.069075719 0.32336316 1.1873482 4287862413
-0.066768341 0.32362717 1.1883326 4287862413
-0.064452931 0.32363135 1.1883119 4287928206
-0.062139932 0.32389539 1.1892962 4287994000
-0.059823714 0.32441932 1.1912855 4287994001
-0.057499997 0.32494327 1.1932746 4288059794
-0.055171996 0.32520735 1.1942588 4288322966
-0.052830063 0.32599118 1.1972528 4288454552
-0.050476883 0.32677504 1.2002467 4288520345
-0.048112456 0.32755893 1.2032405 4288585882
-0.045758206 0.32782307 1.2042245 4288783517
-0.043387618 0.32834709 1.2062132 4288980895
-0.02189164 0.33150434 1.2180808 4289310375
-0.019457309 0.33202848 1.2200691 4289244582
-0.01704869 0.33229271 1.2210524 4289310375
-0.014636324 0.33255693 1.2220359 4289178789
-0.012220206 0.33282116 1.2230192 4288981410
-0.0098780142 0.33256552 1.2219933 4288981666
-0.0074581471 0.33282974 1.2229767 4289047459
-0.0050345305 0.333094 1.22396 4288981923
-0.0025627022 0.33361819 1.2259479 4288981923
-0.00012971132 0.33388248 1.2269311 4288981923
0.0023552408 0.3344067 1.2289189 4288916130
0.0047976058 0.33467099 1.229902 4288850337
0.0073476429 0.33545521 1.2328942 4288916131
0.0098012565 0.3357195 1.2338772 4288981924
-0.082960732 0.32565162 1.1875147 4287730827
-0.08056014 0.32434723 1.1824682 4287730827
-0.078193836 0.32330447 1.1784271 4287730827
-0.075924493 0.32383206 1.1804168 4287796620
-0.073635869 0.32409796 1.1814014 4287796620
-0.071353406 0.32462558 1.183391 4287862413
-0.06906344 0.3251532 1.1853805 4287796878
-0.066765979 0.32568085 1.1873699 4287796879
-0.06445244 0.32568502 1.1873493 4287797136
-0.062138908 0.3256892 1.1873287 4287928722
-0.059825908 0.32595509 1.188313 4287994515
-0.05750782 0.32648277 1.1903023 4288191894
-0.055185448 0.32674873 1.1912866 4288191637
-0.052849151 0.32753819 1.1942807 4288454809
-0.050508566 0.3280659 1.1962699 4288520602
-0.048151646 0.3288554 1.1992638 4288717724
-0.029129675 0.33255419 1.213164 4289178789
-0.026767394 0.33255845 1.2131428 4289178789
-0.024377527 0.33282453 1.2141265 4289244582
-0.02198391 0.33309057 1.2151101 4289178789
-0.019586544 0.33335665 1.2160937 4289178789
-0.017185429 0.33362272 1.2170773 4289244582
-0.014780564 0.33388883 1.2180607 4289112996
-0.012371949 0.3341549 1.2190442 4289047203
-0.0099984184 0.3341592 1.219023 4289047459
-0.0075841793 0.3344253 1.2200065 4288981923
-0.0051661902 0.33469141 1.2209898 4289047716
-0.0027444514 0.33495754 1.2219733 4288981923
-0.00031896305 0.33522364 1.2229565 4289047717
0.002110275 0.33548978 1.2239399 4288916131
-0.075887278 0.32534167 1.1774435 4287730828
-0.073604278 0.32560942 1.1784282 4287796621
-0.071327448 0.32614079 1.1804179 4287928208
-0.069043115 0.32667214 1.1824075 4287862672
-0.066751279 0.32720351 1.1843971 4287797136
-0.064443365 0.32720768 1.1843765 4287928722
-0.062135458 0.32721186 1.184356 4287994515
-0.059828084 0.32747963 1.1853403 4288126101
-0.057516966 0.32774743 1.1863247 4288126101
-0.055198886 0.32827887 1.1883141 4288257687
