# .PCD v0.7 - Point Cloud Data file format
VERSION 0.7
FIELDS x y z rgba
SIZE 4 4 4 4
TYPE F F F U
COUNT 1 1 1 1
WIDTH 109
HEIGHT 1
VIEWPOINT 0 0 0 1 0 0 0
POINTS 109
DATA ascii
-0.013489231 0.30471146 1.0085958 11645866
-0.0057847123 0.30331859 1.0076618 11514024
-0.02267007 0.28613722 1.0178814 7961206
-0.015831945 0.28539976 1.0166595 6053209
-0.0075021898 0.28572878 1.0182714 7105640
-0.023824543 0.29477903 1.0171833 9606031
-0.015401037 0.29500744 1.0139183 8816770
-0.0073256209 0.29509875 1.0142407 8750720
-0.022347484 0.30565923 1.0173194 11645867
-0.016254822 0.30277121 1.0132258 11514023
-0.0049995445 0.30125913 1.0107319 11382437
-0.025774149 0.31004882 1.0196811 11711918
-0.0056257909 0.27945417 1.0265126 5921623
-0.032530248 0.28516307 1.0274122 7435119
-0.026828879 0.28457785 1.0233912 6316125
-0.015477565 0.28061146 1.0250505 6645090
-0.0039816299 0.28434542 1.0229385 6513758
-0.032555815 0.29411992 1.0271517 9145481
-0.028658664 0.29491448 1.0226302 7105898
-0.0016284254 0.29062653 1.021109 6974309
-0.032541811 0.3014642 1.0283363 10330265
-0.026705638 0.30542707 1.0236645 11645611
-0.031515483 0.31089926 1.0297502 11908784
-0.028986517 0.31061983 1.0240546 11777455
-0.0047386675 0.26643834 1.037697 9342603
-0.021737276 0.27811557 1.0377301 7500400
-0.015149666 0.27737528 1.0354115 5394767
-0.0056373919 0.27754793 1.0339079 6645090
-0.03440601 0.28501171 1.0333025 7303276
-0.024359088 0.28151724 1.0348631 8223610
-0.035786487 0.29606968 1.0331843 6974312
-0.034893624 0.30617368 1.0349617 11053987
-0.041448455 0.31374255 1.0398935 11975090
-0.036888294 0.31157181 1.0352405 11843247
-0.012531723 0.26870334 1.0461435 9145995
-0.0070704999 0.26829258 1.0422529 9934997
0.0015365488 0.26743364 1.0406597 8421242
0.059034672 0.26530868 1.0478568 3158574
0.06144616 0.26702905 1.0464497 3026987
-0.023157837 0.27688274 1.0433048 9277069
-0.014829827 0.27256903 1.0436345 8158587
-0.0050260327 0.27380663 1.0433813 8487038
0.0017561427 0.27045521 1.0447139 9342345
0.063791603 0.27179149 1.0491831 3224621
-0.026065322 0.28154755 1.0406657 9473678
-0.039289732 0.30829102 1.0457754 11646125
-0.041412517 0.31227317 1.0418667 11778225
-0.039331127 0.31079999 1.0438215 11711917
0.010878302 0.26883098 1.0591054 9736845
0.026922373 0.26689392 1.0583009 5592400
0.035048511 0.26654571 1.0541791 3224365
0.045668975 0.26657069 1.0533842 3158829
0.05535128 0.26552531 1.0529094 3224366
0.02752668 0.27002025 1.0594779 13356488
0.035055034 0.27138212 1.0564348 2369057
0.045870047 0.27158585 1.0556748 3093036
0.055956323 0.27278414 1.0549092 3027243
0.062363602 0.27475071 1.0550014 3158828
0.065929621 0.28670794 1.0594394 2698277
0.0283297 0.25985664 1.0692866 4277309
0.030425755 0.2598604 1.0692677 3750709
0.008592017 0.26617613 1.0669122 8618621
0.015957242 0.26596019 1.0636257 6315609
0.024724426 0.26380685 1.06339 8487035
0.034317523 0.26261231 1.0657825 3422258
0.044613618 0.26392621 1.064114 3356209
0.050486155 0.26406524 1.0601631 3553331
0.01574045 0.27281418 1.0658863 8224120
0.025420982 0.27206945 1.0631065 11777199
0.048486907 0.2747024 1.0613762 3158828
0.054449022 0.27816617 1.0645298 2961449
0.06414447 0.27901706 1.061815 3027242
0.048958104 0.28428933 1.0665488 3553586
0.056569409 0.28491762 1.0670307 3027242
0.064059362 0.2842778 1.0639126 2764327
0.016021276 0.24715212 1.0757109 11251367
0.024434615 0.24629524 1.075074 4145982
0.032389861 0.24785636 1.0774319 3159089
0.0140086 0.25473252 1.0746263 12763836
0.024512278 0.25486448 1.0714678 7303531
0.033264387 0.25511435 1.074844 3356208
0.008290071 0.26347217 1.0749623 12697788
0.01413496 0.26219109 1.073912 12105651
0.022604195 0.26072603 1.0713543 10855327
0.036604252 0.2611191 1.0728362 3225135
0.045186859 0.26243433 1.0751839 3355952
0.050066311 0.26173484 1.0771277 2829608
0.017894221 0.27475315 1.0706533 9408650
0.0493563 0.27900577 1.0704492 3356207
0.049351141 0.28215265 1.0705069 3290414
0.053021658 0.28268373 1.0704838 3093035
0.024676571 0.23905239 1.0899423 3882813
0.008436745 0.24787667 1.086749 12369591
0.01442631 0.24458213 1.0848013 9803665
0.025374163 0.24122505 1.0850748 3817019
0.033773638 0.24459477 1.0838611 2961966
0.0081447707 0.25428319 1.082168 12829886
0.037962765 0.2546868 1.0835084 3290673
0.042990334 0.25905922 1.0863941 3093037
0.008146245 0.26068819 1.0824854 13289924
0.039777406 0.26028925 1.0801941 3422515
0.045276124 0.26081216 1.0824049 3092780
0.018560279 0.23884891 1.0942444 4474949
0.025141908 0.23712651 1.0961541 3356983
0.031422056 0.23887163 1.0941293 3027759
0.014503904 0.2416546 1.0924151 10922403
0.034364536 0.24141453 1.090899 3027502
0.023846215 0.23598611 1.1028963 3422775
0.030883456 0.23703265 1.1008519 3093552
