# .PCD v0.7 - Point Cloud Data file format
VERSION 0.7
FIELDS x y z rgba
SIZE 4 4 4 4
TYPE F F F U
COUNT 1 1 1 1
WIDTH 802
HEIGHT 1
VIEWPOINT 0 0 0 1 0 0 0
POINTS 802
DATA ascii
0.47411841 0.29779959 1.1970118 4286349690
0.47860426 0.29898518 1.2019944 4286283897
0.48397031 0.30064335 1.2089782 4286283897
0.48869863 0.30065188 1.208936 4286086518
0.49106279 0.30065614 1.2089148 4286217590
0.49298874 0.30042413 1.207893 4286480762
0.46964747 0.29894629 1.1920719 4286414969
0.47411457 0.30014122 1.1970549 4286283383
0.47731391 0.30062175 1.1990354 4286283383
0.4826743 0.30229303 1.2060194 4286283383
0.4863306 0.30301178 1.2090005 4286349176
0.4882603 0.30277789 1.2079786 4286414712
0.49062258 0.30278215 1.2079575 4286414456
0.46516356 0.30270597 1.1981823 4286612348
0.4666644 0.30223018 1.1961597 4286414969
0.46773458 0.30151436 1.1931363 4286480762
0.47006872 0.30151856 1.1931155 4286414969
0.4732568 0.30200282 1.1950963 4286349176
0.47602355 0.30224708 1.1960762 4286414969
0.48094758 0.30369145 1.2020596 4286611835
0.48546153 0.30489585 1.2070423 4286875007
0.4895598 0.30586025 1.211024 4286743421
0.46725699 0.30625892 1.2032297 4286546299
0.46792457 0.30529562 1.1992053 4286480249
0.46900037 0.30457416 1.1961818 4286546042
0.47134015 0.30457839 1.1961608 4286611835
0.47325298 0.30434072 1.1951392 4286677628
0.47559088 0.30434495 1.1951182 4286875007
0.4796516 0.30531678 1.1991005 4287138179
0.48459253 0.30677244 1.2050841 4286611835
0.48825255 0.30750242 1.2080653 4284967010
0.49061483 0.30750668 1.2080442 4282203704
0.46683368 0.30836806 1.2022719 4286743421
0.46792072 0.307641 1.1992483 4286743421
0.46984294 0.30740148 1.1982265 4287072386
0.47261155 0.30764946 1.1992064 4287072386
0.47410303 0.30716616 1.1971837 4285822319
0.47515821 0.30643907 1.1941603 4283782736
0.47878635 0.30717459 1.1971419 4281743153
0.48285833 0.30815396 1.2011242 4279571984
0.48607638 0.30864576 1.2031047 4279571984
0.48886564 0.3088938 1.2040845 4279769363
0.49209681 0.30938563 1.2060649 4279966742
0.49533552 0.30987746 1.2080454 4280164121
0.49813974 0.31012553 1.2090249 4279966999
0.46197334 0.30924106 1.1963303 4287006593
0.46431312 0.30924529 1.1963094 4287072386
0.46581024 0.30875823 1.1942866 4285822319
0.46899268 0.30925372 1.1962676 4283322185
0.47218263 0.30974922 1.1982485 4281151016
0.47367224 0.30926216 1.1962258 4279506191
0.47558323 0.30902073 1.195204 4279900949
0.47878253 0.30951625 1.1971848 4279769363
0.4824219 0.31025743 1.2001663 4280229914
0.48433474 0.31001601 1.1991446 4280164377
0.48711649 0.3102659 1.2001245 4279967255
0.48990196 0.31051582 1.2011043 4279967255
0.49269119 0.31076571 1.2020841 4279769876
0.49592611 0.3112613 1.2040645 4279572754
0.49872473 0.31151122 1.2050443 4279572754
0.4620145 0.30886665 1.1853207 4280032535
0.46602646 0.30986089 1.1893039 4280098328
0.46962833 0.31060764 1.1922859 4279966742
0.47153369 0.31036434 1.1912642 4279966742
0.47386408 0.31036854 1.1912433 4279769876
0.47705588 0.31086779 1.1932242 4279704083
0.47982264 0.31111953 1.1942042 4279638804
0.48128977 0.31062868 1.1921817 4279638804
0.48362204 0.31063288 1.1921608 4279573011
0.48595431 0.31063709 1.19214 4279573011
0.48872668 0.31088886 1.19312 4279573011
0.49282864 0.31188324 1.1971023 4279507218
0.49605793 0.31238258 1.1990829 4279573011
0.49974042 0.31312945 1.2020642 4279573011
0.46432987 0.31118998 1.1853426 4279704083
0.46749917 0.31169295 1.1873238 4279769876
0.47024903 0.31194654 1.1883041 4279704083
0.47257382 0.31195074 1.1882832 4279638804
0.47532928 0.31220433 1.1892633 4279638804
0.47765595 0.31220853 1.1892426 4279573011
0.47911373 0.3117139 1.1872201 4279507218
0.48143661 0.31171811 1.1871994 4279507218
0.48332134 0.31147286 1.1861777 4279507218
0.48652253 0.3119759 1.1881586 4279573011
0.49017313 0.31272835 1.1911403 4279441938
0.49339119 0.31323141 1.1931211 4279507475
0.49706241 0.31398392 1.1961026 4279507731
0.50074488 0.31473643 1.199084 4279507731
0.50443864 0.31548896 1.2020652 4279573524
0.64679211 0.31947511 1.215865 4286086518
0.6486131 0.31922978 1.214844 4286876034
0.65043032 0.31898442 1.213823 4286941827
0.65280569 0.31898871 1.2138017 4286415483
0.65518111 0.318993 1.2137805 4286547069
0.65699083 0.31874764 1.2127596 4286151797
0.65652657 0.31750369 1.2077398 4285954418
0.65661299 0.31650934 1.2037201 4286809471
0.45671219 0.31449741 1.1894723 4279572754
0.4582037 0.31399909 1.1874495 4279638547
0.46094605 0.31425455 1.1884297 4279507218
0.46327084 0.31425872 1.188409 4279507218
0.46601883 0.31451419 1.1893892 4279573011
0.46877056 0.31476966 1.1903695 4279573011
0.47067216 0.31452259 1.1893476 4279507218
0.47342762 0.31477806 1.1903279 4279507218
0.47532547 0.31453097 1.1893061 4279507218
0.47721955 0.31428391 1.1882844 4279573011
0.47867545 0.31378552 1.1862618 4279441681
0.48012388 0.31328714 1.1842393 4279441938
0.48200297 0.31304002 1.1832176 4279441938
0.48475844 0.31329548 1.1841978 4279507731
0.48751765 0.31355098 1.1851779 4279507731
0.49205589 0.31481165 1.1901615 4279507731
0.49572152 0.31556976 1.193143 4279507732
0.49939835 0.3163279 1.1961247 4279441939
0.50218761 0.31658342 1.1971045 4279573524
0.50498056 0.31683898 1.1980844 4279573524
0.50868368 0.31759715 1.2010657 4279573524
0.64424008 0.32285166 1.2199506 4280033562
0.64330018 0.32134697 1.2139301 4279836183
0.64345038 0.32034525 1.2099097 4280362527
0.6452601 0.32009801 1.2088886 4281941559
0.64594597 0.31934774 1.2058681 4282862661
0.64718252 0.31884897 1.2038475 4283586384
0.65010297 0.31910473 1.2048262 4283849556
0.65359288 0.31961203 1.2068046 4283783249
0.65652269 0.31986782 1.2077832 4283914835
0.65717858 0.31911752 1.2047631 4283717456
0.46028772 0.31758764 1.1924976 4279441425
0.4634589 0.3180981 1.1944789 4279573011
0.46579492 0.31810233 1.194458 4279441425
0.46813095 0.31810653 1.1944371 4279507218
0.47004193 0.31785759 1.1934153 4279375632
0.47237608 0.31786183 1.1933944 4279507218
0.47471026 0.31786603 1.1933736 4279507218
0.47618303 0.31736392 1.1913507 4279441425
0.47721574 0.31660867 1.188327 4279441938
0.47823721 0.31585339 1.1853033 4279507731
0.48012006 0.31560442 1.1842817 4279441938
0.48156098 0.31510225 1.1822592 4279441938
0.48431456 0.31535959 1.1832395 4279507731
0.48662999 0.31536376 1.1832187 4279507731
0.48938921 0.31562114 1.1841989 4279639318
0.49259788 0.31613165 1.1861799 4279639062
0.49536645 0.31638902 1.18716 4279573271
0.49768937 0.31639323 1.1871393 4279441941
0.5004636 0.3166506 1.1881193 4279573525
0.5050543 0.31792074 1.1931025 4280165661
0.50966376 0.31919095 1.1980854 4280626725
0.538311 0.32201874 1.2088827 4285363828
0.5387724 0.32101008 1.2048593 4285231473
0.54017395 0.32050785 1.2028371 4285034095
0.5425269 0.32051209 1.202816 4285165680
0.5453611 0.32076958 1.2037956 4281743931
0.63671887 0.32396287 1.2150373 4280099615
0.63689345 0.3229537 1.2110164 4280626213
0.64202601 0.32422483 1.2159948 4281086508
0.64274186 0.32346898 1.2129738 4281086250
0.64289016 0.32245976 1.2089533 4280625700
0.64469802 0.32221064 1.2079322 4279967769
0.64538205 0.32145476 1.2049116 4279507218
0.6460548 0.32069883 1.2018911 4279573011
0.6484077 0.32070309 1.2018701 4280954407
0.65189195 0.32121411 1.2038486 4282270010
0.65595126 0.32197857 1.2068268 4283322698
0.65774411 0.32172942 1.205806 4281414701
0.65724802 0.32046667 1.2007862 4279704083
0.47937474 0.32020858 1.1933746 4279507731
0.47910228 0.31868261 1.1873479 4279441938
0.48098889 0.31843176 1.1863261 4279507731
0.48287174 0.31818089 1.1853045 4279441938
0.48431078 0.31767499 1.1832819 4279507731
0.48618424 0.31742412 1.1822603 4279507731
0.48849779 0.31742829 1.1822397 4279705110
0.49081132 0.31743246 1.1822189 4279639317
0.4926773 0.31718159 1.1811974 4279770903
0.49453953 0.31693071 1.1801759 4280757798
0.49730062 0.31718993 1.1811562 4281481521
0.5018782 0.31846943 1.1861396 4282402880
0.50692958 0.32000405 1.1921237 4284114011
0.51200348 0.32153869 1.1981075 4284311390
0.51480579 0.321798 1.1990874 4284771941
0.51899397 0.32282254 1.2030694 4284706148
0.53594297 0.32437861 1.2089472 4285626999
0.53735954 0.32387269 1.2069248 4285889657
0.53781718 0.32285652 1.2029012 4285626229
0.53921503 0.32235053 1.200879 4285363057
0.54108471 0.32209966 1.1998575 4285165678
0.54295069 0.32184878 1.1988358 4283784025
0.54529613 0.32185298 1.198815 4280099615
0.54715645 0.32160211 1.1977935 4278586630
0.5480392 0.32084095 1.1947709 4278652423
0.5493995 0.32033491 1.192749 4278915594
0.54928029 0.31906343 1.1877258 4279573524
0.55608851 0.31780449 1.1826407 4286020985
0.5599041 0.3185741 1.1856211 4285626227
0.56172317 0.31832314 1.1846 4285560434
0.62071025 0.32326028 1.2031655 4285232493
0.62415141 0.32377499 1.2051445 4285626481
0.6254198 0.32326877 1.2031235 4284310621
0.63451976 0.32531917 1.2110811 4281020971
0.63523751 0.32455772 1.2080601 4280165662
0.63815427 0.32481724 1.2090389 4279836697
0.64107472 0.32507676 1.2100177 4279901977
0.64344263 0.32508102 1.2099966 4280099356
0.64581048 0.32508531 1.2099754 4280362528
0.64705831 0.32457906 1.2079545 4280559906
0.64773673 0.32381752 1.2049338 4280690978
0.64953142 0.32356653 1.203913 4280230684
0.65245378 0.32382604 1.2048917 4280033048
0.65651494 0.32459611 1.20787 4279835926
0.6588791 0.32460037 1.2078489 4279704340
0.66067195 0.32434934 1.206828 4279441168
0.66016835 0.3230772 1.2018081 4279112717
0.48593521 0.32229847 1.192354 4280099868
0.48650727 0.321275 1.1883292 4280626212
0.48794818 0.32076535 1.1863066 4281020970
0.48982543 0.32051259 1.1852849 4282139451
0.49169889 0.32025987 1.1842632 4283323725
0.49312106 0.31975016 1.1822407 4284245084
0.49453574 0.31924048 1.1802182 4284574562
0.49684551 0.31924465 1.1801976 4284837734
0.50051486 0.32001963 1.1831796 4284903527
0.50510556 0.32130852 1.188163 4285035113
0.50925803 0.32234052 1.1921456 4284969320
0.51204914 0.32260168 1.1931256 4285231979
0.51576531 0.32337674 1.196107 4285297772
0.51949281 0.32415184 1.1990885 4285429358
0.52416033 0.32544088 1.2040713 4285560687
0.5274477 0.32595909 1.2060517 4285758066
0.53027445 0.3262203 1.2070314 4285758067
0.53263485 0.32622457 1.2070103 4285758326
0.53405142 0.32571486 1.2049878 4285890169
0.53546041 0.32520515 1.2029654 4286021244
0.53686202 0.32469544 1.2009431 4286020987
0.5387336 0.32444268 1.1999215 4286020987
0.54060143 0.32418993 1.1988999 4285626229
0.54246557 0.32393718 1.1978784 4285099885
0.54384273 0.32342741 1.1958562 4283981402
0.54569745 0.32317463 1.1948347 4281284143
0.54803538 0.32317886 1.1948138 4279178766
0.54939568 0.32266906 1.1927919 4278652422
0.54878575 0.3211312 1.1867679 4279244559
0.54864591 0.31985033 1.1817447 4279047180
0.54997063 0.31934047 1.179723 4279112973
0.55459017 0.31934881 1.1796818 4282862921
0.55840009 0.32012406 1.1826624 4285099883
0.56071556 0.32012823 1.1826417 4285757813
0.6096859 0.32482681 1.2002925 4286087032
0.61042804 0.32405975 1.1972711 4286152825
0.61277157 0.32406399 1.1972502 4285956216
0.61565453 0.32432532 1.1982293 4286152825
0.61908251 0.32484373 1.2002085 4286087032
0.62197483 0.3251051 1.2011876 4286152825
0.62432587 0.32510933 1.2011666 4286021239
0.62722379 0.32537067 1.2021456 4286087032
0.63012552 0.32563204 1.2031246 4286218618
0.63248032 0.3256363 1.2031035 4286021239
0.63649273 0.3264119 1.2060825 4285823860
0.64107084 0.32744464 1.2100611 4284902245
0.64566392 0.32847744 1.2140397 4283849557
0.64859748 0.32873884 1.2150184 4280691493
0.6515348 0.32900026 1.2159971 4279967770
0.65335202 0.32874742 1.214976 4280033819
0.65403795 0.32798028 1.2119551 4279704854
0.65697527 0.32824171 1.2129338 4279441681
0.65934879 0.328246 1.2129126 4279375632
0.6611529 0.32799312 1.2118915 4279244302
0.66295326 0.32774025 1.2108705 4279112973
0.66360354 0.32697305 1.20785 4279113230
0.66539264 0.32672015 1.2068291 4279113230
0.6700626 0.32775307 1.210807 4279376145
0.48971209 0.32412153 1.190353 4284442206
0.49159682 0.32386693 1.1893313 4284968550
0.49347779 0.32361233 1.1883096 4285165929
0.49445993 0.32284012 1.1852859 4285034343
0.4954308 0.32206786 1.1822625 4285166186
0.49774435 0.32207203 1.1822418 4285364078
0.50096422 0.32259384 1.1842229 4285298285
0.50464666 0.32337448 1.1872048 4285495149
0.50834036 0.32415515 1.1901866 4285692273
0.51112771 0.32441819 1.1911666 4285692273
0.51437944 0.32494003 1.1931475 4285626480
0.51810127 0.32572076 1.1961291 4285758066
0.52229875 0.32676032 1.2001113 4285823859
0.52557868 0.32728222 1.2020919 4285758066
0.52886605 0.32780415 1.2040724 4286152824
0.53075075 0.32754958 1.2030506 4286087031
0.53215981 0.32703611 1.2010281 4286087291
0.53403521 0.32678148 1.2000065 4286153341
0.53543109 0.32626802 1.1979841 4286284159
0.53729707 0.32601339 1.1969625 4286218366
0.53915936 0.32575873 1.195941 4286086779
0.54101783 0.32550409 1.1949193 4285823606
0.54287255 0.32524943 1.1938978 4285758067
0.54472351 0.32499477 1.1928765 4285363308
0.54705769 0.32499897 1.1928556 4283521104
0.54939187 0.32500321 1.1928347 4280099868
0.55025399 0.32423076 1.1898122 4278652422
0.5511049 0.32345828 1.1867898 4278718215
0.55243891 0.3229447 1.184768 4279705110
0.55376548 0.32243109 1.1827463 4279770391
0.55508459 0.32191747 1.1807246 4279507219
0.55789626 0.32218054 1.1817044 4279507219
0.56071174 0.32244363 1.1826842 4279441685
0.56453854 0.32322451 1.1856648 4280099615
0.56787091 0.32374653 1.187645 4281941819
0.56968814 0.32349181 1.1866238 4283191886
0.57150167 0.32323709 1.1856027 4285034090
0.57382268 0.32324126 1.1855819 4285625970
0.57717007 0.32376331 1.1875619 4285823095
0.58000988 0.32402644 1.1885414 4286217853
0.58233654 0.32403064 1.1885207 4286546818
0.58466321 0.32403481 1.1884998 4286547072
0.58751053 0.32429796 1.1894794 4286612611
0.5903616 0.32456109 1.1904588 4286481538
0.59164321 0.32404742 1.1884375 4286744710
0.59344357 0.32379267 1.1874164 4286613122
0.59682465 0.32431474 1.1893961 4286613122
0.59968323 0.32457793 1.1903756 4286810501
0.60414135 0.32561794 1.1943555 4286744962
0.60701305 0.32588112 1.1953348 4286810755
0.60828149 0.32536742 1.1933135 4286876548
0.61061752 0.32537162 1.1932926 4286876548
0.61403239 0.32589379 1.195272 4286810755
0.61907864 0.3271929 1.2002516 4286679169
0.62197095 0.32745612 1.2012308 4286613376
0.62377697 0.32720137 1.2002096 4286547583
0.62557918 0.32694662 1.1991886 4286481790
0.62792647 0.32695085 1.1991676 4286350204
0.63082445 0.32721409 1.2001467 4285692274
0.63538378 0.32825431 1.2041258 4284771172
0.64106691 0.32981256 1.2101046 4283521105
0.64732891 0.33162984 1.2170832 4281020971
0.65082628 0.33215213 1.2190619 4279968283
0.65545118 0.33319247 1.2230402 4279573526
0.65784347 0.33319679 1.2230189 4279310610
0.65854436 0.33242407 1.2199978 4279047694
0.66093105 0.33242837 1.2199764 4278850059
0.66218263 0.33191463 1.2179555 4278784265
0.6634267 0.33140087 1.2159344 4279047693
0.66637713 0.3316642 1.216913 4278718985
0.66531914 0.33011431 1.2108928 4278653192
0.6671139 0.32985952 1.2098719 4279573781
0.67178947 0.33089995 1.2138498 4280757798
0.49902242 0.32646686 1.1903126 4285692529
0.50270486 0.32725313 1.1932946 4285758320
0.50503898 0.32725734 1.1932738 4285758320
0.50600803 0.32647946 1.1902502 4285824113
0.50787961 0.32622299 1.1892285 4285889394
0.51066506 0.32648787 1.1902086 4285823346
0.51437563 0.32727417 1.1931903 4285954932
0.51809746 0.32806051 1.196172 4285955189
0.52136606 0.32858616 1.1981528 4286021238
0.52417588 0.3288511 1.1991326 4286218360
0.52698946 0.32911605 1.2001125 4286284154
0.52839667 0.32859886 1.19809 4286284411
0.52979636 0.32808164 1.1960675 4286350717
0.53118855 0.32756439 1.1940451 4286350720
0.53209758 0.3267864 1.191022 4286350720
0.534428 0.3267906 1.1910013 4286547329
0.53627896 0.32653406 1.1899798 4286415743
0.53908879 0.32679901 1.1909596 4286547583
0.54093605 0.32654247 1.1899382 4286284410
0.54326457 0.32654667 1.1899173 4286087031
0.54607999 0.32681164 1.1908971 4286152824
0.54938799 0.32733735 1.1928775 4286284410
0.55172217 0.32734156 1.1928567 4282008378
0.55307126 0.32682425 1.1908346 4279178766
0.55490726 0.32656768 1.1898133 4279112973
0.55574691 0.32578957 1.1867909 4279507218
0.55707347 0.3252722 1.1847692 4280296734
0.55939263 0.3252764 1.1847484 4280691493
0.56120986 0.32501981 1.1837271 4281546802
0.5650385 0.32580632 1.1867079 4281086764
0.56837279 0.32633209 1.188688 4280363041
0.56968433 0.32581469 1.1866664 4280099869
0.57149786 0.3255581 1.1856452 4279902236
0.57279629 0.3250407 1.1836237 4279901979
0.57562673 0.32530567 1.1846033 4279638809
0.57949102 0.32609227 1.1875837 4279441173
0.58233273 0.32635728 1.1885633 4279375635
0.5851782 0.32662228 1.1895429 4280362530
0.58750671 0.32662648 1.189522 4280888363
0.58983523 0.32663068 1.1895013 4281480757
0.59111494 0.32611325 1.1874799 4281941819
0.59238714 0.3255958 1.1854585 4282139197
0.59523636 0.3258608 1.1864381 4282797384
0.59861934 0.32638666 1.1884178 4283191885
0.60307366 0.32743418 1.192398 4283126347
0.60594165 0.32769921 1.1933773 4283257933
0.60720634 0.32718176 1.1913561 4283652691
0.60953861 0.32718596 1.1913352 4283257933
0.61348915 0.32797271 1.1943148 4282665797
0.61799222 0.32902032 1.1982944 4282073659
0.62142396 0.32954627 1.2002738 4281415729
0.62322807 0.32928964 1.1992526 4281086764
0.6244815 0.32877216 1.1972315 4280165662
0.62737387 0.32903725 1.1982106 4279639317
0.63026994 0.32930237 1.1991898 4278784008
0.63482738 0.33035007 1.2031689 4278849801
0.64106303 0.33218044 1.210148 4278981388
0.64732498 0.33401084 1.2171268 4278981388
0.65082234 0.33453691 1.2191056 4278981644
0.65854049 0.3348107 1.2200416 4278785036
0.66092712 0.334815 1.2200203 4279903260
0.66161114 0.33403662 1.2169992 4282074685
0.66342276 0.33378002 1.215978 4282535236
0.66637319 0.3340452 1.2169567 4281482547
0.66818106 0.3337886 1.2159356 4280495396
0.66998518 0.33353198 1.2149144 4280166175
0.50691426 0.32933313 1.1922948 4286020979
0.50696194 0.32802448 1.1872693 4286086772
0.50974369 0.32829124 1.1882495 4286152567
0.51345044 0.32908317 1.1912314 4286218104
0.51670599 0.32961255 1.1932123 4286218104
0.51950455 0.32987934 1.1941923 4286283897
0.52230686 0.33014613 1.1951723 4286218617
0.52511293 0.33041295 1.1961522 4286481789
0.52698267 0.33015457 1.1951305 4286613375
0.52790487 0.32937101 1.1921072 4286679169
0.52881575 0.32858738 1.1890841 4286678915
0.52923971 0.32754117 1.1850603 4286876037
0.53155887 0.32754534 1.1850395 4286810501
0.53387803 0.32754952 1.1850189 4286744708
0.5371598 0.32807896 1.1869996 4286876548
0.53996587 0.32834575 1.1879795 4286744962
0.54229069 0.32834995 1.1879587 4286679168
0.54510236 0.32861677 1.1889386 4286679168
0.5484066 0.32914624 1.190919 4286547582
0.55073702 0.32915044 1.1908983 4286547582
0.55257487 0.32889199 1.1898768 4286810754
0.55440903 0.32863355 1.1888554 4286021238
0.55524677 0.32784984 1.185833 4283257932
0.55756783 0.32785401 1.1858122 4280823591
0.55988884 0.32785821 1.1857915 4279770903
0.5622099 0.32786238 1.1857708 4279638805
0.56553853 0.32839188 1.1877511 4279507475
0.5688746 0.32892141 1.1897312 4279376146
0.57069564 0.32866293 1.18871 4279902489
0.57200342 0.32814181 1.1866882 4280230942
0.57279247 0.32735798 1.1836662 4280230944
0.57510978 0.32736215 1.1836455 4280165150
0.5794872 0.32841703 1.1876264 4280033565
0.58232892 0.32868391 1.188606 4279770393
0.58517438 0.32895079 1.1895856 4279441428
0.58802354 0.3292177 1.1905651 4279375634
0.58983141 0.3289592 1.189544 4279178255
0.59163553 0.32870072 1.1885228 4279047181
0.59290963 0.32817951 1.1865015 4278981388
0.5957607 0.32844639 1.187481 4278718216
0.59914559 0.32897601 1.1894608 4278784009
0.60306984 0.32976833 1.1924407 4278849802
0.60593778 0.33003524 1.1934201 4278718216
0.6082738 0.33003947 1.1933992 4278520837
0.61060989 0.33004367 1.1933783 4278586630
0.61510354 0.33109877 1.1973583 4278718216
0.61961222 0.33215392 1.2013379 4278718216
0.62196326 0.33215815 1.201317 4278849802
0.62376928 0.33189964 1.2002958 4278784008
0.62557149 0.33164117 1.1992748 4278849801
0.62791878 0.3316454 1.1992538 4278915594
0.63136739 0.33217511 1.201233 4278586629
0.6348235 0.33270484 1.2032121 4278915594
0.63939595 0.33376008 1.2071912 4278784008
0.6480276 0.33560789 1.2141492 4278586887
0.65320319 0.33692598 1.219128 4279706138
0.65614992 0.33719304 1.2201067 4281087791
0.65684521 0.33640906 1.2170855 4283325009
0.65922624 0.33641335 1.2170641 4284114524
0.66103971 0.33615488 1.216043 4283785559
0.66284949 0.33589637 1.2150218 4283719766
0.66579801 0.33616346 1.2160004 4284114268
0.66817719 0.33616775 1.2159792 4284114267
0.67055631 0.33617204 1.215958 4284180060
0.51764303 0.33115751 1.1902316 4286283897
0.51997161 0.33116171 1.1902108 4286284154
0.52276826 0.33143038 1.1911908 4286613375
0.52509868 0.33143458 1.19117 4286679168
0.52695721 0.33117431 1.1901484 4286679169
0.526443 0.32959166 1.1841227 4286810755
0.52733326 0.32880238 1.1810997 4287007879
0.52964491 0.32880655 1.181079 4287007880
0.53243601 0.32907522 1.1820592 4287007880
0.53523082 0.32934389 1.1830392 4286942341
0.53851259 0.32987705 1.18502 4286876548
0.54180181 0.33041021 1.1870006 4286810755
0.54412472 0.33041441 1.1869799 4286876547
0.54742521 0.33094761 1.1889604 4287008133
0.55024254 0.33121634 1.1899403 4286744961
0.55158597 0.33069149 1.1879183 4286613375
0.55292195 0.33016667 1.1858963 4286876547
0.55425042 0.32964182 1.1838742 4286942340
0.55656767 0.32964599 1.1838536 4286876547
0.55888498 0.32965016 1.1838329 4286744961
0.56170416 0.32991889 1.1848128 4285955445
0.56503093 0.33045211 1.1867931 4283784276
0.56785947 0.33072084 1.1877729 4281876279
0.5696767 0.33046052 1.1867516 4280428833
0.57149023 0.33020017 1.1857303 4279902489
0.57176614 0.32914615 1.1817077 4279507732
0.57407963 0.32915032 1.1816871 4279112974
0.5784533 0.33021271 1.1856681 4278981388
0.58129126 0.33048147 1.1866479 4279047181
0.58465177 0.33101475 1.1886278 4279047181
0.58645773 0.3307544 1.1876067 4279047180
0.58773744 0.33022946 1.1855853 4278981388
0.59005851 0.33023363 1.1855645 4279047180
0.59237951 0.33023784 1.1855438 4278981387
0.59522873 0.33050659 1.1865233 4278915594
0.59861171 0.33103994 1.1885031 4278915594
0.6020022 0.33157331 1.190483 4278849802
0.60486639 0.33184209 1.1914624 4278784009
0.60773432 0.33211088 1.1924418 4278784009
0.61060601 0.3323797 1.1934212 4278784009
0.61456031 0.33317772 1.196401 4278718216
0.61798453 0.33371112 1.1983805 4278784008
0.62032992 0.33371535 1.1983596 4278784008
0.62213027 0.333455 1.1973385 4278586629
0.62447381 0.3334592 1.1973175 4278652422
0.62736613 0.33372805 1.1982967 4278520836
0.63081288 0.33426151 1.200276 4279047180
0.63316202 0.33426574 1.200255 4279705110
0.6360656 0.33453462 1.2012341 4280100125
0.64008546 0.33533272 1.2042133 4281284912
0.64244217 0.33533698 1.2041923 4282601029
0.64423877 0.3350766 1.2031711 4283456339
0.64996499 0.33666867 1.2091502 4284377696
0.65289479 0.33693758 1.2101291 4284443489
0.65526271 0.33694187 1.2101079 4284246110
0.65819818 0.33721077 1.2110868 4284114524
0.66113734 0.33747971 1.2120656 4284377439
0.66408026 0.33774862 1.2130443 4284574562
0.66588068 0.33748826 1.2120231 4284706148
0.66882735 0.3377572 1.2130018 4284903527
0.5167104 0.33295336 1.1882725 4286612348
0.51950145 0.33322391 1.1892526 4286678655
0.52229631 0.33349445 1.1902328 4286678655
0.52462482 0.33349863 1.1902119 4286810498
0.52648145 0.33323649 1.1891903 4286942340
0.52596539 0.33164257 1.1831644 4286876548
0.5268538 0.33084768 1.1801412 4287008134
0.5291636 0.33085185 1.1801206 4286942341
0.5314734 0.330856 1.1801 4287073927
0.53474575 0.33139291 1.1820809 4287139720
0.53850877 0.33219621 1.1850625 4287073927
0.541798 0.33273312 1.1870433 4287008134
0.54412091 0.33273733 1.1870224 4287139720
0.54644382 0.3327415 1.1870017 4287073926
0.5477854 0.33221292 1.1849796 4287008133
0.54862696 0.33141795 1.1819569 4287008133
0.54995167 0.33088934 1.1799349 4286942340
0.55176514 0.33062711 1.1789136 4287008133
0.5540731 0.33063129 1.178893 4287073926
0.55738109 0.33116823 1.1808736 4286810754
0.55969274 0.33117241 1.1808529 4287008133
0.56250817 0.33144298 1.1818329 4287139719
0.56583303 0.33197999 1.1838133 4287139719
0.56815034 0.33198416 1.1837926 4287205512
0.56995821 0.33172193 1.1827713 4287205512
0.57125103 0.33119327 1.1807497 4286876547
0.57304955 0.33093101 1.1797285 4285955446
0.57690442 0.33173445 1.1827093 4285165930
0.57973677 0.33200505 1.1836891 4284113241
0.58257282 0.33227569 1.1846688 4283521105
0.58385068 0.331747 1.1826472 4283126346
0.58564353 0.33148471 1.1816262 4282139451
0.58795708 0.33148888 1.1816055 4281481521
0.59027058 0.33149308 1.1815848 4280823591
0.59364045 0.33203015 1.1835649 4281020970
0.59701782 0.33256724 1.1855448 4280494626
0.59987074 0.33283788 1.1865244 4280560419
0.60272741 0.33310851 1.1875039 4280692005
0.60612357 0.33364564 1.1894838 4280494626
0.6089896 0.33391631 1.1904633 4280757798
0.61293823 0.33471993 1.1934432 4281218349
0.61581558 0.33499062 1.1944226 4281678900
0.61815345 0.33499485 1.1944017 4282007865
0.61940128 0.3344661 1.1923804 4282534466
0.62118858 0.33420381 1.1913594 4282929737
0.62406963 0.3344745 1.1923387 4283587667
0.62750506 0.33501172 1.1943182 4284179804
0.629843 0.33501592 1.1942973 4284771941
0.63218093 0.33502015 1.1942763 4284837734
0.63507509 0.33529085 1.1952556 4284706148
0.63741487 0.33529508 1.1952347 4284640612
0.6403147 0.33556581 1.1962138 4284772454
0.65999466 0.33931828 1.2101091 4285232492
0.66293383 0.33958909 1.2110879 4285232235
0.66530359 0.33959335 1.2110667 4285297771
0.66824841 0.33986416 1.2120454 4285429358
0.53560603 0.33290586 1.1791003 4287139720
0.53936905 0.33371478 1.1820819 4287139720
0.54168254 0.33371896 1.1820613 4287271306
0.54350734 0.33345488 1.1810399 4287205513
0.54434699 0.33265427 1.178017 4287139719
0.54517543 0.33185363 1.1749943 4287139719
0.54698145 0.33158952 1.1739731 4287139720
0.54927999 0.33159366 1.1739526 4287139719
0.55207664 0.33186609 1.1749327 4287139719
0.55537713 0.33240679 1.1769134 4287139719
0.55818319 0.33267921 1.1778935 4287073670
0.56048924 0.33268338 1.1778729 4287073926
0.56330097 0.33295584 1.1788528 4287008133
0.56611639 0.33322829 1.1798328 4287008133
0.56791675 0.33296415 1.1788117 4286810754
0.56971341 0.33270001 1.1777904 4286810754
0.57201946 0.33270419 1.1777699 4286876548
0.57432544 0.33270833 1.1777493 4287008133
0.57714844 0.33298081 1.1787292 4287205512
0.57997513 0.33325326 1.179709 4287008133
0.58124357 0.33272082 1.1776874 4286876547
0.58302706 0.33245668 1.1766664 4286810754
0.58533126 0.33246082 1.1766458 4286810754
0.58816171 0.3327333 1.1776257 4286876547
0.59205216 0.33354244 1.1806062 4286876547
0.59542394 0.33408326 1.1825863 4286284410
0.59827125 0.33435577 1.183566 4286547582
0.60112226 0.33462828 1.1845456 4286613375
0.60504842 0.33543751 1.1875259 4285758066
0.60791075 0.33571002 1.1885054 4286481789
0.61185557 0.33651927 1.1914855 4286087031
0.61527044 0.33706018 1.1934652 4285626993
0.61760646 0.33706439 1.1934444 4285627250
0.61939746 0.33680025 1.1924232 4285824629
0.6200909 0.33599937 1.1894017 4285824629
0.62241948 0.33600357 1.1893809 4285758836
0.62529862 0.33627614 1.1903603 4285561457
0.62818158 0.33654872 1.1913396 4285429871
0.63106829 0.33682129 1.1923189 4285627250
0.6339587 0.33709389 1.1932982 4285495664
0.63629472 0.33709809 1.1932774 4285495921
0.63919079 0.33737069 1.1942565 4285627507
0.64152873 0.3373749 1.1942357 4285693299
0.54828364 0.33335191 1.1719934 4287205513
0.55157477 0.33389634 1.1739742 4287271306
0.55437332 0.33417064 1.1749543 4287336586
0.55667371 0.33417478 1.1749338 4287336586
0.55897415 0.33417892 1.1749133 4287336585
0.56178021 0.33445325 1.1758933 4287073670
0.5640825 0.3344574 1.1758728 4287139463
0.56638479 0.33446154 1.1758522 4287073926
0.56817579 0.33419552 1.174831 4287073926
0.57047617 0.3341997 1.1748105 4287008133
0.57277662 0.33420384 1.1747899 4286942340
0.57559389 0.33447817 1.1757699 4286942340
0.57841498 0.3347525 1.1767498 4286876547
0.57967782 0.3342163 1.1747283 4286876547
0.58145571 0.33395025 1.1737072 4286679168
0.58427864 0.33422458 1.1746871 4286679168
0.58763164 0.33476913 1.1766675 4286810754
0.59099209 0.33531368 1.1786478 4286810754
0.59489006 0.33612847 1.1816283 4286547582
0.59773552 0.33640283 1.1826081 4286613375
0.60005093 0.33640701 1.1825874 4286547582
0.60343766 0.33695161 1.1845675 4286547582
0.60629433 0.33722603 1.1855471 4286679168
0.61077297 0.33831111 1.1895276 4286481789
0.61472535 0.33912596 1.1925077 4286219130
0.61705947 0.33913019 1.1924869 4286350716
0.61775857 0.33832368 1.1894652 4286350716
0.6173526 0.33697674 1.1844431 4286284923
0.61802542 0.3361702 1.1814216 4286350717
0.62033898 0.33617437 1.181401 4286416253
0.62320507 0.33644879 1.1823806 4286218874
0.62718368 0.3372637 1.1853604 4286284924
0.63117349 0.33807865 1.1883402 4286218874
0.6340583 0.3383531 1.1893196 4286284666
0.63526678 0.33781677 1.1872985 4286218874
0.63590586 0.33701017 1.1842774 4286153338
0.63878882 0.33728462 1.1852567 4286153338
0.54877615 0.33591869 1.1730362 4287205513
0.55157095 0.33619487 1.1740164 4287271306
0.55336946 0.33592698 1.1729951 4287205513
0.55616802 0.33620316 1.1739753 4287402379
0.55796283 0.33593526 1.1729541 4287402379
0.56076515 0.33621144 1.1739342 4287139207
0.56357116 0.33648765 1.1749144 4287270793
0.5658716 0.33649179 1.1748937 4287402379
0.56868327 0.33676797 1.1758739 4287337099
0.57098556 0.33677214 1.1758533 4287205512
0.57328784 0.33677629 1.1758327 4287073926
0.57507324 0.33650839 1.1748116 4287271305
0.57685488 0.33624047 1.1737905 4287337098
0.57915342 0.33624461 1.17377 4287205512
0.58092946 0.33597669 1.1727489 4287073926
0.58427489 0.33652499 1.1747293 4286942340
0.58710158 0.3368012 1.1757092 4287008134
0.58993202 0.33707744 1.1766891 4287008134
0.59276623 0.33735368 1.177669 4286942340
0.59507221 0.33735782 1.1776484 4286876547
0.59737825 0.33736199 1.1776278 4286810754
0.60075563 0.33791032 1.179608 4286744961
0.60360289 0.33818659 1.1805878 4286876547
0.60807216 0.33927915 1.1845685 4286613375
0.61201513 0.34009963 1.1875489 4286613375
0.61433995 0.34010381 1.1875281 4286613376
0.61502963 0.33929169 1.1845064 4286481790
0.61461431 0.33793533 1.1794842 4286547583
0.61527777 0.33712316 1.1764628 4286613376
0.61703128 0.3368552 1.1754419 4286613376
0.6198861 0.33713147 1.1764215 4286481790
0.62385345 0.33795199 1.1794016 4286547583
0.62727576 0.33850041 1.1813815 4286613376
0.63014746 0.33877671 1.182361 4286613376
0.63190287 0.33850875 1.1813401 4286547583
0.63309258 0.33796865 1.1793191 4286679168
0.63540238 0.33797282 1.1792985 4286679168
0.63771218 0.33797699 1.1792779 4286744961
0.55594397 0.3371363 1.1689934 4287402379
0.56230205 0.33687478 1.1679313 4287402379
0.56663442 0.33797458 1.1719135 4287402892
0.56995553 0.33852658 1.1738943 4287337099
0.57173902 0.33825678 1.1728731 4287337099
0.57351875 0.33798701 1.171852 4287337099
0.57581359 0.33799115 1.1718315 4287271306
0.57862902 0.3382692 1.1728115 4287205513
0.58092564 0.33827335 1.172791 4287271306
0.58427113 0.33882537 1.1747715 4287073927
0.58709782 0.33910349 1.1757516 4287007877
0.58887196 0.33883369 1.1747304 4287139464
0.59117234 0.33883783 1.1747099 4287139720
0.59294087 0.33856803 1.1736889 4287008133
0.59470564 0.3382982 1.172668 4286942341
0.59700233 0.33830234 1.1726474 4286876547
0.59983647 0.33858046 1.1736273 4287008134
0.60375321 0.33940652 1.176608 4287008133
0.60768116 0.34023261 1.1795884 4286876547
0.60999095 0.34023675 1.1795678 4286876548
0.61066568 0.33941898 1.1765462 4286744962
0.61132914 0.3386012 1.1735246 4286744964
0.61253017 0.33805737 1.1715034 4286744708
0.61482495 0.33806151 1.1714829 4286744708
0.61767226 0.33833963 1.1724627 4286744963
0.62052333 0.33861777 1.1734425 4286876548
0.6233781 0.33889592 1.1744221 4286810755
0.62623668 0.33917409 1.1754018 4286744962
0.629659 0.33972624 1.1773818 4286810755
0.63252693 0.34000441 1.1783613 4286876548
0.63596237 0.34055662 1.180341 4286810754
0.56864512 0.33889863 1.1669114 4287271306
0.57041365 0.33862695 1.1658903 4287271306
0.57321596 0.33890685 1.1668705 4287271306
0.57758397 0.34001425 1.1708525 4287205513
0.58092189 0.34057 1.1728332 4287139720
0.58426732 0.34112579 1.1748137 4287205000
0.58656776 0.34112993 1.1747932 4287270793
0.58781189 0.34058243 1.1727716 4287336586
0.58957851 0.34031075 1.1717505 4287336586
0.59027761 0.3394874 1.1687286 4287336843
0.59149927 0.33893985 1.1667072 4287271306
0.59324902 0.33866814 1.1656862 4287271306
0.59499508 0.3383964 1.1646655 4287205513
0.60105246 0.34033144 1.171648 4287271306
0.60497105 0.34116313 1.1746289 4287139720
0.60727149 0.34116727 1.1746082 4287205257
0.60902685 0.34089556 1.1735873 4287139464
0.60968471 0.34007215 1.1705657 4287205000
0.61088014 0.33952454 1.1685445 4287205256
0.61316925 0.33952868 1.168524 4287073927
0.61601096 0.33980867 1.1695039 4287073927
0.61830199 0.33981282 1.1694834 4287073927
0.62003678 0.33954108 1.1684628 4287073927
0.62400037 0.34037283 1.1714431 4287073927
0.62741518 0.34092873 1.1734231 4287073927
0.63027561 0.34120879 1.1744027 4287008134
0.63257599 0.34121293 1.1743822 4286876548
0.5781008 0.34258482 1.1718951 4287270795
0.58091813 0.34286666 1.1728753 4287336587
0.58373916 0.3431485 1.1738554 4287270793
0.5860377 0.34315264 1.1738348 4287336586
0.58727998 0.34260139 1.1718131 4287336586
0.58904475 0.34232783 1.1707921 4287336586
0.58921009 0.34122112 1.1667695 4287402379
0.58989424 0.34039211 1.1637475 4287270793
0.59163839 0.34011853 1.1627268 4287271049
0.5939163 0.34012264 1.1627064 4287468172
0.59673357 0.34040445 1.1636865 4287468172
0.6006372 0.34124175 1.1666675 4287402379
0.60292256 0.34124586 1.1666471 4287402379
0.60520798 0.34124997 1.1666266 4287270793
0.60639966 0.34069863 1.1646054 4287205000
0.60758376 0.34014729 1.1625843 4287270793
0.61041236 0.34042913 1.1635643 4287139463
0.61269212 0.34043324 1.1635439 4287205513
0.61497194 0.34043735 1.1635236 4287205512
0.61725169 0.34044147 1.1635032 4287205512
0.62120587 0.34127885 1.1664836 4287139719
0.62405133 0.34156072 1.1674635 4287073926
0.58129758 0.34293503 1.1648715 4287270795
0.58516365 0.34377787 1.1678529 4287402379
0.58692092 0.3435024 1.1668319 4287336586
0.58707881 0.34238821 1.1628093 4287270793
0.59792715 0.34212914 1.1617069 4287402379
0.60020316 0.34213325 1.1616867 4287336586
0.60247922 0.34213737 1.1616663 4287402379
0.60366148 0.34158224 1.1596451 4287270793
0.60600352 0.34047198 1.1556029 4287270792
0.60826832 0.34047607 1.1555827 4287336842
0.61053312 0.34048015 1.1555624 4287271048
0.61391038 0.3410435 1.1575429 4287271305
0.61785334 0.34188646 1.1605237 4287205512
