# .PCD v0.7 - Point Cloud Data file format
VERSION 0.7
FIELDS x y z rgba
SIZE 4 4 4 4
TYPE F F F U
COUNT 1 1 1 1
WIDTH 1065
HEIGHT 1
VIEWPOINT 0 0 0 1 0 0 0
POINTS 1065
DATA ascii
0.21579543 0.068381578 0.95961463 4294508543
0.2183484 0.06836316 0.95935619 4294705151
0.22073545 0.068293847 0.95838344 4294705150
0.22288984 0.068155006 0.95643508 4294836222
0.22543167 0.068136469 0.95617497 4294705150
0.22819619 0.068184897 0.95685458 4294835967
0.23067014 0.0681464 0.95631427 4294639615
0.23335867 0.068171434 0.95666564 4294573823
0.23658855 0.068352319 0.95920408 4286152840
0.24391201 0.069699019 0.97810262 4278190080
0.24866423 0.070289828 0.98639357 4286153355
0.2515381 0.070342734 0.98713601 4286022026
0.25432283 0.070369862 0.98751664 4285891210
0.25699028 0.070364311 0.98743874 4285628551
0.25719664 0.069691986 0.97800392 4285628551
0.26053703 0.069873966 0.98055762 4285562758
0.26335168 0.069912687 0.98110104 4285299586
0.26639235 0.070010029 0.98246706 4285299586
0.26820371 0.069785573 0.97931725 4285102722
0.27077332 0.069760889 0.97897083 4285430917
0.26945186 0.068743974 0.96470016 4284905856
0.2671034 0.067487203 0.94706362 4283986034
0.26815546 0.067105427 0.94170612 4294443007
0.27040115 0.067026764 0.94060218 4294705151
0.27305615 0.067050077 0.94092935 4294835967
0.27545562 0.06701079 0.94037807 4294836222
0.27760148 0.066911109 0.93897915 4294836222
0.27984962 0.066837668 0.93794858 4294836222
0.28231224 0.066816315 0.93764895 4294836222
0.28465584 0.066767432 0.93696296 4294836222
0.28698301 0.066715598 0.93623549 4294836222
0.28897244 0.066586845 0.93442875 4294836222
0.29118866 0.066512145 0.93338042 4294835967
0.29339355 0.066436179 0.93231434 4294836222
0.29553649 0.066347599 0.93107128 4294835967
0.29788762 0.066306874 0.93049979 4294901247
0.30133569 0.066508934 0.93333536 4294770175
0.30669791 0.067126565 0.94200277 4286811022
0.31963494 0.069378108 0.9735992 4278190080
0.32336366 0.069610357 0.97685838 4285626496
0.32643536 0.069698527 0.97809571 4285495682
0.3270542 0.06926579 0.97202301 4285167745
0.32988465 0.069304638 0.97256809 4285168000
0.33164278 0.069119371 0.9699682 4285233793
0.33409703 0.069080964 0.96942931 4285168000
0.33627224 0.068985917 0.96809548 4285430657
0.34027129 0.069263607 0.97199231 4285430657
0.34199455 0.069077328 0.96937829 4285759622
0.33760595 0.067668863 0.94961292 4285957001
0.34078714 0.067787535 0.95127827 4285824901
0.34694019 0.068491109 0.96115166 4278190080
0.33768183 0.066164486 0.92850161 4285694344
0.3370083 0.065542012 0.91976637 4294180607
0.34004045 0.0656441 0.92119896 4294441978
0.34513789 0.066140473 0.92816466 4292860882
0.021690423 0.077339903 1.0454004 4279573525
0.023940541 0.075463861 1.0200419 4279507731
0.026107311 0.073742293 0.99677157 4279770904
0.029114235 0.074494533 1.0069396 4278190080
0.031476453 0.07360965 0.99497873 4279244308
0.033663332 0.072487414 0.97980946 4285298295
0.036247745 0.072323106 0.97758847 4283324763
0.038778774 0.072082035 0.97433001 4284311658
0.041458603 0.072130717 0.97498798 4283522142
0.04413281 0.072164349 0.97544259 4281350973
0.04673674 0.072085761 0.97438037 4290167235
0.048561506 0.070878386 0.95806026 4291351252
0.051227316 0.070959061 0.95915079 4291285716
0.054828838 0.072265193 0.97680575 4278190080
0.058112197 0.073050573 0.98742163 4278190080
0.060776096 0.073022231 0.98703861 4289246903
0.066060908 0.072925016 0.98572451 4288983992
0.070197605 0.074467279 1.0065712 4278190080
0.072922297 0.07445205 1.0063654 4290497229
0.075262375 0.074059471 1.0010589 4293654264
0.077841789 0.073921591 0.99919522 4294443007
0.080448538 0.07381811 0.99779648 4294574079
0.083202422 0.073851988 0.99825436 4294639615
0.085873075 0.073812179 0.99771631 4294639615
0.088506356 0.073743671 0.99679029 4294639615
0.091206074 0.073732957 0.99664539 4294705151
0.094016597 0.073809847 0.99768472 4294443007
0.097221456 0.074183308 1.0027328 4284508013
0.10056759 0.074641228 1.0089225 4285166971
0.10405039 0.075173549 1.0161178 4284969592
0.10653549 0.074976154 1.0134497 4284838520
0.10884603 0.074668974 1.0092975 4284839035
0.11221824 0.075087294 1.0149519 4284904573
0.11529481 0.075292453 1.0177251 4285036159
0.11775472 0.07509473 1.0150524 4285101952
0.12042279 0.075035773 1.0142555 4285167745
0.12372244 0.07536418 1.0186946 4285101952
0.12694249 0.075630762 1.022298 4285299586
0.12758771 0.074384764 1.0054559 4285168514
0.12792981 0.073018089 0.98698252 4286287249
0.12935363 0.072312333 0.97744292 4294049791
0.13184893 0.072221935 0.97622102 4294115327
0.13449921 0.072218329 0.97617227 4293984255
0.137198 0.072240412 0.97647077 4293787133
0.1399388 0.072283342 0.97705108 4293787133
0.14237893 0.072172269 0.97554964 4293721340
0.14491944 0.072115213 0.97477841 4293524477
0.14726596 0.071965411 0.97275352 4293392891
0.14982729 0.071924016 0.97219402 4293129719
0.15238386 0.071881816 0.9716236 4293128949
0.15488353 0.071814664 0.97071594 4293522678
0.15701593 0.07158234 0.96757561 4283521371
0.15756388 0.070647255 0.95493609 4281547061
0.15812284 0.069747366 0.94277239 4282468416
0.15933916 0.069161549 0.93485391 4284047448
0.16183001 0.069138668 0.93454462 4283192139
0.16440152 0.069150425 0.93470353 4280626212
0.16596159 0.068742879 0.92919469 4282073658
0.16815557 0.068606183 0.927347 4282402624
0.1700141 0.0683387 0.92373151 4285626481
0.17288491 0.068479985 0.92564124 4281349935
0.17531495 0.068445124 0.92516994 4281415728
0.17839898 0.068662964 0.92811447 4281613107
0.18045837 0.068485849 0.92572051 4281415728
0.18284144 0.068434767 0.92502999 4281218349
0.1853261 0.068422586 0.92486531 4281086763
0.18794155 0.068458363 0.92534894 4280955431
0.19075359 0.068563864 0.92677498 4280757545
0.19374833 0.068731412 0.92903972 4280824110
0.19756366 0.069182001 0.93513036 4281021748
0.20108293 0.069518767 0.93968242 4282930258
0.20539524 0.070117809 0.94777966 4283325532
0.20837989 0.070254378 0.94962561 4294311935
0.21131869 0.070372328 0.95121992 4294443007
0.21395417 0.070387632 0.9514268 4294639615
0.21643373 0.070351899 0.95094377 4294705151
0.21858224 0.070210658 0.94903469 4294705151
0.22058915 0.070027776 0.94656259 4294705151
0.22318971 0.070035398 0.94666564 4294639615
0.2259658 0.070097297 0.94750232 4294705151
0.22870091 0.070145227 0.94815022 4294639615
0.2312732 0.070142709 0.94811618 4288324009
0.23458144 0.070360988 0.95106661 4285890440
0.24070658 0.071410187 0.96524864 4278190080
0.245869 0.072154209 0.97530556 4278190080
0.24727362 0.071791328 0.97040051 4285497479
0.24980916 0.07176099 0.96999043 4285497992
0.25123885 0.071416937 0.96533984 4285892237
0.252554 0.071047783 0.96035004 4285891723
0.25599328 0.071277626 0.96345681 4285891723
0.25956002 0.071537934 0.96697539 4286088589
0.26262277 0.071655512 0.96856463 4286023307
0.26439413 0.071421906 0.96540701 4286154893
0.26620433 0.071203277 0.96245182 4285826698
0.26380703 0.069874473 0.94449043 4285958284
0.26308194 0.069009952 0.93280476 4285365375
0.26499814 0.068848193 0.93061823 4294639615
0.26755974 0.068855584 0.93071812 4294901247
0.27028012 0.06890332 0.9313634 4294835967
0.27268222 0.06886977 0.93090993 4294835967
0.27483791 0.068775184 0.92963141 4294705151
0.27713478 0.068717338 0.92884946 4294705151
0.27957433 0.06869559 0.92855549 4294705151
0.28201768 0.068675146 0.92827922 4294705151
0.28420138 0.068592414 0.92716086 4294639615
0.28602514 0.068425022 0.92489827 4294639615
0.28844947 0.068402968 0.92460018 4294639615
0.29080194 0.068364412 0.924079 4294639615
0.29321241 0.068340033 0.92374945 4294639615
0.29566258 0.068325236 0.92354947 4294639615
0.29846215 0.068390757 0.92443514 4294770687
0.3017579 0.068567924 0.92682987 4284178021
0.30573949 0.068896711 0.93127406 4284310634
0.30807322 0.068851799 0.93066698 4284115051
0.30914986 0.068528965 0.92630327 4284245867
0.30975783 0.068108313 0.92061728 4284311660
0.3124609 0.068151362 0.92119926 4284245867
0.3142204 0.067989573 0.91901231 4284114281
0.31678823 0.068003856 0.91920537 4284179815
0.31989294 0.068132259 0.92094105 4284245608
0.32185823 0.068017885 0.91939497 4284902771
0.32245108 0.067617469 0.91398263 4284772209
0.32320267 0.067256212 0.90909952 4284640366
0.32575756 0.067272857 0.90932453 4284509555
0.33009529 0.067654647 0.91448516 4284378223
0.33158803 0.067451991 0.91174585 4284180076
0.3315379 0.066940829 0.90483654 4293194742
0.33516321 0.067173839 0.90798604 4294573564
0.33921611 0.067488506 0.91223943 4292926936
0.018274743 0.077758178 1.0137587 4279046927
0.021207543 0.078400075 1.0221273 4279310353
0.023725944 0.077538803 1.0108986 4283192139
0.026360165 0.077195704 1.0064255 4289246636
0.029008899 0.076955698 1.0032965 4284112990
0.031463485 0.076286264 0.99456888 4283191886
0.033729095 0.075300999 0.98172361 4286086528
0.036302034 0.07509613 0.97905266 4286284161
0.038907614 0.074982181 0.97756714 4285627260
0.041697692 0.07521563 0.98061067 4285495674
0.044406556 0.075283311 0.981493 4279508769
0.047068901 0.075268917 0.98130536 4290167235
0.048303835 0.073096029 0.95297676 4291286486
0.05110161 0.073389068 0.95679712 4293457655
0.053973764 0.073755324 0.96157211 4290825935
0.057877563 0.075432248 0.9834348 4278190080
0.063433595 0.075674154 0.98658854 4289115578
0.066780247 0.076431178 0.99645811 4290299852
0.069599614 0.07654918 0.99799657 4290957782
0.0723783 0.076615259 0.99885803 4291746267
0.074905783 0.07642027 0.9963159 4294508543
0.077474043 0.076279052 0.99447477 4294639615
0.079996295 0.076103598 0.99218738 4294573823
0.082732774 0.076136753 0.99261963 4294639615
0.085516594 0.07621 0.99357456 4294574079
0.08822912 0.076217167 0.99366796 4294443007
0.090701818 0.076022893 0.99113524 4294443007
0.093162388 0.075829968 0.98861998 4282863955
0.095637195 0.075659141 0.98639286 4283390299
0.098591231 0.075866409 0.98909509 4283522144
0.10090289 0.075581484 0.98538041 4283719523
0.10330854 0.075379901 0.98275226 4283588707
0.1053596 0.074936286 0.97696877 4283720293
0.1085525 0.075306654 0.98179734 4283522660
0.11151371 0.075502351 0.98434871 4283720550
0.1142052 0.075510532 0.98445541 4283720550
0.11657138 0.075308181 0.98181725 4283786345
0.11945012 0.075438604 0.98351759 4283852138
0.12209147 0.075416669 0.98323166 4283589736
0.12449226 0.075250268 0.98106223 4283326564
0.12639475 0.074795984 0.97513956 4294180863
0.12870398 0.074596122 0.97253388 4294246399
0.13134034 0.074590102 0.97245538 4294246399
0.13407178 0.074637249 0.97307014 4294246399
0.13677002 0.074664444 0.97342467 4294049791
0.13932461 0.074613675 0.97276276 4294115327
0.14181073 0.074528821 0.97165644 4293984255
0.14429979 0.074448586 0.97061044 4293786879
0.14679228 0.07437297 0.96962464 4293523707
0.14921705 0.074266337 0.96823436 4293063156
0.1515274 0.074107431 0.96616268 4292930543
0.15390052 0.073984116 0.96455503 4292601319
0.15621734 0.073838338 0.96265447 4280165928
0.15747648 0.073205687 0.95440638 4279573271
0.15827912 0.072384797 0.94370413 4280034075
0.15974884 0.071890324 0.93725759 4280165661
0.16187601 0.071702614 0.93481028 4281086763
0.16435167 0.071672685 0.93442011 4281086763
0.16615614 0.071355432 0.93028396 4282205244
0.1688389 0.071419209 0.93111551 4281744693
0.17066011 0.071122058 0.92724144 4282402623
0.17309268 0.071084641 0.92675358 4281678900
0.17539611 0.070996031 0.92559832 4281284142
0.17846364 0.071214825 0.92845082 4281547314
0.18113022 0.071269751 0.92916697 4281349935
0.18373193 0.071297996 0.92953521 4280955177
0.18622252 0.071282938 0.92933887 4281086764
0.18875284 0.071283288 0.92934346 4280823592
0.19110499 0.071217231 0.92848223 4280692006
0.1938103 0.071282789 0.92933691 4280494375
0.19668251 0.071407251 0.93095958 4280889905
0.20030516 0.071797535 0.93604785 4280890677
0.20459738 0.072415009 0.944098 4284772979
0.20788029 0.072664358 0.94734883 4294377471
0.21072382 0.072755888 0.94854218 4294377471
0.21337251 0.072778754 0.94884026 4294508543
0.2160991 0.072827317 0.94947344 4294639615
0.21815734 0.072652161 0.94718987 4294639615
0.22020444 0.07247743 0.94491184 4294639615
0.22248867 0.072383873 0.94369215 4294508543
0.225284 0.072456844 0.94464344 4294508543
0.22777164 0.07243032 0.94429761 4294574079
0.2295624 0.072185256 0.94110268 4289968832
0.23145226 0.071976416 0.93837994 4289377723
0.23402435 0.071981981 0.93845248 4289707202
0.23708677 0.072136611 0.94046849 4289838274
0.23891708 0.071917057 0.9376061 4290101960
0.24088982 0.071744569 0.93535727 4290562511
0.24309528 0.071644269 0.93404967 4290694351
0.24549286 0.071602084 0.93349969 4291154132
0.24783607 0.071545064 0.9327563 4291219925
0.25002879 0.071446203 0.93146735 4291483097
0.25315827 0.071614318 0.9336592 4291483097
0.25542822 0.071538359 0.93266886 4291877855
0.25805539 0.071562961 0.9329896 4292009441
0.25917205 0.071172275 0.92789608 4292141027
0.26152411 0.071125112 0.92728126 4293126896
0.26412243 0.071145184 0.92754292 4294441727
0.26669464 0.071157917 0.92770892 4294375935
0.26926461 0.071169816 0.92786402 4294112762
0.27182084 0.071177892 0.92796934 4293521138
0.27455038 0.071230777 0.92865884 4294639615
0.27694777 0.071197324 0.92822266 4294573823
0.27946529 0.071195066 0.92819327 4294639615
0.2819131 0.071175262 0.927935 4294639615
0.28408173 0.071085937 0.92677051 4294705151
0.28597966 0.070931047 0.92475116 4294508543
0.28854555 0.070943095 0.92490822 4294508543
0.29091921 0.070908077 0.92445165 4294574079
0.29327518 0.070869379 0.92394716 4294442751
0.2949968 0.070679359 0.92146981 4294442751
0.29613173 0.070353158 0.91721702 4293325301
0.29702485 0.069975443 0.9122926 4291877342
0.29883543 0.06981834 0.91024441 4292469992
0.30078933 0.069697037 0.90866292 4292600552
0.30278131 0.069586456 0.90722126 4292732905
0.30428049 0.069365323 0.9043383 4293456115
0.30689707 0.06940043 0.904796 4293587701
0.3090975 0.069341615 0.90402919 4293850873
0.31156966 0.069344208 0.90406299 4293982459
0.31414282 0.069369063 0.90438706 4293653494
0.31620878 0.069282398 0.90325719 4293456628
0.31767952 0.069067672 0.90045768 4293522421
0.3184149 0.068697572 0.89563257 4293522421
0.321228 0.068777956 0.89668059 4293851386
0.32424554 0.06890057 0.89827919 4293785850
0.32722056 0.069012389 0.89973694 4293325299
0.32928562 0.068932049 0.89868957 4293587700
0.33247176 0.069085844 0.90069467 4294573818
0.33770597 0.069659859 0.90817827 4293256929
0.018034594 0.079459257 1.0004368 4286942341
0.020792374 0.079592757 1.0021176 4286415996
0.023502883 0.07953532 1.0013945 4280231706
0.026166337 0.079347141 0.99902517 4281086763
0.028813537 0.079149738 0.99653977 4281283115
0.031359613 0.078732409 0.99128538 4289701036
0.033714645 0.07793957 0.98130304 4286412413
0.036284082 0.077722378 0.97856849 4286152563
0.038862444 0.077552706 0.97643226 4285955184
0.041589923 0.077683285 0.97807628 4284968804
0.044269398 0.077713877 0.9784615 4279640088
0.046560559 0.077098012 0.97070736 4289444281
0.053453352 0.075636074 0.95230073 4292208101
0.056788623 0.076639295 0.96493191 4278190080
0.058797583 0.075843029 0.9549064 4289115576
0.063462406 0.078394957 0.98703665 4278190080
0.066191792 0.078445859 0.98767757 4290628817
0.069075309 0.078668319 0.99047846 4289773249
0.072074533 0.079000905 0.99466586 4294377471
0.074779764 0.078998826 0.99463969 4294311935
0.077269524 0.078777216 0.99184954 4294377471
0.079705328 0.078517422 0.98857856 4293456374
0.082264215 0.07839188 0.9869979 4291483095
0.085067414 0.078499727 0.98835576 4290101442
0.087426826 0.078203991 0.98463225 4286811792
0.089579433 0.077746361 0.97887045 4294443007
0.09162645 0.077226169 0.97232097 4294508543
0.093927354 0.076943159 0.96875769 4294443007
0.096571214 0.076948881 0.96882975 4294443007
0.098904788 0.076713629 0.96586776 4294443007
0.10135142 0.076575972 0.96413463 4294508543
0.10365083 0.076336846 0.96112388 4294508543
0.10656878 0.076553822 0.96385568 4294443007
0.10921764 0.07657171 0.96408093 4294443007
0.11198464 0.076669648 0.96531403 4294508543
0.11449736 0.076592989 0.96434885 4294508543
0.1171788 0.076630101 0.96481615 4294311935
0.11985861 0.076664552 0.96524984 4294443007
0.1226936 0.076794647 0.96688783 4291154648
0.1256045 0.076965794 0.96904272 4286022796
0.12818472 0.076931447 0.96861023 4285957001
0.13068579 0.076851934 0.96760911 4286088587
0.13325188 0.076813035 0.96711934 4285957001
0.13598791 0.076871715 0.9678582 4285759622
0.13864315 0.076883361 0.96800482 4285693829
0.14126463 0.076876208 0.9679147 4285233791
0.14380267 0.076824732 0.96726668 4285562756
0.1463497 0.076779827 0.96670127 4285694342
0.14854194 0.076553665 0.96385372 4285167998
0.15058984 0.076262251 0.96018463 4285430143
0.15288532 0.076104008 0.95819235 4285627518
0.15470029 0.075715914 0.95330602 4278390031
0.15624 0.075208113 0.94691247 4278718736
0.15757598 0.074620321 0.93951184 4280166178
0.15976724 0.074449852 0.93736553 4280692776
0.16197589 0.074292712 0.93538707 4281020971
0.16413724 0.074119084 0.93320096 4281349936
0.16600153 0.073818639 0.92941827 4281218349
0.16856319 0.073832676 0.92959499 4281481522
0.17042814 0.07354565 0.92598116 4281613108
0.17297322 0.073556207 0.92611402 4281744694
0.17516215 0.073417179 0.92436361 4281942073
0.17816025 0.073616445 0.92687249 4281810487
0.18053155 0.073554762 0.9260959 4281415728
0.18342689 0.073705353 0.92799193 4281152557
0.18582541 0.073654935 0.92735708 4280955178
0.18856382 0.073738784 0.9284128 4280757799
0.19056058 0.073534213 0.92583716 4280494373
0.1929677 0.073491275 0.92529655 4280494375
0.19575652 0.073592938 0.92657655 4280560686
0.19982335 0.074166365 0.93379629 4280035113
0.20406105 0.074788012 0.94162315 4282536019
0.2067005 0.074815743 0.94197232 4286680978
0.20929557 0.074826926 0.94211316 4285496704
0.21201056 0.074880198 0.94278383 4286022280
0.21522078 0.075105011 0.9456144 4285495936
0.2173135 0.074939147 0.94352609 4285166969
0.21952015 0.074815996 0.94197547 4285232764
0.2213385 0.074564867 0.93881369 4285166971
0.22382388 0.074541621 0.93852097 4285035385
0.22505847 0.074107036 0.93304932 4285100663
0.22635293 0.07370165 0.92794526 4294442751
0.22828524 0.073510602 0.92553985 4294377471
0.23093142 0.073551089 0.92604965 4294442751
0.23371436 0.07363379 0.92709088 4294508543
0.23592132 0.073535196 0.92584956 4294443007
0.23772341 0.073313825 0.92306232 4294508543
0.24007162 0.073263749 0.92243183 4294705151
0.24229205 0.073176108 0.92132843 4294508543
0.24429208 0.073024385 0.91941816 4294442751
0.24668528 0.072992079 0.91901135 4294443007
0.24929553 0.073023997 0.91941321 4294443007
0.25179312 0.073022604 0.91939569 4294508543
0.25414827 0.072980344 0.91886359 4294508543
0.25631064 0.072884083 0.91765159 4294574079
0.2594175 0.073055662 0.9198119 4294705151
0.26298273 0.073351808 0.92354053 4283059799
0.26565742 0.07339631 0.92410088 4284309866
0.26798466 0.073344886 0.92345339 4284375661
0.27108458 0.073503919 0.92545575 4284310634
0.2745339 0.073753901 0.92860317 4284573806
0.27704704 0.073750108 0.92855537 4284969077
0.27823523 0.073396869 0.92410791 4284771698
0.28058687 0.073354118 0.92356962 4285824901
0.28296384 0.07331869 0.9231236 4285561729
0.28484371 0.073156223 0.92107803 4285693315
0.28721651 0.073122077 0.9206481 4285759108
0.2901876 0.07323952 0.92212683 4286153866
0.29237369 0.073158525 0.92110705 4285956233
0.29355413 0.072829418 0.91696334 4286022026
0.29242158 0.071936846 0.90572542 4284511095
0.29406118 0.071735464 0.9031899 4294311935
0.29589659 0.071584791 0.9012928 4294443007
0.29811326 0.07152807 0.90057868 4294639615
0.29998666 0.071390584 0.89884764 4294574079
0.30192772 0.071271293 0.89734572 4294639615
0.30458167 0.071320854 0.89796972 4294574079
0.30676353 0.071259953 0.89720297 4294639615
0.30919969 0.071258627 0.89718622 4294639615
0.31192005 0.071322292 0.89798784 4294639615
0.31398275 0.071235776 0.89689851 4294443007
0.31553021 0.071034588 0.89436549 4294443007
0.31650802 0.070709221 0.89026892 4294377471
0.31871599 0.070661537 0.88966852 4294377471
0.32085559 0.070599526 0.88888776 4294311935
0.32321936 0.070587404 0.88873512 4294311935
0.32560593 0.070580393 0.8886469 4294574079
0.32880378 0.070748053 0.8907578 4294639611
0.33446372 0.071439147 0.89945906 4293585894
0.35125458 0.074480407 0.93775028 4278190080
0.017983535 0.081949495 0.99760443 4286810242
0.020745322 0.082133956 0.99984992 4286415483
0.023433091 0.082016565 0.99842089 4286744702
0.026123408 0.081931561 0.99738616 4287270278
0.028842228 0.081943549 0.99753201 4285758066
0.031356443 0.081422172 0.99118513 4285361769
0.033855744 0.080947757 0.98540986 4284374093
0.0364618 0.080779493 0.98336148 4284044869
0.039051007 0.080599464 0.98117 4284637517
0.041767925 0.080689199 0.98226237 4284309843
0.044316709 0.080462873 0.97950721 4281876280
0.04475835 0.076653518 0.93313438 4289115317
0.050844543 0.078201942 0.95198399 4289181369
0.052871395 0.077376276 0.9419328 4289707713
0.060414333 0.080598921 0.98116338 4289510334
0.063242383 0.08080028 0.98361456 4290760403
0.06584841 0.080713138 0.98255378 4289773508
0.068858571 0.081108831 0.98737067 4284049515
0.071895972 0.081505671 0.99220163 4283851877
0.074809454 0.081738397 0.99503464 4284575348
0.077336416 0.081547283 0.99270815 4284640623
0.07986553 0.081371278 0.99056554 4284575602
0.082413137 0.081224985 0.98878467 4284509809
0.084610105 0.080753282 0.98304248 4283259742
0.086510234 0.08003588 0.97430927 4294049791
0.088549405 0.079485968 0.96761495 4294246399
0.090863235 0.079207242 0.96422184 4294443007
0.093320996 0.079066105 0.96250379 4294443005
0.095907785 0.079039015 0.962174 4294508542
0.098298252 0.078855872 0.95994455 4294508543
0.10083811 0.078798957 0.95925164 4294508543
0.10323835 0.078638561 0.95729905 4294443007
0.10608367 0.078816742 0.95946813 4294508543
0.10851995 0.078689761 0.95792234 4294508543
0.11123595 0.078766808 0.95886028 4294508543
0.11355793 0.078567706 0.95643651 4294443007
0.11636314 0.078704372 0.95810026 4294443007
0.11907878 0.078775793 0.95896971 4294377471
0.12237326 0.079218872 0.96436346 4284641395
0.12565348 0.079634301 0.96942061 4285430657
0.12831245 0.079647012 0.96957541 4285628036
0.13057584 0.079418615 0.96679497 4285496452
0.1329671 0.079275474 0.96505249 4285430659
0.13596758 0.079494067 0.96771353 4285628038
0.13860208 0.079494447 0.96771812 4285431170
0.14166109 0.079733744 0.97063124 4285300354
0.1439978 0.079565182 0.96857923 4285496450
0.14667585 0.079587884 0.96885562 4285365377
0.14846234 0.079134569 0.96333718 4285167998
0.14993143 0.078530736 0.9559865 4284970106
0.15138018 0.077937029 0.94875908 4282667605
0.15280105 0.077349126 0.94160229 4281877317
0.15480731 0.077072062 0.9382295 4283917155
0.15670386 0.076750256 0.93431199 4279443227
0.15886675 0.076567098 0.9320823 4279574813
0.16127643 0.076506756 0.93134779 4280693037
0.16406135 0.076623544 0.93276948 4281021487
0.16696489 0.076791324 0.93481195 4281087280
0.16938648 0.076735735 0.93413526 4281087280
0.17159055 0.076584719 0.93229681 4281350965
0.17363155 0.076366365 0.92963874 4281482038
0.17573096 0.076179609 0.9273653 4281548344
0.17816351 0.076140523 0.92688948 4281613624
0.18040338 0.076021321 0.9254384 4281810235
0.18315427 0.076117784 0.92661268 4281218098
0.18576404 0.076153785 0.92705089 4280625448
0.18894394 0.076419391 0.93028426 4280362789
0.19135191 0.076369904 0.92968184 4280231203
0.19409944 0.076455466 0.93072337 4279639068
0.19685423 0.076541632 0.93177235 4279771170
0.20156021 0.077374637 0.94191283 4280100649
0.20434213 0.077457383 0.94292015 4280957244
0.20683442 0.07742966 0.94258261 4283655529
0.2087846 0.077202149 0.93981308 4284905855
0.2129726 0.077797614 0.9470619 4285300101
0.21680604 0.07825087 0.95257956 4285365894
0.21971349 0.078363143 0.95394635 4285497480
0.22170326 0.078149319 0.95134336 4285431687
0.22361918 0.0779147 0.94848722 4285432200
0.22474484 0.077413231 0.94238269 4285694858
0.22343504 0.076093659 0.92631894 4294049791
0.22473751 0.075683236 0.92132276 4294443007
0.22695285 0.075585909 0.92013794 4294705151
0.22963905 0.075645812 0.92086715 4294901503
0.23202574 0.075606823 0.92039251 4294967295
0.23410259 0.075468786 0.91871214 4294967295
0.23611103 0.07531184 0.91680157 4294835709
0.23857132 0.075300798 0.91666716 4294967295
0.24069256 0.075184077 0.91524625 4294836222
0.24274357 0.075048029 0.91359013 4294836222
0.24502453 0.074985124 0.91282433 4294901759
0.24741866 0.074957758 0.9124912 4294836222
0.24977183 0.074918658 0.9120152 4294836222
0.25227803 0.074925773 0.91210181 4294901503
0.2548691 0.074957713 0.91249061 4294901759
0.25850317 0.075292811 0.91656995 4294770687
0.26422471 0.076223709 0.9279021 4284770417
0.26927388 0.07694485 0.93668085 4285692291
0.27045816 0.076558433 0.93197685 4285627271
0.27334112 0.076655574 0.93315941 4285430660
0.27789116 0.077214129 0.93995893 4285299331
0.27969259 0.077005751 0.93742222 4285234307
0.28204575 0.076951668 0.93676388 4285102721
0.2837474 0.076722391 0.93397278 4285234308
0.28725755 0.076981835 0.93713111 4285234310
0.2896387 0.076936826 0.93658316 4284971138
0.29053855 0.076502554 0.93129659 4284971138
0.29428703 0.076819383 0.93515348 4285102724
0.2959303 0.076585963 0.93231195 4285036931
0.29417703 0.075484969 0.91890913 4284839550
0.29022247 0.073842451 0.8989141 4284050287
0.29196844 0.073665679 0.89676219 4294443007
0.29380012 0.073513284 0.89490706 4294705151
0.29633743 0.073538505 0.89521402 4294770429
0.29846823 0.073463254 0.89429802 4294836222
0.30063108 0.073397055 0.8934921 4294901502
0.30294961 0.073369607 0.89315802 4294967295
0.30481133 0.073232859 0.89149326 4294901502
0.30703765 0.073185168 0.89091277 4294836222
0.30952466 0.073199876 0.89109176 4294705151
0.3120268 0.073217906 0.89131129 4294639615
0.31374016 0.073051997 0.88929158 4294574079
0.31543434 0.072884195 0.88724887 4294377471
0.31735221 0.072770245 0.88586169 4294377471
0.31914243 0.072628953 0.88414168 4294508543
0.32092643 0.072488375 0.88243037 4294443007
0.3235617 0.07254073 0.88306773 4294574077
0.32642505 0.072643079 0.88431364 4294573818
0.33142793 0.073216572 0.89129502 4293454820
0.33729497 0.073971257 0.90048206 4278190080
0.017726908 0.083456516 0.98336846 4282928454
0.020516757 0.083920352 0.98883384 4283125833
0.023220023 0.083963536 0.98934269 4282138938
0.025966791 0.084138691 0.99140656 4281349672
0.028438756 0.083474264 0.98357761 4279638540
0.03097469 0.083095774 0.97911787 4284375112
0.033546448 0.082865745 0.97640741 4286611550
0.036223155 0.082909696 0.97692531 4286019664
0.038832057 0.082803056 0.97566879 4287467367
0.041472808 0.082773626 0.97532201 4285758561
0.044064078 0.082654931 0.97392344 4289771440
0.046273384 0.081873871 0.96472019 4289312949
0.057323176 0.082662694 0.97401488 4288918197
0.059929401 0.082600988 0.97328782 4286088587
0.062719747 0.082787536 0.97548592 4289772995
0.065389447 0.082806163 0.97570539 4288128683
0.068355858 0.083184406 0.9801622 4284706934
0.071392708 0.083616734 0.98525637 4284706934
0.074769191 0.084401146 0.99449909 4284707445
0.077151828 0.08404807 0.9903388 4284444273
0.079348631 0.083523221 0.98415446 4284378482
0.080515057 0.081983477 0.96601164 4283917931
0.082359515 0.081209682 0.95689404 4294246399
0.084642351 0.080902331 0.95327252 4294311935
0.087328292 0.080987096 0.95427132 4294377471
0.089879796 0.080945894 0.95378584 4294508543
0.092416167 0.080893755 0.95317149 4294574079
0.094790839 0.08070679 0.9509685 4294705151
0.097210035 0.080566667 0.9493174 4294639615
0.099722683 0.080509245 0.94864082 4294639615
0.10222702 0.08044818 0.94792128 4294639615
0.10494802 0.080556437 0.94919682 4294639615
0.1073982 0.0804566 0.94802046 4294639615
0.11004052 0.080502011 0.94855553 4294574079
0.11251087 0.080422424 0.94761777 4294377215
0.1154726 0.080689758 0.95076782 4294443007
0.11838411 0.080911055 0.95337534 4289246135
0.12200219 0.081595421 0.96143919 4286088841
0.12492562 0.081796214 0.96380514 4286023309
0.12691535 0.081389971 0.95901835 4285496710
0.12908871 0.081115484 0.95578414 4285234308
0.13168918 0.081114933 0.95577759 4285234308
0.13466305 0.08133994 0.95842886 4285299586
0.13708192 0.081227534 0.95710438 4285431686
0.13964857 0.081205249 0.95684183 4285496963
0.14259455 0.08140032 0.95914036 4285365377
0.14531279 0.081460722 0.95985204 4285365377
0.14694998 0.080923654 0.95352381 4285233791
0.14856428 0.080392852 0.94726932 4284707447
0.1490611 0.079285763 0.93422449 4281352002
0.15089081 0.078912891 0.92983091 4292471019
0.15311797 0.078756742 0.92799103 4291747550
0.15557779 0.078723393 0.92759806 4292141794
0.15768085 0.078513473 0.92512459 4291943646
0.1601579 0.078493439 0.92488849 4290759627
0.16267121 0.078491516 0.9248659 4287930526
0.16534117 0.078564093 0.92572105 4286548873
0.16758144 0.078433372 0.92418081 4285759357
0.16998245 0.078380652 0.92355955 4285035636
0.17253496 0.078398302 0.92376751 4285561980
0.17463826 0.078214258 0.92159891 4286219910
0.176964 0.078133643 0.92064905 4287996321
0.17916259 0.07799992 0.9190734 4290166464
0.18195477 0.078124747 0.92054421 4293390321
0.18499099 0.078349538 0.92319292 4282928465
0.1887624 0.078875504 0.92939043 4279770401
0.19266391 0.07944122 0.9360562 4280033573
0.19478583 0.079267956 0.93401468 4280033573
0.19803524 0.079552077 0.93736243 4279969063
0.20167868 0.079985239 0.94246644 4280364078
0.20389037 0.079846829 0.94083554 4281220416
0.20533086 0.079413585 0.93573064 4284115310
0.20692791 0.079050764 0.93145549 4285300101
0.21077351 0.079545319 0.93728286 4285497993
0.2139563 0.079780899 0.94005865 4285563786
0.21666078 0.079834662 0.94069219 4285432200
0.21849923 0.079571784 0.93759465 4285695372
0.22089924 0.079517119 0.93695056 4285695884
0.22102465 0.078654259 0.92678344 4285695112
0.22069927 0.077652261 0.91497695 4294115327
0.22256182 0.077433854 0.9124034 4294377471
0.22496435 0.077406056 0.91207594 4294705151
0.22757146 0.077448495 0.91257596 4294836222
0.22979091 0.077359512 0.91152745 4294901757
0.23217018 0.077325657 0.91112858 4294836220
0.23412699 0.077153303 0.90909767 4294836220
0.23654526 0.077135034 0.90888244 4294836222
0.23858336 0.076994449 0.90722591 4294901759
0.24064308 0.076863654 0.90568477 4294967295
0.24309525 0.076859593 0.90563691 4294901502
0.24504288 0.076697685 0.9037292 4294901500
0.24730065 0.076635122 0.90299195 4294901500
0.24961899 0.076592363 0.90248811 4294901503
0.25253272 0.076731339 0.90412575 4294901759
0.25587013 0.076995134 0.90723401 4294046971
0.26139021 0.077904411 0.91794801 4278190080
0.26430199 0.078026444 0.91938597 4286153100
0.26693565 0.078064859 0.91983855 4285825418
0.26915133 0.077981457 0.91885585 4286023823
0.27113307 0.077832431 0.91709989 4285826444
0.27218106 0.07742054 0.91224653 4285826957
0.27284053 0.076906562 0.9061904 4285629578
0.27594316 0.077084288 0.90828454 4285695371
0.27943978 0.077367947 0.91162688 4285760651
0.28165182 0.077294096 0.91075665 4285694858
0.28337234 0.077087805 0.90832597 4285958030
0.28612831 0.07716433 0.90922761 4285760651
0.28824639 0.077068992 0.90810424 4285826444
0.28927374 0.076686122 0.90359288 4285760905
0.28737393 0.075540259 0.89009124 4285959822
0.28892872 0.075314052 0.88742584 4294443007
0.29065871 0.0751369 0.88533843 4294901759
0.29319257 0.075168744 0.88571364 4294901759
0.29551926 0.07514739 0.88546205 4294835709
0.29777566 0.075108655 0.88500559 4294901759
0.29969308 0.074985728 0.88355714 4294836222
0.30160704 0.074863888 0.88212156 4294639359
0.30394071 0.074847341 0.88192654 4294705151
0.30665839 0.074924864 0.88284004 4294639615
0.30920309 0.074959263 0.88324529 4294443007
0.31102264 0.074818678 0.88158882 4294508543
0.3129667 0.074709974 0.88030797 4294377471
0.31462902 0.074536182 0.87826014 4294180607
0.31637663 0.074385054 0.87647945 4294246399
0.31815982 0.074244492 0.87482321 4294443007
0.32039618 0.074210986 0.87442839 4294443007
0.32276714 0.074208923 0.87440407 4294705148
0.32615477 0.074438922 0.87711418 4293651684
0.33034885 0.074848302 0.88193786 4292730058
0.018363811 0.077523001 0.88506967 4279176963
0.023459069 0.087548353 0.99952775 4280032533
0.02562492 0.085693747 0.97835398 4278190080
0.028092397 0.085102044 0.97159857 4278190080
0.030697454 0.084993064 0.97035438 4293650120
0.033372872 0.085080735 0.97135532 4292334512
0.03607484 0.085218251 0.97292531 4292071850
0.038673114 0.085108757 0.97167528 4291414690
0.041238215 0.084944956 0.96980512 4291613117
0.043681812 0.084565632 0.96547443 4289836983
0.046034954 0.084064178 0.9597494 4289707456
0.04761916 0.082287818 0.93946898 4288654768
0.0505962 0.082976721 0.94733411 4288852147
0.053272787 0.083129987 0.94908386 4287996838
0.056547981 0.08415997 0.96084303 4278190080
0.059114058 0.084090173 0.96004617 4290431179
0.061734322 0.084100097 0.96015954 4288062631
0.064275213 0.08400549 0.95907938 4284838774
0.066934302 0.084066711 0.95977837 4285036410
0.069545373 0.084065296 0.95976216 4284970617
0.072185971 0.084098384 0.96013993 4284313455
0.074103132 0.083315767 0.95120496 4284116076
0.076740257 0.083368152 0.95180297 4282405460
0.0794653 0.083509505 0.95341676 4287141786
0.081939109 0.083386242 0.95200956 4294180863
0.084316663 0.083175592 0.94960451 4294180863
0.087004706 0.08327464 0.95073539 4294377471
0.089597195 0.083279155 0.95078689 4294508543
0.092155501 0.083252534 0.95048296 4294508543
0.094493143 0.083033472 0.94798195 4294508543
0.096937425 0.082917258 0.94665521 4294573823
0.099329054 0.082763195 0.94489628 4294639615
0.10195358 0.082806066 0.94538575 4294639615
0.10464422 0.082899213 0.94644916 4294639615
0.10725477 0.082925946 0.94675434 4294443007
0.10981312 0.08291202 0.94659537 4294443007
0.1122659 0.082820848 0.94555449 4294377471
0.11518092 0.083067127 0.94836622 4292996334
0.11792284 0.08318051 0.94966066 4284180844
0.12088794 0.083443068 0.9526583 4285496963
0.12224998 0.08261133 0.94316244 4285496963
0.12416275 0.08217831 0.93821871 4285102975
0.12616497 0.081820749 0.93413651 4285102975
0.12895779 0.081979915 0.93595368 4285102975
0.13157943 0.082026191 0.93648201 4285037182
0.13406017 0.08198455 0.93600661 4285167998
0.13609095 0.081674412 0.93246579 4285167996
0.13879929 0.081774823 0.93361217 4285102973
0.14115591 0.081668131 0.93239409 4284971387
0.14363477 0.081634678 0.93201214 4284575861
0.14618972 0.081644893 0.93212879 4282602069
0.14837669 0.081452742 0.92993504 4287536287
0.15072317 0.081353135 0.92879784 4292997106
0.15311307 0.081279866 0.92796129 4291877855
0.15563998 0.081280522 0.9279688 4291943648
0.157818 0.081101879 0.92592925 4291877853
0.1602709 0.081067868 0.92554098 4291812060
0.16270506 0.0810256 0.92505836 4292930541
0.16533796 0.081082068 0.92570311 4293062127
0.16752128 0.080919683 0.92384911 4293193713
0.16983107 0.080822274 0.92273706 4293325299
0.17227501 0.080790624 0.92237568 4293259506
0.17453647 0.080675535 0.92106175 4293391092
0.17711368 0.080707595 0.92142779 4293325299
0.17940815 0.080611706 0.92033303 4292272354
0.18193015 0.08061929 0.92041963 4293719800
0.18460135 0.080691896 0.9212485 4278191370
0.18736133 0.080800831 0.92249221 4278191113
0.18973507 0.080742516 0.92182642 4278521363
0.19126937 0.080333158 0.91715288 4278521876
0.19379276 0.080344424 0.91728145 4278851611
0.19678003 0.080545269 0.9195745 4278983454
0.19909145 0.08046791 0.91869134 4280036912
0.20114706 0.080290362 0.9166643 4282339667
0.20325731 0.080138706 0.91493279 4283655529
0.20594518 0.0802157 0.91581184 4284313459
0.20834252 0.080179051 0.91539341 4284444275
0.21090966 0.08020784 0.91572213 4284707445
0.21301597 0.080062747 0.91406566 4284576629
0.21558028 0.080091164 0.91439003 4284381303
0.21785115 0.080011152 0.91347659 4284774778
0.21998225 0.079882205 0.91200435 4294115327
0.22250301 0.079896033 0.9121623 4294443007
0.22492769 0.079875454 0.91192734 4294639615
0.22742093 0.079879396 0.91197234 4294573823
0.22943071 0.079715274 0.91009861 4294639615
0.23178671 0.079673678 0.90962368 4294639615
0.23390986 0.079553761 0.90825462 4294639615
0.23577963 0.079351075 0.90594059 4294639615
0.23841889 0.079408884 0.90660053 4294573823
0.24034026 0.079228848 0.90454507 4294443007
0.24270497 0.079197131 0.90418297 4294508543
0.24457003 0.079004638 0.90198535 4294443007
0.24679947 0.078932516 0.90116191 4294573823
0.24891017 0.078824207 0.89992541 4294639103
0.25124311 0.078787707 0.89950866 4294639103
0.25381973 0.07882759 0.89996403 4288323493
0.255431 0.07856977 0.89702046 4285560701
0.2574549 0.078442544 0.89556801 4285824640
0.25909761 0.078202665 0.8928293 4285824640
0.26185003 0.078299068 0.8939299 4285824897
0.26362872 0.078105211 0.89171666 4285628287
0.2653316 0.077892631 0.88928974 4285825666
0.26701331 0.077677734 0.88683629 4286219910
0.26953983 0.077710256 0.88720757 4286614668
0.27211705 0.077756695 0.88773775 4286614668
0.27425498 0.077677891 0.88683802 4286745741
0.27580926 0.077436589 0.88408315 4286943120
0.27815077 0.077418573 0.88387746 4287206293
0.27994773 0.077250607 0.8819598 4287140757
0.28329185 0.0775088 0.88490754 4287404699
0.28578249 0.077531084 0.885162 4287602078
0.28844312 0.077598736 0.88593435 4294573823
0.29022977 0.077432096 0.88403183 4294835967
0.29279408 0.077473961 0.8845098 4294770175
0.29521784 0.07747826 0.88455892 4294704895
0.29738146 0.077414773 0.88383406 4294704895
0.29882568 0.07716652 0.8809998 4294639615
0.30080324 0.077058859 0.87977064 4294639615
0.30335203 0.077098079 0.88021839 4294573823
0.30612975 0.077194408 0.88131815 4294508543
0.30867875 0.077232011 0.88174748 4294246143
0.31040788 0.077065483 0.87984627 4293061870
0.31234261 0.076952167 0.87855256 4292732905
0.31382707 0.076730482 0.87602156 4292272354
0.31592447 0.076660864 0.8752268 4291417045
0.31811786 0.076615408 0.87470782 4291812064
0.31947827 0.076371513 0.87192327 4292469992
0.32087862 0.076140679 0.86928791 4293654782
0.32329941 0.076153591 0.86943531 4294376950
0.32620969 0.076280788 0.87088746 4292664013
0.019390915 0.084402569 0.93457234 4280163868
0.022727272 0.087452881 0.96834785 4278190080
0.025127541 0.08664155 0.95936418 4287532409
0.02764893 0.086361289 0.95626086 4292269230
0.030321123 0.086559758 0.95845848 4292202672
0.032987293 0.086710945 0.96013254 4291940262
0.035638832 0.086804308 0.96116632 4291940005
0.038204461 0.086689964 0.9599002 4292533698
0.040672783 0.086383581 0.95650774 4293521391
0.043080762 0.085993618 0.95218974 4285430139
0.04534952 0.085385777 0.94545925 4289838270
0.047648333 0.084896766 0.94004452 4289641663
0.050227661 0.084931925 0.9404338 4288588975
0.053142235 0.085503064 0.94675797 4285233532
0.055897869 0.085777484 0.94979656 4289180342
0.058193643 0.085353166 0.9450981 4290759372
0.060750734 0.085331813 0.94486171 4290759372
0.063222721 0.085197516 0.94337469 4291417302
0.065755375 0.085152261 0.9428736 4291483865
0.068155788 0.084945589 0.94058514 4292931311
0.070551343 0.084748052 0.93839782 4294246399
0.072927155 0.084541425 0.9361099 4294377471
0.075755984 0.084856182 0.93959516 4294311935
0.078981578 0.085580297 0.94761312 4288654768
0.082007416 0.086049013 0.95280313 4286483856
0.084144041 0.085584566 0.94766039 4286878614
0.086662248 0.085524313 0.94699323 4287076247
0.089148186 0.085436612 0.94602209 4288194215
0.091711335 0.085425757 0.94590193 4288719789
0.094020218 0.085185125 0.94323742 4289311669
0.096426234 0.085042939 0.94166309 4289969599
0.09868259 0.084779553 0.93874663 4290035392
0.10142038 0.084932625 0.94044155 4290166978
0.10409268 0.085024662 0.94146073 4290430150
0.1069565 0.085264966 0.94412148 4290561995
0.10924715 0.085047781 0.94171667 4290890960
0.11145177 0.08477512 0.93869758 4290102214
0.11382652 0.084641181 0.93721449 4292931313
0.11601844 0.084380142 0.93432403 4293786879
0.1182671 0.084170692 0.93200481 4293918719
0.12016075 0.083722673 0.92704403 4294049791
0.12250172 0.083598346 0.92566741 4293984255
0.12478964 0.08344356 0.92395347 4293656063
0.12735806 0.083478741 0.92434305 4293392891
0.12970129 0.083367825 0.92311484 4293392893
0.13209769 0.083294638 0.92230451 4293458684
0.13439535 0.08316309 0.92084789 4293392891
0.13693358 0.083182499 0.92106277 4293327098
0.13930671 0.083102711 0.92017931 4293326328
0.1418197 0.083107702 0.92023462 4293128692
0.14463386 0.08328595 0.92220831 4293391094
0.14760876 0.083549097 0.92512208 4284508526
0.15060398 0.083814733 0.92806339 4280889398
0.15293407 0.083707549 0.92687654 4279770917
0.1555817 0.083774813 0.92762136 4279508512
0.15789549 0.083663054 0.92638385 4279640098
0.16036311 0.083635025 0.92607355 4279442719
0.16272609 0.083554141 0.92517787 4279047961
0.16506511 0.083463609 0.92417544 4278718996
0.16722998 0.08328905 0.92224258 4278850582
0.16937058 0.083107747 0.9202351 4279113754
0.17190169 0.083120555 0.9203769 4278982168
0.17408483 0.082967162 0.9186784 4279047961
0.17691071 0.0831201 0.92037183 4278850582
0.17908137 0.082965203 0.91865671 4278982427
0.18118003 0.082781687 0.91662467 4283062109
0.18326761 0.08259815 0.91459244 4293917951
0.1853343 0.082410254 0.91251189 4294246399
0.18756108 0.082297564 0.91126412 4294180863
0.18926674 0.081962153 0.90755016 4294180863
0.19177091 0.081976719 0.90771145 4294180863
0.19415052 0.081938341 0.90728652 4294180863
0.19673827 0.081987679 0.9078328 4294115327
0.19897686 0.081892081 0.90677422 4294049791
0.20137833 0.081865042 0.90647483 4294246399
0.20395339 0.081908375 0.90695465 4294049791
0.20631428 0.081865683 0.90648192 4294180607
0.20825268 0.081658341 0.90418607 4294377471
0.21007043 0.081409082 0.90142614 4294377471
0.21235728 0.081345275 0.90071958 4294443007
0.21529751 0.081530347 0.90276885 4294508543
0.21856877 0.081835188 0.90614432 4283653219
0.22182092 0.082126148 0.90936607 4284442222
0.22428155 0.082120873 0.90930766 4284639601
0.2268867 0.082168058 0.90983009 4284705394
0.22922865 0.082119927 0.90929711 4284705394
0.23190974 0.082193017 0.91010648 4284705907
0.23368654 0.081947461 0.90738744 4284771700
0.2351182 0.08158727 0.90339917 4284442733
0.23826955 0.081825107 0.90603268 4284377455
0.23999512 0.081573449 0.9032461 4284245869
0.24217881 0.081481025 0.90222275 4284245869
0.24398613 0.081265107 0.89983189 4284245356
0.246337 0.081232719 0.89947325 4283982184
0.24778406 0.080905855 0.895854 4284113770
0.24877843 0.080438994 0.89068455 4283324252
0.25069782 0.080277354 0.88889468 4294442751
0.25234833 0.080033518 0.88619477 4294443007
0.25456449 0.079972006 0.88551366 4294443007
0.25629106 0.079759285 0.88315821 4294443007
0.2581754 0.079599157 0.88138515 4294443007
0.25986722 0.079383165 0.87899351 4294508543
0.26183236 0.079253845 0.87756157 4294508543
0.26420137 0.079248004 0.87749696 4294508543
0.26637745 0.07918492 0.87679845 4294443007
0.26888353 0.079220183 0.87718886 4294508543
0.27080944 0.079085395 0.87569642 4294639615
0.27291387 0.079004645 0.87480223 4294573823
0.2749981 0.078919485 0.87385929 4294639615
0.27667567 0.078720078 0.87165135 4294508543
0.27946997 0.078839101 0.87296921 4294705151
0.28280735 0.07910803 0.87594706 4294704895
0.28699684 0.079608828 0.88149226 4285754997
0.28979954 0.079719827 0.88272136 4284440677
0.29155266 0.079542659 0.8807596 4285297015
0.29397973 0.079550751 0.88084918 4285494394
0.29623047 0.079511382 0.88041323 4285231736
0.29808417 0.079366922 0.87881368 4285429115
0.30091044 0.079481669 0.88008422 4285363835
0.30318892 0.079451039 0.87974513 4285429628
0.30624664 0.079623498 0.88165468 4285429628
0.30754897 0.079340421 0.87852025 4285430143
0.30953026 0.079235516 0.87735868 4285561729
0.31076285 0.078942038 0.87410903 4284772213
0.31206521 0.078670599 0.87110347 4289048758
0.31390241 0.078537069 0.86962491 4288456108
0.31728086 0.078788273 0.87240642 4287206552
0.31742305 0.07823807 0.86631411 4286680210
0.31767017 0.077721648 0.86059588 4293983743
0.3196196 0.077626236 0.85953939 4294310903
0.32349351 0.077996209 0.86363608 4292663752
0.017690992 0.09130051 0.98137611 4279770903
0.020044792 0.089878105 0.96608686 4280032282
0.02227602 0.088299729 0.94912118 4289637784
0.024803866 0.088102981 0.94700634 4292729531
0.027407805 0.088188104 0.94792134 4292728757
0.030070201 0.088430494 0.95052671 4292531888
0.032708563 0.088569403 0.95201981 4292137644
0.035314452 0.08860644 0.95241791 4291742903
0.037860055 0.08849749 0.95124686 4294573566
0.040347692 0.088275671 0.94886255 4292931824
0.042824414 0.088058092 0.94652385 4288655279
0.045265585 0.087796256 0.94370937 4284312687
0.047696747 0.087544158 0.94099963 4284509807
0.050233927 0.087502427 0.9405511 4288720561
0.052754149 0.087436646 0.93984401 4289706684
0.055413805 0.087597363 0.94157153 4291746267
0.057810765 0.087346956 0.93887997 4294508543
0.060374267 0.087358728 0.93900651 4294443007
0.062897831 0.087314107 0.93852687 4294443007
0.065391667 0.087233305 0.93765831 4294377471
0.067814693 0.087067664 0.93587786 4294377471
0.070104636 0.086749338 0.93245625 4294443007
0.072549537 0.086638302 0.93126273 4294377471
0.075246319 0.086825401 0.93327379 4287799457
0.078750223 0.087901197 0.94483739 4286154634
0.082523987 0.089200646 0.95880497 4278190080
0.084421813 0.088454872 0.95078874 4285958030
0.086720482 0.088160954 0.94762951 4285958030
0.089165129 0.08802814 0.94620192 4285826698
0.092262477 0.088529073 0.95158637 4285826444
0.094669223 0.088358082 0.9497484 4285760135
0.096900038 0.088036343 0.94629008 4285628036
0.098917075 0.087542072 0.94097722 4285299071
0.10163716 0.087679252 0.94245172 4285430659
0.10472658 0.088120438 0.94719398 4285102207
0.10764515 0.088400133 0.95020038 4284970621
0.10890871 0.087339453 0.93879926 4284904826
0.11054038 0.086615846 0.93102133 4294246399
0.11273853 0.086358607 0.92825633 4293984255
0.11508168 0.086221278 0.92678016 4293918719
0.11742003 0.08608631 0.92532945 4293918719
0.11959412 0.085839123 0.92267245 4293721854
0.1219887 0.085757107 0.92179084 4293787647
0.12434056 0.085648961 0.92062843 4293590268
0.12683026 0.085638173 0.92051244 4293524477
0.12922619 0.085565701 0.91973346 4293458684
0.13168687 0.085538037 0.91943616 4293458684
0.13394859 0.0853846 0.91778684 4293392891
0.13630168 0.085293941 0.91681236 4293261305
0.13861808 0.085184 0.91563064 4293128949
0.14120163 0.085239217 0.91622412 4293193715
0.14407675 0.085465468 0.91865611 4290560969
0.14778858 0.086171873 0.92624915 4279770403
0.15163073 0.086929291 0.93439049 4280362538
0.15468438 0.087217137 0.9374845 4280165159
0.15666322 0.086899452 0.93406975 4279967780
0.15921041 0.086902134 0.9340986 4279836194
0.16161177 0.086826377 0.93328434 4280033572
0.16431099 0.086910531 0.93418884 4279836193
0.16698299 0.086977929 0.93491334 4279770654
0.16909429 0.086755641 0.93252397 4280165412
0.17081535 0.086342663 0.92808491 4280296998
0.17285073 0.086098291 0.92545819 4280362537
0.17495364 0.085894085 0.92326325 4280034343
0.17833541 0.086314648 0.92778379 4280100136
0.17907107 0.085460611 0.9186039 4280100908
0.18047464 0.084944464 0.9130559 4289839042
0.18201089 0.084503949 0.90832084 4292998135
0.1842851 0.08441326 0.90734607 4293261305
0.18635608 0.084233113 0.90540969 4293457914
0.18854894 0.084112033 0.90410823 4293589500
0.19107462 0.084140643 0.90441573 4293720829
0.19344723 0.084101968 0.90399998 4293786620
0.19602542 0.084152512 0.90454334 4294180607
0.19825029 0.084052026 0.90346318 4294311935
0.20067489 0.084037632 0.90330845 4294443007
0.20264944 0.08383739 0.90115613 4294508543
0.20477439 0.083703421 0.89971614 4294639615
0.20672515 0.083502263 0.89755386 4294639615
0.20905283 0.083456278 0.89705956 4294705151
0.21141776 0.083426043 0.8967346 4294704895
0.21444431 0.083654597 0.89919132 4291810522
0.21804328 0.084098779 0.90396571 4284310636
0.2231508 0.085108399 0.91481799 4278190080
0.22673292 0.085520379 0.91924632 4285363845
0.23040678 0.085957587 0.92394578 4285167236
0.23312221 0.08603166 0.92474198 4285036931
0.23518118 0.085864477 0.92294496 4285036931
0.23659851 0.085469037 0.91869444 4285101954
0.23868571 0.085321322 0.91710669 4285167747
0.24196361 0.085597895 0.92007953 4284773759
0.24223229 0.084815152 0.91166592 4285036931
0.24298018 0.084214374 0.90520823 4284970884
0.24514376 0.084111385 0.90410125 4285234056
0.24835187 0.084365286 0.90683037 4285036931
0.24747823 0.083241247 0.89474827 4285036929
0.24669524 0.082169317 0.88322622 4284969590
0.24859099 0.082001701 0.88142455 4294508543
0.25045165 0.081825823 0.87953407 4294835967
0.25269887 0.08177837 0.87902397 4294705151
