# .PCD v0.7 - Point Cloud Data file format
VERSION 0.7
FIELDS x y z rgba
SIZE 4 4 4 4
TYPE F F F U
COUNT 1 1 1 1
WIDTH 1047
HEIGHT 1
VIEWPOINT 0 0 0 1 0 0 0
POINTS 1047
DATA ascii
-0.071170501 0.15203367 0.83915466 4292269778
-0.069503784 0.15203668 0.83913976 4292467413
-0.067837059 0.15203969 0.83912486 4292730585
-0.066170342 0.1520427 0.83910996 4293059294
-0.064515635 0.1523817 0.84110177 4293322468
-0.062845163 0.15238471 0.8410868 4293520360
-0.061174694 0.15238772 0.8410719 4293717739
-0.059503838 0.15222274 0.84005368 4293980911
-0.057835244 0.15222575 0.84003878 4294309876
-0.056163281 0.15239677 0.84102714 4294572536
-0.054487571 0.15256779 0.84201545 4294704123
-0.05280811 0.15273884 0.84300375 4294835708
-0.05113389 0.15274185 0.84298879 4294901500
-0.04945967 0.15274487 0.84297383 4294901500
-0.047772709 0.15291592 0.84396201 4294901500
-0.046081997 0.15308698 0.8449502 4294901500
-0.044387538 0.15325804 0.84593838 4294901500
-0.042707697 0.15326108 0.84592336 4294901500
-0.040987372 0.15360019 0.84791458 4294901500
-0.039237432 0.15410738 0.85090882 4294901500
-0.089985028 0.15604481 0.85339981 4289571230
-0.08822754 0.15570822 0.85137743 4289965989
-0.086447172 0.15520178 0.8483516 4289965989
-0.08470656 0.15486516 0.84632939 4290360749
-0.083000086 0.15469836 0.84531081 4290624180
-0.081272595 0.15436171 0.84328872 4290953402
-0.079575494 0.15419488 0.84227026 4291151039
-0.077882133 0.15402806 0.84125179 4291480004
-0.076211669 0.15403107 0.84123689 4292137935
-0.074523933 0.15386423 0.84021848 4292401107
-0.072839953 0.15369739 0.83920008 4292598486
-0.071159728 0.15353054 0.83818179 4292861659
-0.069494881 0.15353353 0.83816689 4293059295
-0.067820273 0.15336667 0.83714861 4293190882
-0.066157304 0.15336968 0.83713377 4293454054
-0.064500339 0.15354255 0.83812225 4293651689
-0.062831357 0.15337567 0.83710402 4293849325
-0.061170649 0.15354855 0.83809251 4294112497
-0.059505418 0.15338168 0.83707434 4294309876
-0.057842448 0.15338467 0.8370595 4294507255
-0.056176111 0.15355755 0.83804792 4294704379
-0.05450603 0.15373045 0.83903629 4294901502
-0.052832194 0.15390335 0.84002465 4294901502
-0.051163599 0.15390636 0.84000975 4294901502
-0.049495004 0.15390937 0.83999485 4294901502
-0.047813669 0.1540823 0.84098315 4294901502
-0.04612859 0.15425521 0.84197146 4294901502
-0.044423267 0.15459806 0.84396285 4294901502
-0.042728812 0.154771 0.84495103 4294901502
-0.040990133 0.15528378 0.84794545 4294901502
-0.039240204 0.15579659 0.85093981 4294901502
-0.090021938 0.15790947 0.85443449 4289439644
-0.088262573 0.15756913 0.8524121 4289834659
-0.086480319 0.15705708 0.8493861 4290229419
-0.084709316 0.156545 0.84636021 4290229419
-0.083002836 0.15637632 0.84534156 4290689972
-0.081300102 0.15620764 0.84432304 4290953403
-0.079601124 0.15603894 0.84330446 4291151039
-0.077905886 0.15587023 0.84228599 4291414211
-0.076233543 0.15587325 0.84227103 4292072142
-0.074543938 0.15570454 0.84125257 4292335314
-0.07285808 0.15553583 0.84023416 4292664535
-0.07117597 0.15536711 0.83921582 4292993502
-0.069509245 0.15537012 0.83920091 4293256675
-0.067832761 0.15520138 0.83818257 4293651433
-0.066167921 0.15520439 0.83816767 4293848812
-0.064503074 0.15520738 0.83815283 4294046448
-0.062838227 0.15521039 0.83813792 4294244083
-0.061173379 0.15521339 0.83812308 4294507255
-0.059508536 0.1552164 0.83810818 4294638841
-0.057842202 0.15539116 0.83909667 4294836220
-0.056172121 0.15556593 0.84008509 4294836221
-0.054503527 0.15556893 0.84007019 4294836222
-0.05282782 0.15574372 0.84105855 4294901502
-0.051148366 0.15591851 0.84204692 4294901502
-0.04947602 0.15592152 0.84203202 4294901502
-0.047803674 0.15592453 0.84201705 4294901502
-0.046116721 0.15609933 0.84300536 4294901502
-0.044426017 0.15627414 0.8439936 4294901502
-0.042731564 0.15644896 0.84498179 4294901502
-0.040992893 0.15696737 0.84797633 4294901502
-0.039242972 0.1574858 0.8509708 4294901502
-0.037433837 0.15834785 0.8559714 4294901502
-0.090024717 0.15960431 0.8544656 4289505439
-0.088265345 0.15926021 0.8524431 4289768611
-0.086483084 0.15874253 0.84941703 4290163627
-0.084712073 0.15822484 0.84639102 4290163627
-0.083032228 0.15822786 0.846376 4290624180
-0.081327617 0.1580573 0.84535736 4291085246
-0.079603866 0.15771315 0.84333521 4291085246
-0.077908628 0.15754257 0.84231669 4291348418
-0.076236285 0.1575456 0.84230173 4291941069
-0.074546672 0.15737501 0.84128326 4292270034
-0.072860815 0.15720442 0.8402648 4292598998
-0.071178705 0.15703382 0.83924639 4293059550
-0.06951198 0.15703683 0.83923149 4293388260
-0.067835495 0.15686621 0.83821309 4293717226
-0.066170648 0.15686922 0.83819824 4293914605
-0.064505801 0.15687223 0.83818334 4294112241
-0.062840953 0.15687522 0.8381685 4294309876
-0.061178379 0.15705186 0.83915704 4294507255
-0.059511658 0.15705486 0.83914214 4294704634
-0.057844937 0.15705787 0.83912724 4294836220
-0.056174859 0.1572345 0.84011573 4294836220
-0.054506261 0.15723751 0.84010082 4294836220
-0.052830562 0.15741418 0.84108925 4294901502
-0.05116009 0.15741719 0.84107429 4294901502
-0.049489621 0.1574202 0.84105939 4294901502
-0.047806419 0.15759687 0.84204775 4294901502
-0.046134073 0.15759988 0.84203279 4294901502
-0.044445246 0.15777656 0.84302109 4294901502
-0.042752672 0.15795325 0.84400934 4294901502
-0.041015886 0.15847728 0.847004 4294901502
-0.039245743 0.15917501 0.85100174 4294901502
-0.037460603 0.15987276 0.85499936 4294901502
-0.090061642 0.16147459 0.8555004 4289505439
-0.088332653 0.16130219 0.85448158 4289703075
-0.086516239 0.16060345 0.85045165 4290097834
-0.084743343 0.16008012 0.84742552 4290097834
-0.083061628 0.16008316 0.8474105 4290953403
-0.081330366 0.15973526 0.84538817 4291151039
-0.079606615 0.15938736 0.84336591 4291151039
-0.077911377 0.15921491 0.84234732 4291480004
-0.076239027 0.15921792 0.84233242 4291875276
-0.074549414 0.15904547 0.8413139 4292204241
-0.072863549 0.15887301 0.84029537 4292598999
-0.071194954 0.15887602 0.84028047 4293059550
-0.069526359 0.15887903 0.84026557 4293256929
-0.067857765 0.15888204 0.84025067 4293717224
-0.066181272 0.15870954 0.83923227 4293914861
-0.064514555 0.15871255 0.83921736 4294112497
-0.06284783 0.15871556 0.83920246 4294375669
-0.061181109 0.15871857 0.83918762 4294507255
-0.059514787 0.15889709 0.84017611 4294638841
-0.057846189 0.15890008 0.8401612 4294901757
-0.056177594 0.15890309 0.8401463 4294836221
-0.054508999 0.1589061 0.8401314 4294836222
-0.052840404 0.15890911 0.8401165 4294901502
-0.051171809 0.15891212 0.8401016 4294901502
-0.049503211 0.15891513 0.8400867 4294966782
-0.047821891 0.15909368 0.84107512 4294967038
-0.046136815 0.15927222 0.84206349 4294901502
-0.044431515 0.15962632 0.84405506 4294901502
-0.042755421 0.15962934 0.8440401 4294901502
-0.041018642 0.16015899 0.84703487 4294901502
-0.039248515 0.16086422 0.85103273 4294901502
-0.037463386 0.16156946 0.85503048 4294835709
-0.090132713 0.16352594 0.85753906 4289242267
-0.088367708 0.16317436 0.85551637 4289571489
-0.0865798 0.16264543 0.85249001 4290097835
-0.084803142 0.1621165 0.84946376 4290492593
-0.083091028 0.1619422 0.84844506 4290953403
-0.081333123 0.16141322 0.84541893 4291151039
-0.079632252 0.16123891 0.84440029 4291480004
-0.077914119 0.16088724 0.84237802 4291480004
-0.076241769 0.16089027 0.84236306 4291875276
-0.074534878 0.16053858 0.84034091 4292270034
-0.072866283 0.16054159 0.84032601 4292598999
-0.071197689 0.1605446 0.84031111 4293059550
-0.069529094 0.16054761 0.84029621 4293388259
-0.067870274 0.16072798 0.84128481 4293717225
-0.066199802 0.16073099 0.84126991 4293914605
-0.064523309 0.16055664 0.84025145 4294177777
-0.062854715 0.16055965 0.84023654 4294440949
-0.061186116 0.16056266 0.84022164 4294572537
-0.05951792 0.16074304 0.84121019 4294638330
-0.057848927 0.16056867 0.84019184 4294177779
-0.056180332 0.16057168 0.84017694 4293059298
-0.054511737 0.16057469 0.84016204 4294375158
-0.052850239 0.16040032 0.83914369 4294835709
-0.051174544 0.16058071 0.84013224 4294901502
-0.049505949 0.16058372 0.84011728 4294901502
-0.047811903 0.16094154 0.84210908 4294967295
-0.046124958 0.16112196 0.84309745 4294835709
-0.044417787 0.16147982 0.84508914 4294835709
-0.042721469 0.16166025 0.84607744 4294901502
-0.041001175 0.16201812 0.84806901 4294901502
-0.039251283 0.16255343 0.85106373 4294901502
-0.037442192 0.1634436 0.85606486 4294901502
-0.0901355 0.1652264 0.85757029 4289242526
-0.088370487 0.16487107 0.85554749 4289637540
-0.086582571 0.16433652 0.85252106 4290032556
-0.084805906 0.16380195 0.8494947 4290427059
-0.083093792 0.16362579 0.84847593 4290822074
-0.081335872 0.16309118 0.84544975 4291151039
-0.079612106 0.16273578 0.84342736 4291216832
-0.077916861 0.16255958 0.84240872 4291414211
-0.076225363 0.16238338 0.84139007 4291875276
-0.07453762 0.16220717 0.84037155 4292138448
-0.072853625 0.16203095 0.83935297 4292533206
-0.0711869 0.16203396 0.83933806 4292796123
-0.069531828 0.1622162 0.84032679 4293059296
-0.067873009 0.16239844 0.84131545 4292730331
-0.066202544 0.16240145 0.84130055 4293388261
-0.064526044 0.16222523 0.84028208 4293783019
-0.062857449 0.16222824 0.84026718 4294375156
-0.061188854 0.16223124 0.84025228 4294506744
-0.059520259 0.16223425 0.84023738 4293914607
-0.057851661 0.16223726 0.84022248 4292335575
-0.056183066 0.16224027 0.84020752 4290032820
-0.054519694 0.16206402 0.83918917 4293848814
-0.052852973 0.16206703 0.83917427 4294901502
-0.051186252 0.16207004 0.83915943 4294901502
-0.049519531 0.16207303 0.83914453 4294901502
-0.047827367 0.16243461 0.8411364 4294901502
-0.046127703 0.16279618 0.8431282 4294375158
-0.04442054 0.16315778 0.84511995 4294638330
-0.042724222 0.16334009 0.84610826 4294769916
-0.041003935 0.16370171 0.84809989 4294901502
-0.039254054 0.16424264 0.85109472 4294967295
-0.037444979 0.16514218 0.85609603 4294901502
-0.090138294 0.16692685 0.85760146 4289308319
-0.08840555 0.16674885 0.85658246 4289637542
-0.086585343 0.16602761 0.85255206 4289900972
-0.08480867 0.16548741 0.84952563 4290493109
-0.083096549 0.16530937 0.84850681 4290822074
-0.081338622 0.16476914 0.8454805 4291085246
-0.079614848 0.16441 0.84345806 4291085246
-0.077919602 0.16423193 0.84243935 4291414211
-0.076228105 0.16405384 0.84142071 4292006605
-0.074540354 0.16387576 0.84040213 4292269779
-0.072856352 0.16369766 0.83938354 4292532952
-0.071203165 0.16388178 0.84037232 4292861917
-0.06953457 0.16388479 0.84035742 4292598745
-0.06787575 0.16406891 0.84134614 4288914337
-0.066213183 0.16425304 0.84233481 4292467159
-0.064540841 0.16425605 0.84231985 4292335573
-0.062864341 0.16407795 0.84130132 4293783019
-0.061193869 0.16408096 0.84128642 4294440951
-0.059522994 0.16390283 0.84026796 4293519849
-0.057854399 0.16390584 0.84025306 4292532954
-0.056185804 0.16390885 0.84023815 4290098613
-0.05451721 0.16391186 0.84022325 4293519849
-0.052848611 0.16391487 0.84020835 4294901502
-0.051171046 0.16409904 0.84119689 4294901502
-0.049500577 0.16410205 0.84118193 4294901502
-0.047804669 0.16446738 0.84317386 4294835709
-0.046101261 0.16483271 0.84516567 4294309365
-0.044390354 0.16519806 0.84715748 4294375159
-0.042690292 0.16538225 0.84814578 4294704125
-0.040946044 0.1659288 0.8511408 4294901503
-0.039190546 0.16647536 0.85413569 4294835709
-0.037399828 0.16720311 0.85813385 4293783021
-0.09014108 0.16862731 0.85763264 4289176733
-0.088376053 0.16826448 0.85560977 4289440162
-0.086557716 0.16753574 0.85157925 4290032558
-0.084811434 0.16717288 0.84955657 4290361523
-0.083099313 0.16699296 0.84853768 4290822074
-0.081366159 0.16663007 0.84651506 4291151039
-0.0796405 0.16626717 0.84449255 4291348675
-0.077922344 0.16590425 0.84247005 4291348675
-0.076230839 0.16572431 0.84145141 4291348678
-0.074543089 0.16554435 0.84043276 4291677643
-0.072859086 0.16536437 0.83941412 4292532952
-0.071205899 0.16555037 0.8404029 4292861917
-0.069537304 0.16555338 0.840388 4292467159
-0.067888275 0.16592236 0.8423804 4287861649
-0.066223837 0.16610837 0.84336913 4290427576
-0.064549617 0.16611138 0.84335417 4290625212
-0.06287124 0.1659314 0.84233558 4292336088
-0.06119661 0.16575143 0.84131706 4294309622
-0.059526138 0.16575444 0.84130216 4294046193
-0.057857137 0.16557443 0.84028369 4292532954
-0.056188539 0.16557744 0.84026879 4290953922
-0.054519944 0.16558045 0.84025383 4292401368
-0.052844256 0.16576649 0.84124243 4294769916
-0.051155854 0.16613555 0.84323448 4294901502
-0.049470793 0.16632159 0.84422302 4294901502
-0.047769267 0.16669068 0.84621495 4294901502
-0.04607483 0.16687673 0.84720337 4294769916
-0.044376645 0.1670628 0.84819174 4294769916
-0.042674713 0.16724887 0.8491801 4294835709
-0.040928598 0.16780105 0.85217518 4294835709
-0.039171234 0.16835324 0.85517019 4294177779
-0.037378658 0.1690885 0.85916841 4294704123
-0.090109713 0.17014295 0.85665995 4289242528
-0.088378832 0.1699612 0.85564089 4289374371
-0.086560488 0.16922495 0.85161024 4289966765
-0.08478567 0.1686735 0.84858364 4290361523
-0.08310207 0.16867654 0.84856856 4290756537
-0.081368908 0.16830991 0.84654588 4291085759
-0.07964325 0.16794325 0.84452331 4291348932
-0.077925086 0.1675766 0.84250075 4291348932
-0.076233581 0.16739476 0.84148204 4290295990
-0.074563108 0.16739778 0.84146708 4289901232
-0.072877228 0.16721594 0.84044844 4291611850
-0.071208633 0.16721895 0.84043354 4292203987
-0.069540039 0.16722196 0.84041864 4292730588
-0.067881227 0.16740982 0.84140742 4289769903
-0.066218667 0.16759771 0.84239614 4290230710
-0.064552359 0.1677856 0.84338486 4293059810
-0.062878139 0.16778861 0.8433699 4293849327
-0.061201636 0.16760676 0.84235132 4294441207
-0.05952888 0.1674249 0.84133279 4294573049
-0.057858407 0.16742791 0.84131789 4294507000
-0.056191277 0.16724603 0.84029937 4294375414
-0.054522682 0.16724904 0.84028447 4294440951
-0.052846998 0.16743694 0.84127307 4294901502
-0.0511586 0.16780975 0.84326518 4294901502
-0.049462702 0.16818258 0.84525722 4294901502
-0.047759309 0.16855541 0.84724921 4294901502
-0.046063002 0.16874336 0.84823763 4294901502
-0.044362944 0.16893131 0.84922606 4294835709
-0.042659137 0.16911925 0.85021442 4294901502
-0.040911157 0.16967705 0.85320961 4294901502
-0.039151929 0.17023487 0.85620469 4294506744
-0.037357491 0.17097764 0.86020303 4294901502
-0.088413902 0.1718446 0.85667592 4289505700
-0.086593665 0.17110085 0.85264516 4289900972
-0.084816962 0.17054379 0.84961838 4290229937
-0.083131492 0.17054683 0.84960335 4290229937
-0.081396453 0.17017645 0.84758055 4290427830
-0.079668909 0.16980606 0.84555787 4291151553
-0.077948868 0.16943565 0.84353524 4291612105
-0.076255485 0.16925195 0.84251648 4290361783
-0.07456585 0.16906823 0.84149778 4289703853
-0.072895378 0.16907126 0.84148282 4290230199
-0.071224913 0.16907427 0.84146792 4289901489
-0.069554441 0.16907728 0.84145296 4292467672
-0.067883968 0.16908029 0.84143806 4292730844
-0.066221409 0.16927005 0.84242684 4292862430
-0.064555109 0.1694598 0.84341556 4294046704
-0.062880889 0.16946283 0.8434006 4294244083
-0.061206665 0.16946585 0.84338564 4294441975
-0.059532031 0.16928211 0.84236705 4294639355
-0.057859685 0.16928513 0.84235215 4294836222
-0.056187343 0.16928814 0.84233719 4294836222
-0.054514997 0.16929117 0.84232223 4294901502
-0.052842651 0.16929418 0.84230733 4294901502
-0.051152386 0.16967075 0.8442995 4294901502
-0.049465455 0.16986054 0.84528804 4294901502
-0.047762066 0.17023712 0.84728009 4294901502
-0.046051178 0.17061372 0.84927207 4294901502
-0.044349249 0.17080355 0.8502605 4294901502
-0.042643569 0.17099337 0.85124886 4294901502
-0.040893726 0.1715568 0.85424411 4294901502
-0.039132629 0.17212024 0.85723931 4294835709
-0.037336327 0.17287052 0.86123776 4294901502
-0.088416688 0.17354318 0.8567071 4289505957
-0.086596437 0.17279194 0.85267615 4289900972
-0.084819727 0.17222926 0.84964931 4290164144
-0.083107591 0.17204371 0.84863037 4287598474
-0.08139921 0.17185816 0.84761143 4286348663
-0.079671659 0.17148402 0.84558862 4289967279
-0.07795161 0.17110986 0.84356594 4291612105
-0.076258227 0.17092429 0.84254718 4291019714
-0.074585877 0.1709273 0.84253222 4291151299
-0.072913535 0.17093031 0.84251726 4292269780
-0.071227647 0.17074473 0.84149855 4292204244
-0.069557182 0.17074774 0.84148359 4292928223
-0.06788671 0.17075075 0.84146869 4293454567
-0.066216238 0.17075376 0.84145379 4293783532
-0.064545766 0.17075679 0.84143883 4294046704
-0.062875301 0.1707598 0.84142393 4294375669
-0.061207119 0.17095143 0.84241271 4294638841
-0.059534773 0.17095445 0.84239775 4294836220
-0.057862427 0.17095746 0.84238279 4294836220
-0.056186751 0.17114912 0.84337151 4294836220
-0.054517739 0.1709635 0.84235293 4294836221
-0.052838311 0.17115515 0.84334159 4294901502
-0.051155135 0.17134683 0.84433019 4294901502
-0.049468208 0.1715385 0.84531879 4294901502
-0.047764823 0.17191884 0.8473109 4294901502
-0.046068523 0.17211053 0.84829944 4294901502
-0.044352017 0.17249088 0.85029143 4294901502
-0.042646341 0.17268258 0.85127985 4294901502
-0.040896505 0.17325164 0.85427523 4294901502
-0.039135419 0.1738207 0.85727048 4294901502
-0.037339129 0.17457847 0.86126912 4294836222
-0.088419475 0.17524177 0.85673827 4289440164
-0.086599216 0.17448303 0.85270721 4289835179
-0.084822491 0.17391472 0.84968024 4290361523
-0.083110355 0.1737273 0.84866124 4287203972
-0.081401967 0.17353988 0.84764224 4284572252
-0.079674415 0.17316198 0.84561944 4286546043
-0.0779754 0.17297454 0.84460056 4289704107
-0.076280139 0.17278709 0.84358174 4291348933
-0.074605919 0.17279011 0.84356678 4291941070
-0.072916277 0.17260265 0.84254795 4292467671
-0.071230389 0.17241518 0.84152919 4292796380
-0.069559917 0.17241821 0.84151429 4293191395
-0.067879654 0.17223072 0.84049553 4293520360
-0.06621106 0.17223373 0.84048063 4293849325
-0.064548507 0.17242724 0.84146947 4294178290
-0.062878035 0.17243026 0.84145457 4294375669
-0.061207566 0.17243327 0.84143966 4294638841
-0.059537515 0.17262679 0.84242845 4294836220
-0.057863716 0.17282031 0.84341717 4294836220
-0.056186166 0.17301384 0.84440589 4294836220
-0.054510072 0.17301686 0.84439093 4294836221
-0.052833978 0.17301989 0.84437591 4294901502
-0.051157884 0.17302291 0.84436095 4294901502
-0.049470957 0.17321646 0.84534961 4294901502
-0.047780287 0.17341001 0.84633821 4294901502
-0.046071284 0.17379411 0.84833032 4294901502
-0.044354785 0.17417821 0.85032237 4294901502
-0.042649113 0.17437179 0.85131085 4294901502
-0.040899284 0.17494647 0.85430634 4294901502
-0.039116129 0.17571171 0.85830516 4294836222
-0.037317976 0.17647699 0.86230391 4294836222
-0.088454552 0.17713268 0.85777342 4289439907
-0.086632408 0.17636643 0.85374224 4289769386
-0.084853798 0.1757925 0.85071516 4290164657
-0.083139785 0.17560321 0.8496961 4289638313
-0.081429519 0.17541392 0.8486771 4285230183
-0.079723008 0.17522462 0.8476581 4286743679
-0.077999197 0.17484297 0.84563524 4290757052
-0.076321222 0.17484599 0.84562021 4291678154
-0.074608661 0.17446433 0.84359747 4292138705
-0.072934441 0.17446734 0.84358251 4292467670
-0.071246676 0.17427801 0.84256369 4292862429
-0.069562659 0.17408866 0.84154493 4293191395
-0.067892186 0.17409168 0.84152997 4293520360
-0.066221714 0.17409469 0.84151506 4293849325
-0.064551249 0.1740977 0.84150016 4294112497
-0.062884949 0.17429309 0.842489 4294441462
-0.061214902 0.17448848 0.84347779 4294638841
-0.059540682 0.17449151 0.84346282 4294836220
-0.057865009 0.17468691 0.84445161 4294836220
-0.056185588 0.17488232 0.84544033 4294836220
-0.054507621 0.17488535 0.84542537 4294836221
-0.052829649 0.17488837 0.84541035 4294901502
-0.051151682 0.1748914 0.84539539 4294901502
-0.049462885 0.17508683 0.84638399 4294901502
-0.04777034 0.17528225 0.84737265 4294901502
-0.046074044 0.1754777 0.84836119 4294901502
-0.044341099 0.17605796 0.85135692 4294901502
-0.042651881 0.176061 0.85134184 4294901502
-0.040902063 0.1766413 0.85433739 4294901502
-0.039118923 0.17741404 0.85833639 4294901502
-0.088425048 0.17863894 0.85680056 4289308835
-0.086604759 0.17786519 0.85276926 4289835692
-0.08485657 0.17747985 0.8507461 4290296243
-0.083142549 0.17728868 0.84972703 4290493623
-0.081432283 0.17709751 0.84870797 4288848798
-0.079702839 0.17671211 0.84668499 4289770157
-0.078001946 0.17652093 0.84566599 4291349189
-0.076304801 0.17632973 0.84464705 4291744460
-0.07461141 0.17613854 0.84362817 4292073169
-0.07292176 0.17594732 0.84260929 4292467670
-0.071235865 0.17575611 0.84159046 4292730843
-0.0695654 0.17575912 0.84157556 4293191395
-0.067885123 0.1755679 0.8405568 4293520360
-0.066224456 0.17576516 0.8415457 4293849325
-0.064553984 0.17576817 0.8415308 4294178290
-0.062887691 0.17596543 0.84251964 4294507255
-0.061217647 0.17616269 0.84350854 4294704634
-0.059543427 0.17616571 0.84349358 4294770427
-0.057869207 0.17616874 0.84347862 4294836220
-0.056191664 0.17636602 0.8444674 4294836220
-0.05451557 0.17636904 0.84445238 4294836221
-0.052832402 0.17656633 0.84544116 4294901502
-0.051154431 0.17656936 0.84542614 4294901502
-0.049465641 0.17676666 0.8464148 4294901502
-0.047773097 0.17696397 0.84740347 4294901502
-0.046076804 0.17716128 0.84839207 4294901502
-0.044360317 0.17755289 0.85038429 4294901502
-0.042654652 0.17775021 0.85137284 4294901502
-0.040904842 0.17833614 0.85436851 4294901502
-0.039121713 0.17911638 0.85836762 4294966782
-0.088460132 0.18053359 0.85783583 4289374114
-0.086637959 0.17975236 0.85380435 4289769386
-0.084859334 0.17916718 0.85077703 4290230193
-0.083171993 0.17917022 0.85076195 4290691001
-0.081459843 0.17897718 0.84974289 4290822843
-0.079728521 0.17858805 0.84771979 4291152066
-0.078004695 0.17819889 0.84569681 4291612361
-0.076326728 0.17820191 0.84568179 4291875534
-0.074631453 0.17800884 0.84466285 4292138706
-0.072939932 0.17781577 0.8436439 4292467670
-0.07125216 0.17762268 0.84262502 4292796636
-0.069568135 0.17742959 0.8416062 4293125602
-0.067897663 0.1774326 0.8415913 4293586153
-0.066235125 0.17763174 0.8425802 4293783532
-0.06457489 0.17802699 0.84457302 4294178290
-0.062898792 0.17803001 0.844558 4294441462
-0.061225001 0.17822915 0.8455469 4294704378
-0.059547033 0.17823218 0.84553188 4294836220
-0.057869062 0.17823522 0.84551692 4294836220
-0.056191094 0.17823824 0.8455019 4294836220
-0.054513123 0.17824127 0.84548694 4294836221
-0.052835152 0.17824429 0.84547192 4294901502
-0.05114824 0.17844346 0.84646064 4294901502
-0.049468394 0.1784465 0.84644562 4294901502
-0.047775857 0.17864567 0.84743434 4294901502
-0.046064999 0.17904103 0.84942663 4294901502
-0.044346642 0.17943639 0.85141891 4294901502
-0.042639103 0.1796356 0.85240746 4294901502
-0.040887427 0.18022715 0.85540318 4294901502
-0.039080366 0.18121105 0.8604061 4294901502
-0.088462919 0.18223405 0.85786706 4289308835
-0.086671166 0.18164326 0.8548395 4289703593
-0.084890656 0.18105246 0.85181206 4290361523
-0.083174758 0.18085755 0.85079294 4290756281
-0.081437804 0.18046468 0.84876972 4291019966
-0.079708353 0.18007179 0.84674662 4291283139
-0.078007452 0.17987685 0.84572756 4291612361
-0.076310299 0.17968191 0.84470856 4291941326
-0.074634202 0.17968494 0.8446936 4292204498
-0.072942682 0.17948999 0.84367466 4292533463
-0.071254902 0.17929502 0.84265572 4292928222
-0.069582559 0.17929803 0.84264082 4293191395
-0.067910209 0.17930105 0.84262586 4293454567
-0.066245802 0.17950206 0.84361482 4293849325
-0.064577639 0.17970307 0.84460378 4294178290
-0.062905721 0.17990409 0.84559268 4294507255
-0.06123006 0.18010512 0.84658152 4294704633
-0.059549782 0.17991015 0.8455627 4294836219
-0.057871815 0.17991318 0.84554768 4294836220
-0.056193843 0.1799162 0.84553272 4294836220
-0.054515876 0.17991923 0.84551769 4294836221
-0.052837905 0.17992225 0.84550273 4294901502
-0.051150993 0.1801233 0.84649146 4294901502
-0.049471147 0.18012632 0.84647644 4294901502
-0.047778614 0.18032739 0.84746516 4294901502
-0.046067763 0.18072648 0.84945756 4294901502
-0.04433297 0.18132363 0.85245359 4294901502
-0.042605244 0.18172276 0.85444582 4294901502
-0.040849831 0.18231994 0.85744166 4294901502
-0.039061099 0.18311518 0.86144102 4294901502
-0.088498019 0.18413433 0.85890239 4289177249
-0.086704373 0.18353793 0.85587478 4289637800
-0.084921986 0.1829415 0.85284722 4290361523
-0.083177529 0.18254489 0.85082388 4290624695
-0.081440568 0.18214826 0.8488006 4291151039
-0.079711102 0.18175162 0.84677744 4291348931
-0.077989146 0.18135497 0.84475428 4291612103
-0.076293863 0.18115816 0.84373528 4291875276
-0.074619643 0.18116117 0.84372032 4292270034
-0.072945423 0.18116419 0.84370536 4292598999
-0.071257643 0.18096736 0.84268641 4292993502
-0.069585301 0.18097037 0.84267145 4293256675
-0.067922764 0.18117325 0.84366047 4293585640
-0.066248544 0.18117628 0.84364551 4293914861
-0.064580381 0.18137915 0.84463447 4294178290
-0.062904291 0.18138218 0.84461951 4294506999
-0.061230507 0.18158507 0.84560841 4294770170
-0.059552535 0.18158811 0.84559345 4294836220
-0.057876006 0.18139125 0.84457463 4294836220
-0.056196596 0.18159416 0.84556347 4294836221
-0.054518625 0.18159719 0.84554845 4294901502
-0.052840658 0.18160021 0.84553349 4294901502
-0.051162686 0.18160324 0.84551847 4294901502
-0.049473904 0.18180616 0.84650725 4294901502
-0.047781371 0.1820091 0.84749603 4294901502
-0.046055961 0.18261185 0.85049224 4294901502
-0.044319306 0.18321462 0.85348833 4294901502
-0.042608023 0.18341759 0.85447693 4294901502
-0.040852617 0.1840204 0.85747284 4294901502
-0.088533118 0.18603836 0.85993779 4289177249
-0.08670716 0.18523464 0.85590589 4289703593
-0.084924757 0.18463258 0.85287821 4290229937
-0.083206981 0.18443394 0.85185897 4290624695
-0.081468135 0.18403356 0.84983563 4291151039
-0.079736799 0.18363318 0.84781235 4291414211
-0.078034014 0.18343449 0.84679323 4291677384
-0.076334983 0.18323579 0.84577417 4291874763
-0.0746397 0.1830371 0.84475511 4292203728
-0.07296361 0.18304013 0.84474009 4292664279
-0.071273953 0.18284142 0.84372109 4293059038
-0.069599733 0.18284445 0.84370613 4293322211
-0.067935325 0.1830492 0.84469521 4293585640
-0.066259228 0.18305223 0.84468025 4293848812
-0.064589195 0.18325698 0.84566921 4294243570
-0.062911227 0.18326001 0.84565419 4294506742
-0.061235569 0.1834648 0.84664315 4294769914
-0.059555288 0.18326607 0.84562421 4294901500
-0.057877317 0.1832691 0.84560925 4294901500
-0.056196038 0.18347389 0.84659815 4294901502
-0.054516193 0.18347691 0.84658313 4294901502
-0.052836347 0.18347993 0.84656811 4294901502
-0.051156502 0.18348297 0.84655309 4294901502
-0.04946585 0.18368778 0.84754193 4294901502
-0.047758758 0.18409437 0.84953445 4294901502
-0.046044171 0.18450096 0.85152698 4294901502
-0.044305645 0.18510936 0.85452312 4294901502
-0.042592492 0.18531421 0.85551172 4294901502
-0.04083522 0.18592264 0.85850775 4294901502
-0.088535912 0.18774258 0.85996908 4289243043
-0.086709939 0.18693134 0.855937 4289703336
-0.084927529 0.18632367 0.85290927 4290098351
-0.083209746 0.18612315 0.85188997 4290559415
-0.081470899 0.18571901 0.84986657 4290888380
-0.079762496 0.18551847 0.84884733 4291283138
-0.07803677 0.18511432 0.84682405 4290820790
-0.076356925 0.18511736 0.84680903 4289240476
-0.07464245 0.18471318 0.84478587 4290293677
-0.072966352 0.18471621 0.84477085 4291873479
-0.071276695 0.18451563 0.84375185 4292926938
-0.069602475 0.18451865 0.84373689 4293256929
-0.067938074 0.18472528 0.84472597 4293782504
-0.066261977 0.18472831 0.84471095 4293914605
-0.064585879 0.18473133 0.84469599 4293981681
-0.062909789 0.18473436 0.84468102 4294441718
-0.061233692 0.18473738 0.84466606 4294769914
-0.059558038 0.18494403 0.84565502 4294901501
-0.05788007 0.18494706 0.84564 4294966782
-0.056198791 0.18515372 0.84662896 4294966270
-0.054524131 0.18495311 0.84561002 4294966526
-0.05284616 0.18495613 0.84559506 4294966525
-0.051159259 0.18516281 0.8465839 4294966782
-0.049468607 0.18536949 0.84757274 4294966783
-0.047761522 0.18577982 0.84956539 4294967039
-0.046046939 0.18619017 0.85155797 4294966782
-0.044341289 0.18639688 0.85254663 4294900989
-0.042631891 0.18660359 0.85353529 4294243059
-0.040858194 0.18742131 0.85753524 4292861920
-0.086743169 0.1888335 0.8569724 4289506727
-0.084958874 0.18822022 0.85394448 4290163887
-0.083212517 0.18781236 0.85192096 4290624695
-0.081498481 0.18760994 0.85090166 4290953916
-0.079788193 0.18740752 0.84988242 4291610050
-0.07808166 0.18720509 0.84886318 4290881708
-0.076378874 0.18700266 0.847844 4289759120
-0.074662514 0.18659475 0.84582072 4290683046
-0.072969101 0.18639231 0.8448016 4291805376
-0.071293011 0.18639532 0.84478664 4292266698
-0.069616914 0.18639834 0.84477168 4292398797
-0.067940816 0.18640137 0.84475666 4293451998
-0.066264726 0.18640439 0.8447417 4294307564
-0.064588629 0.18640742 0.84472674 4294175722
-0.062908344 0.18620494 0.84370774 4294636018
-0.06123412 0.18620797 0.84369278 4294966266
-0.059560347 0.18641649 0.8446818 4294966523
-0.057882819 0.18662502 0.84567082 4294966781
-0.056201547 0.18683356 0.84665978 4294966782
-0.05452688 0.18663107 0.84564084 4294966525
-0.052848913 0.18663409 0.84562582 4294966526
-0.051162012 0.18684265 0.84661472 4294504947
-0.049471363 0.18705119 0.84760362 4294966013
-0.047764286 0.18746528 0.84959632 4294900478
-0.046064265 0.18767385 0.8505851 4294966527
-0.044344064 0.18808797 0.85257769 4294966783
-0.042616364 0.18850209 0.85457021 4291413962
-0.040840805 0.18932731 0.85857022 4290361531
-0.086776398 0.19073941 0.85800779 4289572264
-0.084990218 0.1901205 0.85497981 4290164400
-0.083241984 0.18970889 0.85295618 4290559928
-0.081526071 0.18950461 0.85193688 4290954430
-0.079813905 0.18930031 0.85091752 4291544515
-0.078084424 0.18888868 0.84889406 4291607741
-0.076400824 0.18889172 0.84887904 4290747556
-0.074665271 0.18827271 0.84585148 4290810012
-0.072971851 0.18806839 0.84483236 4291205027
-0.071295761 0.18807141 0.8448174 4290349461
-0.069619663 0.18807444 0.84480244 4291073184
-0.067943566 0.18807745 0.84478742 4291732397
-0.066267475 0.18808047 0.84477246 4292061619
-0.064591378 0.1880835 0.8447575 4292127925
-0.062911086 0.18787916 0.8437385 4292525252
-0.06123919 0.18808955 0.84472752 4292658635
-0.059563544 0.18829995 0.8457166 4293382358
-0.057884146 0.18851036 0.84670562 4293711067
-0.0562043 0.18851338 0.8466906 4293317080
-0.054524455 0.18851642 0.84667557 4293581537
-0.052844614 0.18851945 0.84666055 4293712097
-0.051155843 0.18872988 0.84764951 4293054937
-0.04947412 0.18873291 0.84763443 4293713637
-0.047767051 0.18915075 0.84962726 4294307057
-0.046052478 0.18956859 0.85161996 4294637049
-0.044330411 0.18998647 0.85361254 4294900990
-0.04260084 0.19040434 0.85560513 4290821825
-0.086748734 0.19223067 0.85703468 4289572520
-0.084964424 0.19160613 0.85400665 4290164144
-0.083244756 0.19139998 0.85298723 4290624952
-0.081528842 0.19119382 0.85196787 4290954174
-0.079793721 0.19077845 0.84994423 4291348419
-0.078066111 0.19036305 0.84792072 4291214266
-0.076365188 0.19015686 0.84690148 4290684072
-0.074650697 0.18974145 0.84487808 4290482073
-0.072959155 0.18953525 0.84385896 4291270820
-0.071284935 0.18953827 0.843844 4290349974
-0.069610715 0.18954128 0.84382904 4291336869
-0.067926668 0.18933508 0.84280992 4293244610
-0.066254325 0.18933809 0.84279495 4291666604
-0.064581975 0.1893411 0.84278005 4291864754
-0.062909633 0.18934412 0.84276509 4293510351
-0.061237287 0.18934713 0.84275013 4293313485
-0.059565842 0.18976866 0.84474331 4294236898
-0.057888325 0.18998094 0.84573239 4294234076
-0.056207057 0.19019322 0.84672141 4292652992
-0.054527212 0.19019626 0.84670639 4293642967
-0.052847367 0.19019929 0.84669137 4293706964
-0.051167522 0.19020231 0.84667635 4293313746
-0.049487676 0.19020535 0.84666139 4294369771
-0.047795162 0.19041765 0.84765029 4294702072
-0.046084344 0.19083925 0.84964311 4294769148
-0.044349611 0.19147013 0.85263973 4294966782
-0.042621922 0.19189176 0.85463238 4293848302
-0.040826216 0.19294126 0.85963655 4294506488
-0.086781971 0.19414033 0.85807019 4289441446
-0.084995776 0.19351016 0.85504204 4290033071
-0.08327423 0.19330214 0.85402256 4290624695
-0.081531614 0.19288303 0.85199881 4291020224
-0.079796486 0.1924639 0.84997517 4291348932
-0.078068867 0.19204476 0.84795159 4291742921
-0.076367944 0.1918367 0.84693229 4292202188
-0.074653447 0.19141753 0.84490883 4292595919
-0.072961897 0.19120947 0.84388965 4293449945
-0.071287677 0.19121248 0.84387469 4293317589
-0.069601752 0.1910044 0.84285557 4292922318
-0.067929409 0.19100741 0.84284061 4293711064
-0.066257067 0.19101043 0.84282565 4293972696
-0.064584717 0.19101344 0.84281075 4293379790
-0.062912375 0.19101645 0.84279579 4294301663
-0.061242357 0.1912306 0.84378493 4293908702
-0.059568591 0.19144474 0.84477407 4294634222
-0.057889655 0.19187003 0.84676725 4294895856
-0.05620981 0.19187306 0.84675223 4292985292
-0.054524794 0.19208723 0.84774125 4294830577
-0.052843075 0.19209026 0.84772623 4294897398
-0.051170278 0.19188215 0.84670717 4294899193
-0.049490433 0.19188519 0.8466922 4294965756
-0.047785249 0.19231051 0.84868509 4294966782
-0.046072565 0.19273587 0.85067797 4294966782
-0.044335961 0.19337238 0.85367465 4294901502
-0.042588111 0.19400892 0.85667127 4294901502
-0.040808842 0.19485664 0.8606717 4294901502
-0.086815216 0.19605374 0.85910577 4289572264
-0.084998555 0.195205 0.85507309 4290098864
-0.083277009 0.19499511 0.85405362 4290625208
-0.081509553 0.19435929 0.85102546 4290954174
-0.079776295 0.19393641 0.84900177 4291349189
-0.078050546 0.19351351 0.84697813 4291677897
-0.076351494 0.19330357 0.84595883 4292006862
-0.074638866 0.19288065 0.84393531 4292335314
-0.072964646 0.19288367 0.84392035 4292861145
-0.071290426 0.1928867 0.84390539 4293453025
-0.069604494 0.19267672 0.84288621 4293388518
-0.067932151 0.19267975 0.84287131 4293783532
-0.066251852 0.19246978 0.84185219 4293981168
-0.064581379 0.19247279 0.84183723 4294440949
-0.062915117 0.19268879 0.84282649 4294638841
-0.061245102 0.19290482 0.84381562 4294835964
-0.059571341 0.19312084 0.84480482 4294901500
-0.057893828 0.19333686 0.84579396 4294901501
-0.056212567 0.1935529 0.84678304 4294901245
-0.054532722 0.19355592 0.84676802 4294966782
-0.052845836 0.19377197 0.84775704 4294966782
-0.051164113 0.19377501 0.84774202 4294901246
-0.049482394 0.19377804 0.847727 4294901502
-0.047775343 0.19420713 0.84972 4294966782
-0.046060789 0.19463623 0.85171288 4294901502
-0.044322323 0.19527838 0.85470968 4294901502
-0.042590898 0.1957075 0.85670245 4294901502
-0.040811639 0.19656272 0.86070299 4294901502
-0.08681801 0.19775607 0.859137 4289637800
-0.085029915 0.19711466 0.85610861 4290229937
-0.083279788 0.19668806 0.85408467 4290624952
-0.081512317 0.19604662 0.85105646 4290954174
-0.079779059 0.19561999 0.84903264 4291348932
-0.078032218 0.19497851 0.84600461 4291546570
-0.076335035 0.19476669 0.84498531 4291941328
-0.074624278 0.19434002 0.84296173 4292401879
-0.072951928 0.19434303 0.84294677 4292730844
-0.071279585 0.19434606 0.84293187 4293060065
-0.069607243 0.19434907 0.84291691 4293323238
-0.067934893 0.19435208 0.84290195 4293783276
-0.066262551 0.1943551 0.84288704 4294112240
-0.064590201 0.19435811 0.84287208 4294441205
-0.062917858 0.19436114 0.84285712 4294638585
-0.061247848 0.19457902 0.84384638 4294835707
-0.05957409 0.19479692 0.84483558 4294901500
-0.057896581 0.19501482 0.84582472 4294835707
-0.056218609 0.19501784 0.84580976 4294901501
-0.054535475 0.19523576 0.84679884 4294967038
-0.052855629 0.1952388 0.84678382 4294901502
-0.051166873 0.19545671 0.8477729 4294901502
-0.049474366 0.19567464 0.84876192 4294901502
-0.047765441 0.19610749 0.85075492 4294901502
-0.046049021 0.19654034 0.85274792 4294901502
-0.044308688 0.19718811 0.85574478 4294901502
-0.042575393 0.197621 0.8577376 4294901502
-0.040814437 0.19826882 0.86073428 4294901502
-0.085032701 0.19881137 0.85613972 4290164657
-0.08330927 0.19859773 0.85512012 4290493622
-0.081539921 0.19795066 0.85209179 4291019967
-0.079781823 0.19730358 0.84906358 4291283396
-0.078056052 0.19687317 0.84703976 4291481288
-0.076337785 0.19644277 0.84501606 4291875792
-0.074644357 0.19622907 0.84399676 4292270037
-0.072970137 0.1962321 0.8439818 4292665051
-0.071295917 0.19623512 0.84396684 4293059809
-0.069621697 0.19623813 0.84395188 4293388774
-0.067957312 0.19645789 0.8449412 4293783532
-0.066281214 0.19646092 0.84492618 4294112498
-0.064605124 0.19646394 0.84491122 4294507257
-0.062929027 0.19646695 0.84489626 4294638843
-0.061252933 0.19646998 0.8448813 4294836222
-0.059577301 0.19668975 0.84587049 4294836222
-0.057897918 0.19690955 0.84685969 4294836222
-0.056218076 0.19691257 0.84684467 4294836222
-0.054533068 0.19713236 0.84783381 4294836222
-0.052844312 0.19735216 0.84882289 4294836222
-0.051151808 0.19757196 0.84981197 4294836222
-0.049466338 0.197575 0.84979689 4294901246
-0.047755551 0.19801161 0.85178995 4294901502
-0.046022724 0.19866499 0.85478705 4294836222
-0.044278651 0.19931839 0.85778397 4294901502
-0.042541612 0.19975503 0.85977685 4294835709
-0.040776916 0.20040847 0.8627736 4294901502
-0.085064068 0.20072666 0.85717535 4290229680
-0.08331205 0.20029256 0.85515124 4290886839
-0.081517853 0.19942129 0.85111833 4291282369
-0.079761617 0.19876857 0.84808999 4291348418
-0.078037716 0.19833443 0.84606618 4291677128
-0.076340534 0.19811887 0.84504682 4292072400
-0.074647099 0.19790329 0.84402746 4292204757
-0.072972879 0.1979063 0.8440125 4292598745
-0.071298659 0.19790933 0.84399754 4293190882
-0.069624439 0.19791235 0.84398258 4293388775
-0.067960061 0.19813398 0.84497195 4293980913
-0.066283964 0.198137 0.84495693 4294178292
-0.064607874 0.19814003 0.84494197 4294507257
-0.062931776 0.19814305 0.84492701 4294770429
-0.061255682 0.19814608 0.84491205 4294836223
-0.059579585 0.19814909 0.84489703 4294770686
-0.057902083 0.19837074 0.84588629 4294770686
-0.056220829 0.19859241 0.84687549 4294836222
-0.054535829 0.19881408 0.84786463 4294901502
-0.052847076 0.19903575 0.84885377 4294901502
-0.051154573 0.19925743 0.84984285 4294901502
-0.049458321 0.19947912 0.85083193 4294967038
-0.047758318 0.19970082 0.85182095 4294901502
-0.046025503 0.20035982 0.85481811 4294967038
-0.044281438 0.20101885 0.85781521 4294901502
-0.04256269 0.20124058 0.85880405 4294967039
-0.040779721 0.20211831 0.86280501 4294901247
-0.085066855 0.20242524 0.85720646 4287388514
-0.083314829 0.2019874 0.85518235 4289104010
-0.081520617 0.20110862 0.85114932 4291211183
-0.079764374 0.20045029 0.84812087 4292002496
-0.078040473 0.20001239 0.84609693 4292398796
-0.076343283 0.19979495 0.84507757 4292530896
-0.074649848 0.1995775 0.84405816 4292794582
-0.072975628 0.19958052 0.8440432 4292992732
-0.071301408 0.19958353 0.84402823 4293190368
-0.069627188 0.19958656 0.84401327 4293519846
-0.06796281 0.19981006 0.84500265 4293914606
-0.066286713 0.19981308 0.84498769 4294178292
-0.064610623 0.19981611 0.84497273 4294507001
-0.062934525 0.19981913 0.84495777 4294770172
-0.061258428 0.19982216 0.84494281 4294901246
-0.059582334 0.19982518 0.84492779 4294966782
-0.057904836 0.2000487 0.84591705 4294966782
-0.056223586 0.20027225 0.8469063 4294966782
-0.054533429 0.2007163 0.84889972 4294966782
-0.052842807 0.20093985 0.84988886 4294901502
-0.051157337 0.20094289 0.84987378 4294901502
-0.049471866 0.20094593 0.8498587 4294966783
-0.04776109 0.20139003 0.85185194 4294966783
-0.046028282 0.20205465 0.85484922 4294966782
-0.044284228 0.20271932 0.85784638 4294966783
-0.042547204 0.20316344 0.85983938 4294966783
-0.040782522 0.20382814 0.86283636 4294964733
-0.085041046 0.2039015 0.85623312 4287244092
-0.08329089 0.2034599 0.85420889 4286916154
-0.081523389 0.20279595 0.85118026 4286919748
-0.07976713 0.20213199 0.84815174 4287845471
-0.078043222 0.20169035 0.84612775 4288968317
-0.076365255 0.20169337 0.84611273 4290747040
-0.074669935 0.20147406 0.84509331 4292392892
-0.072993845 0.20147708 0.84507835 4293250256
-0.071317747 0.20148011 0.84506339 4293843676
-0.06964165 0.20148313 0.84504843 4294371305
-0.06796556 0.20148616 0.84503341 4294767090
-0.066289462 0.20148917 0.84501845 4294899704
-0.064613365 0.20149219 0.84500349 4294965754
-0.062937275 0.20149522 0.84498852 4294965754
-0.061261177 0.20149824 0.8449735 4294966012
-0.059585083 0.20150127 0.84495854 4294966269
-0.057906184 0.20194905 0.84695214 4294966270
-0.056223061 0.20217445 0.8479414 4294966270
-0.05453619 0.20239988 0.8489306 4294966271
-0.052845571 0.2026253 0.84991974 4294966271
-0.051160101 0.20262834 0.84990472 4294966271
-0.049474631 0.20263138 0.84988964 4294966015
-0.047763858 0.20307922 0.85188293 4294965758
-0.046016537 0.20397189 0.85588443 4294965245
-0.044270616 0.20464218 0.85888171 4294963191
-0.042531721 0.20509006 0.86087477 4294826727
-0.08501523 0.205374 0.85525966 4286915641
-0.083266944 0.20492865 0.85323542 4287572030
-0.081501305 0.20425908 0.85020667 4287965762
-0.079746917 0.2035895 0.84717804 4288293187
-0.078045972 0.20336831 0.8461585 4288161345
-0.076348782 0.20314711 0.84513903 4288031814
-0.074672684 0.20315014 0.84512407 4287969103
-0.072996594 0.20315316 0.84510911 4288563808
-0.071306899 0.20293196 0.84408969 4289487476
-0.069632679 0.20293498 0.84407473 4290213766
-0.067958459 0.20293801 0.84405977 4291137692
-0.066284239 0.20294102 0.8440448 4291731114
-0.064610019 0.20294404 0.84402984 4292850622
-0.062935799 0.20294707 0.84401488 4293574858
-0.061261576 0.20295008 0.84399992 4294168022
-0.059587833 0.20317735 0.8449893 4294628572
-0.057910338 0.20340464 0.84597862 4294826209
-0.056229092 0.20363191 0.84696794 4294825441
-0.05453895 0.20408347 0.84896147 4294628833
-0.052855358 0.2040865 0.84894645 4294102489
-0.051171765 0.20408954 0.84893137 4293772754
-0.049477395 0.20431685 0.84992057 4293114054
-0.04776663 0.20476843 0.85191393 4292715189
-0.046033841 0.20544432 0.85491139 4292248735
-0.044289805 0.20612022 0.85790879 4292111758
-0.042552792 0.20657186 0.85990191 4291976578
-0.083349898 0.20729798 0.85628021 4285603633
-0.081553772 0.20639671 0.85224676 4287112763
-0.079818599 0.20594759 0.85022253 4287768896
-0.078112029 0.20572454 0.84920293 4288425286
-0.076409206 0.20550148 0.84818339 4288752711
-0.074710138 0.20527843 0.84716386 4289212236
-0.073014818 0.20505536 0.84614432 4289736785
-0.071323246 0.20483227 0.84512484 4289538638
-0.069647148 0.2048353 0.84510988 4289670481
-0.067971058 0.20483832 0.84509492 4290131544
-0.066294961 0.20484135 0.84507996 4290395231
-0.064612761 0.20461825 0.84406054 4290527846
-0.062938541 0.20462127 0.84404558 4291054447
-0.061266676 0.20485042 0.84503502 4291252081
-0.059590582 0.20485343 0.84502006 4291383411
-0.057911694 0.20530872 0.84701377 4291843706
-0.056231849 0.20531175 0.84699875 4292041085
-0.054541711 0.20576705 0.84899235 4292106879
-0.052851096 0.20599623 0.84998161 4292107137
-0.051156733 0.20622541 0.8509708 4292239493
-0.049469389 0.20622846 0.85095572 4292370823
-0.04774411 0.20690995 0.85395342 4293027726
-0.046007581 0.20759146 0.85695094 4293027982
-0.044259805 0.20827299 0.8599484 4292896138
-0.042537317 0.20850223 0.86093736 4292632709
-0.081631109 0.2087698 0.85529155 4283570979
-0.079867326 0.20808896 0.85226262 4284291621
-0.078135893 0.20763609 0.85023838 4286063925
-0.0764312 0.20741116 0.84921879 4287179069
-0.0747476 0.20741419 0.84920377 4288359750
-0.073048532 0.20718926 0.84818417 4289278800
-0.0713396 0.20673634 0.84616011 4289737812
-0.069649898 0.20651138 0.84514064 4290000726
-0.0679738 0.2065144 0.84512568 4290723680
-0.06630569 0.20674542 0.84611517 4291249255
-0.064627722 0.20674844 0.84610015 4291512942
-0.062949747 0.20675147 0.84608519 4291775858
-0.061271779 0.20675451 0.84607017 4292235895
-0.059594292 0.20698553 0.84705961 4292301946
-0.057913054 0.20721656 0.84804893 4292499839
-0.056228068 0.2074476 0.8490383 4292830601
-0.05453933 0.20767865 0.85002756 4292633736
-0.052846845 0.2079097 0.85101688 4292830602
-0.051141717 0.20836878 0.85301042 4292961674
-0.049439855 0.20859985 0.85399956 4292962444
-0.047721602 0.20905896 0.85599297 4292962701
-0.04599585 0.20951807 0.85798633 4292634249
-0.044262599 0.20997721 0.85997963 4291713403
-0.081708454 0.21115412 0.85833657 4281147933
-0.07991606 0.21023785 0.85430288 4281541150
-0.078159764 0.20955138 0.85127395 4281933340
-0.076472424 0.20955443 0.85125887 4282719519
-0.074785084 0.20955747 0.85124379 4283505442
-0.073082253 0.20933066 0.85022414 4284291109
-0.071369566 0.208874 0.84820002 4285274409
-0.069676116 0.20864718 0.84718043 4286193715
-0.067986414 0.20842035 0.84616095 4286982463
-0.066308439 0.20842338 0.84614593 4288164427
-0.064636581 0.20865627 0.84713542 4288624721
-0.062960967 0.20888917 0.84812486 4288821331
-0.061279252 0.20889221 0.84810984 4289215835
-0.059598017 0.20912512 0.84909928 4289807202
-0.057913031 0.20935804 0.8500886 4290005094
-0.056224298 0.20959096 0.85107797 4289940585
-0.054526675 0.21005377 0.85307163 4289678440
-0.052828565 0.21028671 0.85406089 4289350502
-0.051117819 0.21074955 0.85605443 4289152353
-0.049410339 0.2109825 0.85704362 4288954974
-0.047686465 0.21144538 0.85903704 4288364120
-0.045955095 0.21190825 0.8610304 4287315025
-0.081760965 0.21331799 0.86037713 4280821024
-0.079987794 0.21262594 0.85734791 4280820510
-0.078225866 0.21193387 0.8543188 4281017631
-0.0765329 0.21193692 0.85430372 4281148960
-0.074822567 0.21170825 0.85328394 4281213983
-0.0731005 0.21124785 0.85125965 4281410849
-0.071385935 0.21078745 0.84923542 4281804579
-0.069690607 0.21055874 0.84821582 4282198054
-0.067999028 0.21033005 0.84719628 4282788650
-0.066319183 0.21033308 0.84718126 4283379505
-0.064651556 0.21079959 0.84917527 4283904565
-0.062972203 0.21103437 0.85016471 4284495677
-0.061286733 0.21103741 0.85014963 4284954431
-0.059601266 0.21104045 0.85013461 4285217090
-0.05791441 0.21127525 0.85112399 4285547082
-0.056223802 0.21151005 0.85211331 4285350731
-0.05452431 0.21197662 0.85410708 4285352272
-0.052817319 0.2124432 0.85610074 4285156946
-0.051102828 0.21290979 0.85809433 4285091923
-0.049391601 0.21314463 0.85908347 4284961620
-0.04765135 0.21384303 0.86208129 4284633681
-0.081714034 0.21455504 0.85839897 4280689952
-0.079944603 0.21385735 0.85536969 4280689952
-0.07820753 0.21339324 0.85334522 4280689952
-0.076497197 0.21316269 0.85232544 4280689952
-0.074790612 0.21293214 0.85130566 4280821538
-0.073087782 0.21270159 0.85028601 4280952867
-0.071388699 0.21247102 0.84926629 4281215783
-0.069705106 0.21247406 0.84925127 4281478185
-0.068001777 0.21200988 0.8472271 4281938478
-0.066329926 0.21224652 0.84821665 4282267442
-0.064660437 0.21271679 0.85021067 4282530614
-0.062979206 0.21295345 0.85120016 4282727737
-0.061291862 0.21295649 0.85118508 4282990395
-0.05960501 0.21319316 0.85217452 4283713349
-0.05791441 0.21342984 0.8531639 4283845192
-0.056220055 0.21366653 0.85415328 4283780426
-0.054511689 0.21437049 0.85715145 4283780427
-0.052799076 0.21484083 0.85914516 4284175442
-0.051078968 0.21531118 0.86113876 4284175955
-0.049362119 0.2155479 0.8621279 4284110163
-0.047641519 0.21578464 0.86311704 4284110163
-0.083470777 0.21672334 0.86045492 4280624415
-0.081691958 0.21602005 0.85742545 4280690209
-0.07992439 0.21531673 0.85439605 4281413932
-0.078189187 0.21484886 0.85237151 4280953381
-0.076480724 0.21461643 0.85135174 4281347883
-0.074758649 0.21414854 0.84932727 4280821795
-0.073075049 0.21415158 0.84931225 4280690723
-0.071377844 0.21391913 0.84829253 4280887845
-0.069696121 0.21392217 0.84827751 4280887332
-0.068014398 0.2139252 0.84826249 4281413676
-0.066332683 0.21392824 0.84824747 4281873969
-0.064663202 0.21440226 0.8502416 4282071348
-0.062977731 0.2144053 0.85022658 4282466106
-0.06129463 0.21464382 0.85121602 4282663485
-0.059607781 0.21488237 0.85220551 4283386951
-0.057917181 0.21512093 0.85319489 4283321416
-0.056222834 0.21535948 0.85418433 4283189830
-0.054514471 0.21606907 0.85718262 4283321674
-0.05280187 0.21654315 0.85917634 4283584847
-0.051099528 0.21654622 0.85916114 4283716434
-0.049375676 0.21702035 0.86115479 4283782483
-0.047669582 0.21702342 0.86113954 4283914069
-0.04593448 0.21749756 0.86313313 4284045655
-0.083473571 0.21842755 0.86048615 4280624672
-0.081719615 0.21795596 0.85846138 4280953637
-0.079950161 0.21724702 0.85543185 4283059013
-0.078191958 0.21653807 0.85240251 4282269498
-0.076464243 0.21606643 0.85037792 4284967011
