# .PCD v0.7 - Point Cloud Data file format
VERSION 0.7
FIELDS x y z rgba
SIZE 4 4 4 4
TYPE F F F U
COUNT 1 1 1 1
WIDTH 1047
HEIGHT 1
VIEWPOINT 0 0 0 1 0 0 0
POINTS 1047
DATA ascii
-0.083186522 0.1558872 0.85233575 4290953660
-0.081470668 0.15572041 0.85131705 4291216833
-0.079735681 0.15538377 0.8492949 4291414469
-0.07800819 0.15504712 0.84727287 4291743690
-0.076288201 0.15471046 0.84525084 4292204241
-0.074592978 0.15454364 0.84423238 4292401620
-0.07291688 0.15454666 0.84421742 4292796378
-0.071240783 0.15454969 0.8442024 4293125343
-0.069564693 0.15455271 0.84418744 4293388773
-0.067898355 0.1547256 0.84517586 4293586153
-0.066220388 0.15472862 0.8451609 4293915118
-0.064536408 0.15456177 0.84414256 4294244083
-0.06286031 0.1545648 0.84412754 4294441462
-0.061184216 0.15456782 0.84411258 4294639097
-0.059508123 0.15457085 0.84409761 4294770428
-0.057830539 0.15474376 0.84508592 4294836220
-0.056152567 0.15474679 0.84507096 4294836221
-0.054469362 0.1549197 0.84605926 4294901502
-0.052782405 0.15509263 0.84704751 4294901502
-0.051091697 0.15526555 0.84803569 4294901502
-0.049397241 0.1554385 0.84902388 4294901502
-0.047686297 0.15578134 0.85101527 4294901502
-0.045967851 0.15612422 0.85300654 4294901502
-0.044241909 0.1564671 0.85499775 4294901502
-0.042545192 0.15647015 0.85498261 4294901502
-0.040808 0.15681306 0.85697371 4294901502
-0.039041199 0.15732588 0.85996789 4294901502
-0.03723916 0.15800866 0.86396509 4294901502
-0.091968864 0.15910827 0.86147541 4289308317
-0.090158485 0.15859625 0.85844916 4289834662
-0.088423878 0.15842763 0.85743028 4290163885
-0.086662643 0.15808728 0.85540783 4290361778
-0.084937409 0.15791865 0.85438907 4290624695
-0.083242565 0.1579217 0.85437393 4291019453
-0.081498198 0.15758133 0.85235167 4291282625
-0.079761334 0.15724094 0.8503294 4291414468
-0.078010954 0.15672883 0.84730369 4291743690
-0.076310091 0.15656014 0.84628516 4292138448
-0.07461299 0.15639144 0.84526664 4292401620
-0.07291963 0.15622275 0.84424818 4292796378
-0.071257047 0.15639751 0.84523666 4293191137
-0.06957908 0.15640053 0.84522164 4293388774
-0.067901105 0.15640356 0.84520668 4293783532
-0.066231027 0.15657833 0.8461951 4294046704
-0.064545169 0.15640961 0.8451767 4294309876
-0.062867202 0.15641263 0.84516168 4294507255
-0.061189231 0.15641566 0.84514672 4294704891
-0.059511259 0.1564187 0.8451317 4294836220
-0.057833292 0.15642172 0.84511673 4294836220
-0.05615532 0.15642475 0.84510171 4294836221
-0.054472115 0.15659954 0.84609008 4294901502
-0.05277805 0.15694611 0.84808165 4294901502
-0.051076487 0.15729269 0.85007316 4294901502
-0.049378283 0.15746751 0.85106134 4294901502
-0.047676332 0.15764233 0.85204947 4294901502
-0.045956019 0.15798895 0.8540408 4294901502
-0.044228207 0.15833558 0.85603207 4294901502
-0.042529617 0.15833865 0.85601693 4294901502
-0.040770322 0.15885709 0.85901129 4294901502
-0.038999777 0.15937556 0.86200553 4294901502
-0.037217986 0.15989405 0.86499965 4294901502
-0.092007674 0.16098979 0.86251044 4289176989
-0.090195417 0.16047215 0.85948408 4289637797
-0.088458933 0.16030166 0.85846519 4290032813
-0.086695813 0.15995757 0.85644263 4290361523
-0.084968708 0.15978706 0.85542381 4290624696
-0.083245344 0.15961653 0.85440505 4291019454
-0.08150097 0.15927242 0.85238266 4291282626
-0.079764098 0.15892829 0.85036039 4291480262
-0.078034721 0.15858413 0.84833813 4291743690
-0.076331988 0.15841357 0.84731954 4292072655
-0.074615739 0.15806942 0.8452974 4292401620
-0.072922379 0.15789883 0.84427887 4292796123
-0.071246281 0.15790185 0.84426391 4293125345
-0.069570191 0.15790488 0.84424895 4293388774
-0.067903861 0.15808152 0.84523743 4293717739
-0.066225894 0.15808454 0.84522247 4294046704
-0.064547919 0.15808757 0.84520745 4294309876
-0.062869951 0.15809059 0.84519249 4294573048
-0.06119198 0.15809362 0.84517747 4294770427
-0.059513617 0.15792301 0.84415913 4294836220
-0.057837524 0.15792604 0.84414411 4294836221
-0.056158073 0.15810271 0.84513253 4294836222
-0.054474872 0.15827937 0.84612089 4294901502
-0.052780811 0.15862969 0.84811252 4294901502
-0.051079255 0.15898003 0.85010409 4294901502
-0.049381055 0.15915672 0.85109234 4294901502
-0.047679104 0.15933342 0.85208052 4294901502
-0.045973405 0.15951014 0.85306865 4294901502
-0.044247475 0.15986051 0.85506004 4294901502
-0.042550758 0.15986358 0.85504484 4294901502
-0.040793348 0.16038764 0.85803932 4294901502
-0.039002582 0.1610854 0.86203688 4294901502
-0.09023235 0.16235182 0.86051905 4289374883
-0.088493995 0.16217944 0.85950011 4290098094
-0.086759381 0.16200706 0.85848117 4290427059
-0.085000008 0.16165923 0.8564586 4290756282
-0.083274767 0.16148682 0.85543978 4290953918
-0.081503749 0.16096351 0.85241371 4291085760
-0.079743974 0.16044015 0.84938771 4291414725
-0.078037485 0.16026773 0.848369 4291612104
-0.076353893 0.16027077 0.84835398 4291677897
-0.074635759 0.15992285 0.84633178 4292335828
-0.072940521 0.1597504 0.84531319 4292730331
-0.071262553 0.15975343 0.84529823 4293125345
-0.069584578 0.15975645 0.84528321 4293388774
-0.067906611 0.15975948 0.84526825 4293783532
-0.066236533 0.15993799 0.84625673 4293980911
-0.064556696 0.15994103 0.84624171 4294309876
-0.062880993 0.16011956 0.8472302 4294638841
-0.061197001 0.15994708 0.84621173 4294770426
-0.059516761 0.15977462 0.84519327 4294836220
-0.057838794 0.15977764 0.84517831 4294836220
-0.056160823 0.15978067 0.84516329 4294836221
-0.054477625 0.15995921 0.84615171 4294901502
-0.052783575 0.16031328 0.8481434 4294901502
-0.051082022 0.16066736 0.85013503 4294901502
-0.049383827 0.16084594 0.85112327 4294901502
-0.047694605 0.16084898 0.85110819 4294901502
-0.045976181 0.16120309 0.8530997 4294901502
-0.044266734 0.16138168 0.85408789 4294901502
-0.04255354 0.16156028 0.85507596 4294901502
-0.040796138 0.16208997 0.85807055 4294901502
-0.039005388 0.16279523 0.86206824 4294901502
-0.090269297 0.16423522 0.86155415 4289440164
-0.088561326 0.16423829 0.86153889 4289703593
-0.086792573 0.16388673 0.85951614 4289506214
-0.085002787 0.16335781 0.85648978 4290295731
-0.083250903 0.1630062 0.85446721 4290756538
-0.081481747 0.16247725 0.85144103 4291151554
-0.079746738 0.16212562 0.84941864 4290690747
-0.07804025 0.1619513 0.84839988 4288716958
-0.076356649 0.16195434 0.84838486 4288782751
-0.074655786 0.16178003 0.84736621 4292072401
-0.072958671 0.16160572 0.84634757 4292730331
-0.071278825 0.16160874 0.84633255 4293125089
-0.06959898 0.16161177 0.84631759 4293388517
-0.067919135 0.16161481 0.84630257 4293651946
-0.066247188 0.1617952 0.84729111 4294046704
-0.064571492 0.16197561 0.8482796 4294244083
-0.0628879 0.16197865 0.84826452 4294507255
-0.061204303 0.16198167 0.8482495 4294770171
-0.059520312 0.16180733 0.84723097 4294901500
-0.057838593 0.16181037 0.84721595 4294901502
-0.056156874 0.16181341 0.84720093 4294901502
-0.054469928 0.16199383 0.84818935 4294901502
-0.052772135 0.16235165 0.8501811 4294901502
-0.051075812 0.16253209 0.85116941 4294835709
-0.049386594 0.16253515 0.85115427 4294901502
-0.047684651 0.1627156 0.85214257 4294901502
-0.045978956 0.16289605 0.85313076 4294901502
-0.04425304 0.16325393 0.85512227 4294901502
-0.042537972 0.1634344 0.85611039 4294901502
-0.040778708 0.16396973 0.85910505 4294901502
-0.038986091 0.16468248 0.86310291 4294901502
-0.090272099 0.16594318 0.8615855 4289308835
-0.088531859 0.16576706 0.86056644 4289440421
-0.086764969 0.16541173 0.85854363 4287269252
-0.084977053 0.16487719 0.85551721 4289045663
-0.083227038 0.16452183 0.85349458 4290230195
-0.081459746 0.16398725 0.85046828 4291019968
-0.079726599 0.16363186 0.84844583 4289769646
-0.078021981 0.16345568 0.84742713 4286874754
-0.076340266 0.1634587 0.84741211 4287203719
-0.074658543 0.16346174 0.84739709 4292203987
-0.072961427 0.16328555 0.84637839 4292730331
-0.071268052 0.16310935 0.8453598 4293059809
-0.069590084 0.16311237 0.84534478 4293388774
-0.067921892 0.16329464 0.84633338 4293717739
-0.066249944 0.16347691 0.84732193 4293586153
-0.064574257 0.16365919 0.84831047 4292204500
-0.062890656 0.16366223 0.84829539 4293585641
-0.061204791 0.16348602 0.84727687 4293125091
-0.059523068 0.16348904 0.84726185 4294835709
-0.057841349 0.16349208 0.84724683 4294901502
-0.05615963 0.16349511 0.84723181 4294901502
-0.054472689 0.16367741 0.84822023 4294506744
-0.052774899 0.16403899 0.85021204 4294901502
-0.051087555 0.16404203 0.85019696 4294835709
-0.049400214 0.16404508 0.85018188 4294901502
-0.047687426 0.16440667 0.85217357 4294901502
-0.045981735 0.16458902 0.85316181 4294901502
-0.044272292 0.16477135 0.85415006 4294901502
-0.042559106 0.16495369 0.85513824 4294901502
-0.040801723 0.16549464 0.85813302 4294901502
-0.039010994 0.1662149 0.862131 4294901502
-0.090309046 0.1678322 0.86262065 4289243299
-0.088566929 0.16765422 0.86160153 4289704106
-0.086798161 0.16729514 0.85957867 4286677628
-0.08500836 0.16675498 0.85655212 4287006594
-0.083256461 0.16639587 0.85452938 4287532938
-0.08146251 0.16567458 0.85049927 4290756540
-0.079729363 0.16531545 0.84847671 4290493623
-0.078024738 0.1651374 0.84745795 4288520090
-0.07636217 0.16532151 0.84844661 4286677886
-0.0746613 0.16514346 0.8474279 4289901744
-0.072979584 0.16514648 0.84741288 4292401879
-0.071297862 0.16514952 0.84739786 4293059809
-0.069616146 0.16515255 0.84738284 4293388774
-0.067934424 0.16515559 0.84736782 4293586153
-0.066260606 0.16533974 0.84835637 4292204500
-0.064577013 0.16534278 0.84834135 4291743437
-0.06289342 0.16534582 0.84832633 4292072403
-0.061209828 0.16534886 0.84831125 4292335319
-0.059526231 0.16535188 0.84829623 4294638330
-0.057841167 0.16553606 0.84928471 4294835709
-0.0561557 0.1655391 0.84926963 4292467161
-0.054465011 0.16572328 0.85025805 4291282887
-0.052770574 0.16590747 0.85124648 4294638330
-0.051081356 0.16591051 0.85123134 4294967038
-0.04938129 0.16609471 0.8522197 4294967038
-0.047690198 0.16609776 0.85220462 4294901502
-0.04598451 0.16628197 0.85319287 4294901502
-0.044275075 0.16646619 0.85418111 4294901502
-0.042561885 0.16665041 0.85516936 4294901502
-0.040784296 0.16737814 0.85916758 4294901502
-0.090346009 0.16972499 0.86365587 4287729803
-0.088602014 0.16954511 0.86263674 4288782747
-0.086800955 0.16899934 0.85960996 4287401094
-0.085011147 0.16845356 0.8565833 4286677371
-0.083259247 0.1680907 0.85456049 4290756794
-0.081514843 0.16772784 0.85253781 4291085759
-0.079777934 0.16736495 0.85051513 4291283139
-0.078048527 0.16700207 0.84849256 4291480518
-0.07638409 0.16718808 0.84948128 4291283396
-0.074681342 0.16700815 0.84846246 4291414983
-0.072997749 0.16701117 0.84844744 4292533465
-0.071314156 0.16701421 0.84843242 4292994016
-0.069630556 0.16701725 0.84841734 4293388774
-0.06793718 0.1668373 0.84739864 4293651946
-0.066255465 0.16684033 0.84738362 4293125602
-0.064573742 0.16684337 0.8473686 4293059809
-0.062896185 0.1670294 0.8483572 4293322982
-0.061212588 0.16703244 0.84834212 4293322727
-0.059529401 0.16721848 0.84933066 4294572537
-0.057842467 0.16740453 0.85031915 4293059298
-0.056155123 0.16740757 0.85030407 4289901234
-0.05446256 0.16759363 0.85129255 4292006355
-0.052766252 0.1677797 0.85228091 4294703868
-0.051075157 0.16778275 0.85226583 4294966783
-0.049373224 0.16796882 0.8532542 4294901246
-0.047667541 0.16815491 0.8542425 4294901502
-0.045972697 0.16815796 0.85422736 4294901502
-0.044261388 0.16834405 0.85521567 4294901502
-0.042546328 0.16853015 0.85620391 4294901502
-0.040766876 0.16926539 0.86020225 4294901502
-0.090348817 0.17143668 0.86368728 4287664010
-0.088604815 0.17125495 0.8626681 4288190354
-0.086803749 0.17070356 0.85964119 4290032815
-0.085013933 0.17015214 0.85661441 4290230450
-0.083288684 0.16997038 0.85559541 4290691001
-0.081542395 0.16960377 0.85357261 4291151809
-0.079803608 0.16923714 0.85154992 4291414725
-0.078072324 0.16887049 0.84952724 4291678154
-0.076386854 0.16887353 0.84951216 4292007120
-0.074684098 0.16869172 0.84849334 4292336086
-0.073000506 0.16869476 0.84847832 4292665051
-0.071316913 0.1686978 0.8484633 4292994016
-0.06963332 0.16870084 0.84844822 4293322981
-0.067939937 0.16851901 0.84742951 4293651946
-0.066258222 0.16852205 0.84741449 4293980911
-0.064570464 0.16834021 0.84639579 4294244083
-0.062890619 0.16834323 0.84638083 4294441462
-0.061213061 0.16853115 0.84736943 4294704122
-0.059531756 0.16871905 0.84835798 4294835709
-0.057846695 0.16890697 0.84934652 4294704123
-0.056157887 0.16909491 0.85033506 4290493371
-0.054465331 0.16928284 0.85132354 4294638331
-0.052769024 0.16947079 0.85231197 4294966783
-0.051068969 0.16965874 0.85330039 4294966783
-0.049376 0.16966179 0.85328525 4294967039
-0.047657605 0.17003465 0.85527706 4293125092
-0.045960888 0.1700377 0.85526192 4293783021
-0.044247705 0.17022568 0.85625023 4294769916
-0.042512439 0.17059857 0.85824192 4294901502
-0.04074946 0.17115639 0.86123693 4294901502
-0.038953144 0.17189915 0.86523527 4294901502
-0.088639908 0.17315148 0.86370337 4289703849
-0.086836956 0.17259447 0.86067641 4290098864
-0.085045256 0.17203744 0.85764951 4290493878
-0.083318129 0.1718538 0.85663044 4290757051
-0.081569962 0.17148343 0.85460752 4291086272
-0.079829291 0.17111306 0.85258472 4291283395
-0.078117162 0.17092939 0.85156578 4291678154
-0.076408781 0.17074572 0.8505469 4292007119
-0.074704148 0.17056204 0.84952801 4292270292
-0.073018678 0.17056508 0.84951299 4292730844
-0.071333215 0.17056812 0.84949791 4293059809
-0.069647744 0.17057116 0.84948283 4293388774
-0.067962274 0.1705742 0.84946781 4293783532
-0.066260979 0.17020376 0.84744537 4294046704
-0.064579256 0.17020679 0.84743029 4294244083
-0.062897541 0.17020983 0.84741527 4294573048
-0.061215822 0.17021285 0.84740025 4294638842
-0.059534516 0.17040265 0.84838885 4294770429
-0.057849459 0.17059244 0.84937745 4294835966
-0.056160655 0.17078224 0.850366 4292796126
-0.054468103 0.17097205 0.85135454 4294638330
-0.052771799 0.17116186 0.85234296 4294901503
-0.051062785 0.17153846 0.85433501 4294901503
-0.049367942 0.17154151 0.85431981 4293322472
-0.047647677 0.17191814 0.85631174 4289572271
-0.045934502 0.17210798 0.85730004 4293914607
-0.044217575 0.17229784 0.85828835 4294901502
-0.042478561 0.17267448 0.8602801 4294901501
-0.040732052 0.17305115 0.86227173 4294901502
-0.038933873 0.17380141 0.86627018 4294901502
-0.090422757 0.17523724 0.865758 4289243042
-0.088610426 0.17467462 0.8627308 4289572263
-0.08683975 0.17430055 0.8607077 4290033071
-0.085048042 0.17373788 0.85768068 4290427829
-0.083320908 0.17355238 0.85666156 4290822587
-0.081547946 0.17298968 0.85363472 4291019966
-0.079832062 0.17280415 0.85261571 4291414725
-0.078098893 0.17243001 0.85059291 4291678155
-0.076392382 0.17224446 0.84957403 4292007121
-0.074706912 0.1722475 0.84955895 4292401879
-0.073021442 0.17225054 0.84954387 4292730844
-0.071335979 0.17225358 0.84952885 4293191395
-0.069650508 0.17225662 0.84951377 4293388774
-0.067955248 0.17207104 0.84849495 4293651946
-0.066263735 0.17188546 0.84747618 4294046704
-0.064575978 0.17169988 0.84645742 4294244083
-0.062896132 0.17170291 0.84644246 4294507255
-0.061218578 0.17189457 0.84743112 4294704635
-0.059537277 0.17208622 0.84841979 4294836222
-0.057853684 0.17208926 0.84840471 4294836222
-0.056166757 0.17228094 0.84939331 4294769916
-0.054476079 0.17247263 0.85038185 4294901502
-0.052774571 0.17285295 0.85237402 4294967295
-0.05107452 0.17304465 0.8533625 4294704124
-0.049370721 0.17323636 0.85435092 4290690752
-0.047650464 0.17361672 0.85634291 4291677648
-0.045922708 0.17399709 0.85833478 4294901503
-0.044187453 0.17437749 0.86032665 4294967295
-0.042463031 0.17456923 0.86131489 4294901503
-0.040694445 0.17513831 0.86431009 4294835709
-0.03891461 0.17570741 0.86730516 4294835709
-0.037075616 0.17665389 0.87230706 4294901502
-0.090425573 0.1769527 0.86578947 4289111456
-0.088613227 0.17638445 0.86276221 4289638056
-0.086812131 0.17581618 0.85973501 4290033071
-0.085022286 0.17524789 0.85670793 4290493622
-0.083297029 0.1750605 0.85568881 4290822587
-0.081525929 0.17449218 0.85266185 4291085760
-0.079811923 0.17430477 0.85164285 4291414982
-0.078101657 0.17411734 0.85062391 4291612363
-0.076395147 0.17392991 0.84960496 4292007121
-0.074709676 0.17393295 0.84958988 4292401879
-0.073024206 0.17393599 0.8495748 4292665051
-0.071338743 0.17393903 0.84955978 4293191395
-0.069653273 0.17394207 0.8495447 4293454567
-0.067967802 0.17394511 0.84952962 4293651946
-0.066274412 0.17375767 0.8485108 4294046704
-0.064584777 0.17357022 0.84749204 4294309876
-0.062903054 0.17357324 0.84747702 4294573048
-0.061221335 0.17357628 0.847462 4294770427
-0.059539616 0.17357931 0.84744692 4294836220
-0.057856444 0.17377286 0.84843558 4294836221
-0.056172848 0.1737759 0.84842056 4294836222
-0.054478846 0.17415996 0.85041285 4294835966
-0.052784424 0.17435353 0.85140139 4294901502
-0.051077295 0.1747376 0.85339355 4294769916
-0.049384329 0.17474066 0.85337842 4294111986
-0.04765325 0.17531531 0.85637408 4294769916
-0.045925498 0.17569943 0.85836601 4294901502
-0.04419025 0.17608356 0.86035794 4294835710
-0.042447504 0.17646773 0.86234975 4294835709
-0.040677052 0.17704244 0.86534506 4294901502
-0.038895354 0.17761716 0.86834019 4294901502
-0.037078451 0.17838247 0.87233877 4294901502
-0.090428382 0.17866816 0.86582094 4289177249
-0.088616028 0.17809428 0.86279356 4289637800
-0.086814933 0.17752039 0.85976624 4290033071
-0.085025072 0.17694648 0.85673904 4290362036
-0.083299808 0.17675722 0.85571992 4290756795
-0.081528708 0.17618327 0.8526929 4291217346
-0.079814687 0.17599398 0.85167384 4291414726
-0.078104429 0.17580467 0.85065484 4291678156
-0.076417081 0.17580773 0.85063976 4292072914
-0.07471244 0.17561843 0.84962082 4292336086
-0.07302697 0.17562146 0.84960574 4292730844
-0.071341507 0.1756245 0.84959066 4293059809
-0.069656037 0.17562754 0.84957564 4293322981
-0.067970566 0.17563058 0.84956056 4293717739
-0.066285096 0.17563362 0.84954548 4293980911
-0.064599626 0.17563666 0.84953046 4294244083
-0.062914163 0.1756397 0.84951538 4294507255
-0.061226394 0.17545037 0.84849656 4294704634
-0.059542798 0.17545339 0.84848154 4294836220
-0.057859205 0.17545643 0.84846652 4294836220
-0.056175608 0.17545947 0.84845144 4294836222
-0.054481614 0.17584729 0.85044378 4294901758
-0.052787192 0.17604272 0.85143238 4294901502
-0.051080074 0.17643057 0.85342461 4294901502
-0.049376279 0.17662603 0.85441309 4294901502
-0.047668736 0.17682149 0.85540158 4294901502
-0.045942865 0.17720936 0.85739362 4294901502
-0.044193048 0.17778966 0.86038923 4294177779
-0.042450305 0.17817757 0.8623811 4293848814
-0.040679865 0.17875789 0.86537653 4294901502
-0.038876101 0.17953067 0.86937535 4294835709
-0.090397023 0.18018942 0.86484838 4289111713
-0.088586539 0.17960992 0.86182088 4289572521
-0.086787298 0.1790304 0.8587935 4290033071
-0.084999308 0.17845085 0.85576624 4290296243
-0.083275922 0.17825972 0.85474706 4290756795
-0.081506677 0.17768013 0.85171992 4291151297
-0.079794534 0.17748897 0.85070086 4291414728
-0.078107193 0.17749202 0.85068578 4291612363
-0.076419853 0.17749506 0.8506707 4291941328
-0.074715205 0.17730388 0.84965169 4292336086
-0.073029734 0.17730692 0.84963667 4292665051
-0.071330719 0.17711572 0.84861773 4292994016
-0.069647126 0.17711876 0.84860265 4293322981
-0.067963533 0.1771218 0.84858763 4293651946
-0.066279933 0.17712484 0.84857261 4293915118
-0.06459634 0.17712788 0.84855753 4294309876
-0.06291692 0.17732516 0.84954631 4294507255
-0.061229154 0.17713395 0.84852749 4294704633
-0.059545558 0.17713699 0.84851241 4294836219
-0.057861965 0.17714003 0.84849739 4294836220
-0.056178372 0.17714307 0.84848231 4294901759
-0.054489579 0.17734036 0.84947103 4294835966
-0.052789964 0.17773193 0.85146338 4294901502
-0.051091798 0.17792925 0.85245198 4294901502
-0.04938988 0.17812659 0.85344052 4294901502
-0.047671519 0.17851819 0.85543275 4294901502
-0.045945656 0.17890981 0.85742486 4294901502
-0.044212293 0.17930146 0.8594169 4294506744
-0.042471431 0.1796931 0.86140889 4294111986
-0.040682677 0.18047336 0.86540794 4294901502
-0.038900997 0.18105933 0.86840338 4294901502
-0.088653944 0.18171002 0.86386037 4289637800
-0.08682052 0.18092881 0.85982877 4290098094
-0.085030645 0.18034364 0.85680139 4290492852
-0.083305374 0.18015063 0.85578215 4290887868
-0.081559055 0.17976151 0.85375899 4291019968
-0.079843156 0.17956848 0.85273981 4291480264
-0.078131013 0.17937544 0.85172075 4291678156
-0.076441795 0.17937849 0.85170567 4292007634
-0.074717969 0.17898934 0.84968263 4292401879
-0.073032498 0.17899238 0.84966761 4292730844
-0.071347035 0.17899542 0.84965253 4292994016
-0.069649883 0.17880236 0.84863353 4293322981
-0.06796629 0.17880538 0.84861851 4293651946
-0.066290624 0.17900454 0.84960735 4293915118
-0.064605154 0.17900757 0.84959227 4294244083
-0.062919684 0.17901061 0.84957725 4294507255
-0.061234217 0.17901365 0.84956217 4294704635
-0.059548751 0.17901669 0.84954709 4294836222
-0.05786328 0.17901975 0.84953207 4294836222
-0.056174491 0.17921892 0.85052079 4294901502
-0.054487146 0.17922196 0.85050571 4294901502
-0.052792735 0.17942114 0.85149437 4294901502
-0.051094569 0.17962034 0.85248297 4294901502
-0.049392655 0.17981954 0.85347158 4294901502
-0.047674298 0.1802149 0.85546386 4294901502
-0.045933876 0.18080643 0.85845971 4294901502
-0.044198643 0.18120182 0.86045182 4294506744
-0.042474233 0.18140106 0.86144018 4294901502
-0.04068549 0.18218881 0.86543941 4294901502
-0.038881749 0.18297659 0.86943853 4294901502
-0.088656746 0.18342173 0.86389178 4289702822
-0.086823314 0.18263301 0.85986006 4290229423
-0.085033432 0.18204223 0.85683256 4290558902
-0.08330816 0.18184733 0.85581332 4290822588
-0.081586637 0.18165244 0.85479409 4291217346
-0.079868861 0.18145753 0.85377491 4291414470
-0.078175895 0.18146059 0.85375977 4291809229
-0.076463744 0.18126567 0.85274065 4292007121
-0.074738041 0.18087277 0.85071754 4292401879
-0.073035263 0.18067785 0.84969848 4292730844
-0.0713498 0.18068089 0.84968346 4293059809
-0.069664329 0.18068393 0.84966838 4293322981
-0.067978859 0.18068697 0.8496533 4293586153
-0.066293389 0.18069001 0.84963828 4293849325
-0.064607918 0.18069305 0.8496232 4294178290
-0.062922448 0.18069609 0.84960812 4294507255
-0.061239291 0.18089712 0.85059696 4294639098
-0.059551947 0.18090017 0.85058188 4294770685
-0.057863161 0.18110122 0.85157061 4294836222
-0.056173939 0.18110426 0.85155553 4294901502
-0.054484721 0.18110731 0.85154045 4294901502
-0.052795503 0.18111035 0.85152537 4294901502
-0.051097345 0.18131143 0.85251403 4294901502
-0.049395435 0.1815125 0.85350263 4294901502
-0.047664393 0.18210964 0.85649872 4294901502
-0.045936666 0.18250877 0.85849094 4294901502
-0.044201441 0.18290791 0.86048311 4294901502
-0.042458717 0.18330705 0.86247522 4294835709
-0.040688306 0.18390426 0.86547089 4294901502
-0.088627249 0.18493362 0.86291903 4288846230
-0.086795673 0.1841374 0.8588872 4290294959
-0.085036218 0.18374081 0.85686374 4290558902
-0.083310939 0.18354405 0.85584444 4290625209
-0.081589416 0.18334727 0.8548252 4291151553
-0.079894572 0.18335032 0.85481006 4291414469
-0.078178667 0.18315354 0.85379082 4291743179
-0.076466516 0.18295676 0.85277164 4292138194
-0.074758112 0.18275996 0.85175252 4292269780
-0.073053464 0.18256316 0.85073346 4292730331
-0.071352556 0.18236634 0.84971434 4293059296
-0.069667093 0.18236938 0.84969932 4293454054
-0.067981623 0.18237242 0.84968424 4293717226
-0.066296153 0.18237546 0.84966916 4293980398
-0.064610682 0.1823785 0.84965414 4294309620
-0.062925212 0.18238154 0.84963906 4294573048
-0.061242055 0.18258446 0.8506279 4294704635
-0.059555147 0.18278737 0.85161668 4294836222
-0.057864491 0.18299031 0.85260546 4294901502
-0.056173395 0.18299337 0.85259038 4294901502
-0.054487493 0.18279652 0.85157144 4294901502
-0.052798275 0.18279956 0.85155636 4294901502
-0.051091179 0.1832024 0.85354882 4294901502
-0.049387395 0.18340535 0.85453749 4294901502
-0.047654487 0.18400812 0.85753363 4294835709
-0.045924895 0.184411 0.85952592 4294901502
-0.044187803 0.1848139 0.86151814 4294901502
-0.042461522 0.18501689 0.86250657 4294835709
-0.040691119 0.18561973 0.86550236 4294967295
-0.08863005 0.18664345 0.86295038 4287987841
-0.086828902 0.18604143 0.85992259 4288647311
-0.085039005 0.18543941 0.85689485 4290688178
-0.083340406 0.18544246 0.85687971 4291018170
-0.081617005 0.18524382 0.85586041 4291479234
-0.079897352 0.18504517 0.85484111 4291611334
-0.078202508 0.18504822 0.85482597 4291939787
-0.076507665 0.18505128 0.85481083 4292006608
-0.074778199 0.1846509 0.85278755 4292335829
-0.073071666 0.18445222 0.85176843 4292861660
-0.071368888 0.18425353 0.85074931 4293124832
-0.06968154 0.18425657 0.85073423 4293519590
-0.067984387 0.18405788 0.84971517 4293782762
-0.066298917 0.18406092 0.84970009 4294111727
-0.064613447 0.18406396 0.84968507 4294309363
-0.062927976 0.184067 0.84966999 4294638328
-0.061244823 0.1842718 0.85065883 4294769915
-0.059557918 0.18447658 0.85164768 4294901502
-0.057867263 0.1846814 0.85263652 4294901502
-0.056176171 0.18468444 0.85262138 4294901502
-0.054485075 0.1846875 0.8526063 4294901502
-0.052786924 0.18489231 0.85359502 4294901502
-0.051076084 0.1852989 0.85558754 4294901502
-0.049368557 0.18550374 0.8565762 4294901502
-0.047644593 0.18591036 0.85856861 4294901502
-0.04591313 0.186317 0.86056095 4294901502
-0.044174168 0.18672363 0.86255324 4294901502
-0.042464327 0.18672672 0.86253798 4294901502
-0.040693931 0.18733518 0.86553383 4294901502
-0.086801261 0.18754207 0.85894966 4287520874
-0.085041791 0.18713799 0.85692602 4288508795
-0.083316505 0.18693747 0.85590667 4288049271
-0.081594974 0.18673694 0.85488737 4289171346
-0.079900131 0.18674 0.85487223 4290226344
-0.078205287 0.18674305 0.85485709 4290556850
-0.076510444 0.18674612 0.85484195 4291939276
-0.074815601 0.18674918 0.85482681 4292597207
-0.07310532 0.18654862 0.85380757 4292794330
-0.071398787 0.18634808 0.85278839 4293583332
-0.069696002 0.18614753 0.85176921 4292727766
-0.067996964 0.18594696 0.85075009 4293714918
-0.066309623 0.18595 0.85073507 4294242802
-0.064622276 0.18595304 0.85071999 4294309365
-0.062934935 0.18595609 0.85070491 4294572537
-0.061249908 0.18616275 0.85169375 4294769659
-0.05956069 0.18616579 0.85167867 4293782764
-0.057870038 0.18637247 0.85266751 4294309365
-0.056178942 0.18637553 0.85265243 4293914607
-0.054482669 0.18658222 0.85364121 4294638330
-0.052775584 0.18699256 0.85563385 4294638330
-0.051069934 0.18719926 0.85662252 4293717228
-0.049360532 0.18740597 0.85761118 4294572537
-0.047634702 0.18781635 0.85960364 4294243572
-0.045915928 0.18802308 0.86059225 4294835709
-0.044193402 0.18822981 0.86158079 4294835709
-0.042467128 0.18843655 0.86256933 4294901502
-0.040676564 0.1892543 0.8665691 4294901502
-0.08683449 0.18944985 0.85998511 4288508025
-0.08504457 0.18883657 0.8569572 4289297798
-0.083319291 0.18863417 0.85593784 4287850609
-0.081597753 0.18843178 0.85491848 4289364362
-0.07990291 0.18843484 0.85490334 4289233290
-0.078208067 0.18843789 0.8548882 4289562771
-0.076513223 0.18844095 0.854873 4290023580
-0.07481838 0.188444 0.85485786 4289695899
-0.073123537 0.18844706 0.85484272 4290881714
-0.071415126 0.18824464 0.85382348 4291473852
-0.069710463 0.18804221 0.8528043 4291474108
-0.068009555 0.18783978 0.85178512 4291804870
-0.06632033 0.18784282 0.85177004 4292595413
-0.064631112 0.18784587 0.85175496 4292990941
-0.062941894 0.18784891 0.85173988 4294505463
-0.061252676 0.18785197 0.85172474 4294835196
-0.059563458 0.18785501 0.85170966 4288584861
-0.05787424 0.18785806 0.85169458 4290032820
-0.056181718 0.18806662 0.85268342 4291480266
-0.054480262 0.18848069 0.85467619 4293783021
-0.052771311 0.18889478 0.85666889 4292664540
-0.051063791 0.18910336 0.85765761 4292072403
-0.049352519 0.18931195 0.85864627 4292598747
-0.047637496 0.18952055 0.85963494 4293059298
-0.045918725 0.18972915 0.86062354 4294835709
-0.044179775 0.1901433 0.86261594 4294901502
-0.042451631 0.19035193 0.86360449 4294901502
-0.0406592 0.19117717 0.86760437 4294901502
-0.086867735 0.19136138 0.86102068 4290028708
-0.08507593 0.19074248 0.85799265 4290224803
-0.083348766 0.19053821 0.85697317 4289301135
-0.08162535 0.19033395 0.85595375 4290089882
-0.079905689 0.19012967 0.85493439 4289564565
-0.078210846 0.19013272 0.85491925 4291340465
-0.076516002 0.19013578 0.85490412 4289957273
-0.074803837 0.1899315 0.85388482 4289033862
-0.073110871 0.18993455 0.85386968 4291798965
-0.071417905 0.18993761 0.85385454 4290680485
-0.069724932 0.18994066 0.85383946 4290546590
-0.068022147 0.18973635 0.85282022 4290283931
-0.066331051 0.18973939 0.85280514 4292589509
-0.064633884 0.18953508 0.85178596 4292001992
-0.062944666 0.18953812 0.85177082 4293452005
-0.061255448 0.18954118 0.85175574 4294966526
-0.05956623 0.18954422 0.85174066 4287993237
-0.057877012 0.18954727 0.85172558 4290493371
-0.056184489 0.1897577 0.85271448 4291677645
-0.054483045 0.19017553 0.8547073 4294440951
-0.05278115 0.19038598 0.85569608 4293059298
-0.051075503 0.19059643 0.85668486 4292993505
-0.049366109 0.1908069 0.85767359 4293519849
-0.04764029 0.19122477 0.85966617 4293519849
-0.045906972 0.19164266 0.86165875 4294901502
-0.044166155 0.19206055 0.86365122 4294901502
-0.042436138 0.19227105 0.86463976 4294901502
-0.040641844 0.19310381 0.86863977 4294901502
-0.086840078 0.19285826 0.86004764 4290229167
-0.085050143 0.19223374 0.85701954 4290557876
-0.08332485 0.1920276 0.85600007 4290689206
-0.081603311 0.19182144 0.85498065 4291149243
-0.07988552 0.1916153 0.85396123 4291280317
-0.078171477 0.19140913 0.85294187 4292133831
-0.076480381 0.19141218 0.85292679 4292195517
-0.074789293 0.19141524 0.85291165 4289429133
-0.073098198 0.19141828 0.85289657 4290746020
-0.071407102 0.19142133 0.85288143 4291798709
-0.069716014 0.19142438 0.85286635 4291797427
-0.068024918 0.19142744 0.85285121 4291270826
-0.066325873 0.19122124 0.85183203 4293840603
-0.064630583 0.19101505 0.85081285 4292790995
-0.062943235 0.19101809 0.85079777 4293385698
-0.061255891 0.19102113 0.85078269 4294769916
-0.059568547 0.19102418 0.85076761 4290230199
-0.057881203 0.19102722 0.85075253 4292203989
-0.056190562 0.19123952 0.85174149 4293519849
-0.054496169 0.19145183 0.85273039 4294704123
-0.052790981 0.19187342 0.85472322 4292861919
-0.051087212 0.19208574 0.85571206 4292927712
-0.049390495 0.19208881 0.85569692 4294506744
-0.047668431 0.19251043 0.85768962 4294572537
-0.045924321 0.19314133 0.86068612 4294901502
-0.04416896 0.19377226 0.86368257 4294901502
-0.042420648 0.19419391 0.86567509 4294901502
-0.040644668 0.19482487 0.8686713 4294836222
-0.08687333 0.19477355 0.86108327 4290032558
-0.085081503 0.1941434 0.858055 4290361524
-0.083354339 0.19393538 0.85703552 4290756283
-0.08160609 0.19351628 0.8550117 4291216835
-0.079888299 0.19330825 0.85399228 4291479750
-0.078174248 0.19310021 0.85297292 4292005581
-0.07648316 0.19310327 0.85295779 4292268242
-0.074792065 0.19310631 0.85294271 4291477186
-0.073100969 0.19310936 0.85292757 4292792020
-0.071409874 0.19311242 0.85291249 4293648612
-0.069718786 0.19311547 0.85289735 4293845992
-0.068017863 0.19290741 0.85187811 4293912043
-0.066328645 0.19291045 0.85186303 4294241520
-0.064633347 0.19270238 0.85084379 4294110705
-0.062945999 0.19270542 0.85082871 4294374903
-0.061258659 0.19270846 0.85081363 4294638331
-0.059571769 0.19292264 0.85180265 4294573050
-0.057882551 0.19292569 0.85178757 4294836222
-0.056193333 0.19292873 0.85177249 4294770429
-0.054498944 0.19314292 0.85276139 4294770429
-0.052800804 0.19335711 0.85375029 4294704636
-0.051089995 0.19378245 0.85574317 4294836222
-0.049382482 0.19399667 0.85673201 4294705150
-0.047645882 0.19463319 0.85972869 4294770686
-0.045898028 0.19526972 0.86272532 4294836222
-0.044138931 0.19590628 0.86572188 4294901502
-0.042405169 0.19612053 0.86671042 4294901502
-0.086906582 0.19669259 0.86211896 4289901230
-0.085084297 0.19584386 0.85808623 4290493110
-0.083357126 0.19563396 0.85706669 4290822334
-0.081608869 0.19521111 0.85504282 4291085506
-0.079891071 0.19500121 0.85402334 4291480264
-0.078198105 0.19500427 0.85400826 4291809229
-0.076505139 0.19500732 0.85399312 4292203987
-0.074794836 0.1947974 0.8529737 4292466903
-0.073103741 0.19480045 0.85295862 4292927455
-0.071412653 0.19480351 0.85294348 4293387750
-0.069709852 0.19459356 0.85192418 4293650922
-0.068020634 0.19459662 0.8519091 4293980400
-0.066323459 0.19438668 0.8508898 4294243315
-0.064630032 0.19417672 0.84987056 4294571767
-0.062944561 0.19417976 0.84985548 4294835709
-0.061263759 0.19460881 0.85184872 4294835965
-0.059574995 0.19482486 0.85283774 4294901502
-0.057883903 0.1948279 0.85282266 4294836222
-0.056192808 0.19483095 0.85280752 4294836222
-0.054501716 0.19483401 0.85279244 4294836222
-0.05280358 0.19505008 0.85378134 4294836222
-0.051092777 0.19547917 0.85577428 4294836222
-0.049385268 0.19569525 0.85676318 4294836222
-0.047648676 0.19633739 0.85975999 4294836222
-0.045900833 0.19697955 0.86275673 4294901502
-0.044125326 0.19783477 0.86675727 4294901502
-0.042389695 0.1980509 0.86774588 4294901502
-0.086939834 0.19861537 0.86315471 4289835693
-0.085115664 0.19775914 0.8591218 4290427830
-0.083386615 0.19754739 0.8581022 4290822332
-0.081611648 0.19690596 0.85507393 4291085506
-0.07989385 0.19669417 0.85405445 4291414471
-0.078200884 0.19669722 0.85403931 4291875022
-0.076507911 0.19670027 0.85402417 4292269523
-0.074797608 0.19648848 0.85300475 4292664024
-0.07310652 0.19649154 0.85298961 4292926940
-0.071401842 0.19627973 0.85197026 4293453284
-0.069712624 0.19628277 0.85195518 4293782250
-0.068013571 0.19607097 0.85093582 4294045937
-0.066326223 0.19607401 0.85092074 4294243828
-0.064632796 0.19586219 0.8499015 4294375928
-0.062951535 0.1960801 0.85089064 4294769916
-0.061266527 0.19629802 0.85187972 4294770429
-0.059577771 0.19651593 0.8528688 4294901759
-0.057885263 0.19673388 0.85385782 4294836222
-0.056192294 0.19673692 0.85384268 4294836222
-0.054499324 0.19673997 0.85382754 4294836222
-0.052799318 0.19695792 0.8548165 4294901502
-0.051104475 0.19696099 0.85480136 4294901502
-0.049398843 0.19717893 0.85579026 4294901502
-0.047664132 0.1978267 0.85878724 4294901502
-0.045903638 0.19868939 0.86278808 4294901502
-0.044128142 0.1995521 0.8667888 4294901502
-0.042374223 0.19998503 0.86878145 4294901502
-0.086973101 0.2005419 0.86419052 4289769642
-0.085147046 0.19967818 0.86015749 4290296500
-0.083416112 0.19946454 0.85913783 4290691002
-0.0816641 0.1990342 0.85711384 4291020226
-0.079942547 0.19882056 0.85609424 4291349191
-0.078245826 0.19882362 0.8560791 4291744462
-0.076529898 0.19860996 0.85505956 4292072914
-0.074817717 0.1983963 0.85404009 4292533464
-0.073109291 0.19818263 0.85302067 4292796638
-0.071418196 0.19818567 0.85300553 4293257190
-0.0697271 0.19818872 0.85299045 4293585899
-0.06802617 0.19797504 0.85197109 4293980400
-0.066336952 0.19797808 0.85195595 4294243572
-0.064647734 0.19798113 0.85194087 4294507257
-0.062958516 0.19798417 0.85192579 4294638843
-0.061271638 0.19820397 0.85291493 4294836222
-0.059581008 0.19842377 0.85390395 4294836222
-0.057886627 0.19864358 0.85489303 4294836222
-0.056188498 0.1988634 0.85588205 4294901502
-0.054491777 0.19886646 0.85586685 4294901502
-0.05279506 0.19886953 0.85585171 4294901502
-0.051089432 0.19908935 0.85684067 4294901502
-0.049380053 0.19930919 0.85782957 4294901758
-0.047654264 0.1997458 0.85982251 4294901502
-0.045906439 0.20039922 0.86281943 4294901502
-0.044114549 0.20148621 0.86782432 4294901502
-0.042358764 0.20192289 0.86981702 4294901502
-0.086945444 0.20203502 0.86321741 4289966251
-0.08514984 0.20138238 0.86018872 4290558645
-0.083418906 0.20116688 0.85916907 4290822331
-0.081666887 0.20073278 0.85714495 4291085504
-0.079945333 0.20051727 0.85612535 4291677128
-0.07822752 0.20030174 0.85510582 4291743179
-0.076532677 0.20030479 0.85509068 4292203987
-0.074803159 0.19987066 0.8530668 4292401880
-0.073112063 0.1998737 0.85305166 4292795869
-0.071407378 0.19965816 0.85203224 4293453542
-0.06971816 0.1996612 0.85201716 4293585642
-0.068028942 0.19966425 0.85200202 4293849327
-0.066339724 0.19966729 0.85198694 4294309365
-0.064650506 0.19967034 0.85197186 4294572024
-0.062965505 0.19989201 0.852961 4294901245
-0.061276749 0.20011368 0.85395014 4294901502
-0.059584249 0.20033537 0.85493928 4294901502
-0.057887997 0.20055705 0.8559283 4294901502
-0.05619128 0.20056011 0.85591316 4294901502
-0.05449456 0.20056318 0.85589802 4294901502
-0.052797843 0.20056623 0.85588282 4294966782
-0.051092219 0.20078793 0.85687184 4294966783
-0.049393624 0.200791 0.85685664 4294966783
-0.047657058 0.20145002 0.8598538 4294900991
-0.045909245 0.20210905 0.86285079 4294966783
-0.044117369 0.20320542 0.86785591 4294835709
-0.086948253 0.20374486 0.86324877 4289500564
-0.085181221 0.20330705 0.86122453 4291016884
-0.083448417 0.20308967 0.86020476 4288246904
-0.081694514 0.20265183 0.85818058 4290617506
-0.079948112 0.20221397 0.85615653 4291737015
-0.078230299 0.20199656 0.85513693 4292660172
-0.076535456 0.20199962 0.85512179 4293056471
-0.07480593 0.20156173 0.8530978 4293254365
-0.073099367 0.20134431 0.85207832 4293452513
-0.071410149 0.20134737 0.85206324 4293518563
-0.069720931 0.20135041 0.85204816 4293650664
-0.068031713 0.20135346 0.85203302 4294045936
-0.066342495 0.2013565 0.85201794 4294243315
-0.064659372 0.20158005 0.85300714 4294572281
-0.062968276 0.20158309 0.85299206 4294769660
-0.061279528 0.20180663 0.8539812 4294901246
-0.059587028 0.2020302 0.85497034 4294901502
-0.05789078 0.20225376 0.85595942 4294901502
-0.05619406 0.20225681 0.85594428 4294901502
-0.054492187 0.20248039 0.85693336 4294901502
-0.052786566 0.20270397 0.85792232 4294966783
-0.051086098 0.20270704 0.85790718 4294966527
-0.049374852 0.20293063 0.85889614 4294966527
-0.047647201 0.20337476 0.8608892 4294966527
-0.045882989 0.20425995 0.8648904 4294965501
-0.044103783 0.20514517 0.86889154 4294963962
-0.08698152 0.20567702 0.86428469 4286915899
-0.085184023 0.20501313 0.86125582 4287308347
-0.083451211 0.20479389 0.86023605 4287176761
-0.0816973 0.20435229 0.85821182 4287178301
-0.079973862 0.20413302 0.8571921 4287247433
-0.078254178 0.20391375 0.8561725 4287581020
-0.076538235 0.20369446 0.85515285 4289032060
-0.074808702 0.20325282 0.85312885 4290153108
-0.073117606 0.20325588 0.85311371 4291997622
-0.071412921 0.20303658 0.85209423 4293117387
-0.069723703 0.20303962 0.85207915 4293776087
-0.068034485 0.20304267 0.85206401 4294500325
-0.066345267 0.20304571 0.85204893 4294764781
-0.064662144 0.20327112 0.85303819 4294963958
-0.062971048 0.20327418 0.85302305 4294964217
-0.061282303 0.2034996 0.85401225 4294964987
-0.05959028 0.20394741 0.85600573 4294964987
-0.057892159 0.20417285 0.85699487 4294964731
-0.056193568 0.20417592 0.85697967 4294964475
-0.054489821 0.20440136 0.85796875 4294964474
-0.052782327 0.20462683 0.85895777 4294963449
-0.051071081 0.20485228 0.85994673 4294962679
-0.049356088 0.20507775 0.86093575 4294895088
-0.047624696 0.20552564 0.86292881 4293903829
-0.045871273 0.20619594 0.86592603 4291718285
-0.044090204 0.20708865 0.86992723 4291581822
-0.086984329 0.20738873 0.86431611 4285537840
-0.085186817 0.20671922 0.86128712 4286718777
-0.083454005 0.20649809 0.86026728 4287900225
-0.081700094 0.20605275 0.85824299 4288227651
-0.079953678 0.20560738 0.85621876 4288489542
-0.078235857 0.20538624 0.8551991 4288555080
-0.076541014 0.20538929 0.85518396 4288621130
-0.074811473 0.20494391 0.85315984 4288686668
-0.073104911 0.20472273 0.85214031 4288819024
-0.071415693 0.20472579 0.85212523 4288689235
-0.069726475 0.20472883 0.85211009 4288954203
-0.068027407 0.20450765 0.85109061 4289679980
-0.066348031 0.20473492 0.85207993 4289747826
-0.064664915 0.20496221 0.85306919 4290275711
-0.06297382 0.20496526 0.85305411 4290802568
-0.061285079 0.20519257 0.8540433 4291527061
-0.059593063 0.20564412 0.85603684 4291658648
-0.057896346 0.20564719 0.8560217 4291920537
-0.056199625 0.20565024 0.85600656 4291852949
-0.05449776 0.20587756 0.85699564 4291521930
-0.052792143 0.20610489 0.85798472 4291650695
-0.051073879 0.2065565 0.85997802 4291845507
-0.049358886 0.20678385 0.86096704 4291843710
-0.047627497 0.20723547 0.86296016 4291842426
-0.045874089 0.20791139 0.8659575 4292762501
-0.044109426 0.20858733 0.86895466 4292894087
-0.085246816 0.20887744 0.86332762 4283504673
-0.08351025 0.20865445 0.86230773 4285013290
-0.081727728 0.20797929 0.8592788 4286324788
-0.080002412 0.20775627 0.85825902 4287374397
-0.078280844 0.20753326 0.85723925 4288096324
-0.076563023 0.20731021 0.85621959 4289016143
-0.074831605 0.20686109 0.85419542 4289541205
-0.073123157 0.20663804 0.85317576 4289671510
-0.071432061 0.20664109 0.85316068 4289998934
-0.069740966 0.20664415 0.85314554 4290327386
-0.068049878 0.2066472 0.85313046 4290853987
-0.066358782 0.20665024 0.85311532 4290920037
-0.064673789 0.20687941 0.85410464 4291248489
-0.062980823 0.20688246 0.8540895 4291774575
-0.061290208 0.20711164 0.85507876 4292169847
-0.059595846 0.20734082 0.85606796 4292433276
-0.057897732 0.20757002 0.85705715 4292499326
-0.056199137 0.20757309 0.85704201 4292433790
-0.054495398 0.20780228 0.85803109 4292565376
-0.052780889 0.20825763 0.86002451 4292894597
-0.051058881 0.208713 0.86201781 4292829062
-0.049340144 0.20894222 0.86300683 4292829318
-0.047605012 0.2093976 0.86500001 4292697475
-0.045847859 0.21007915 0.86799741 4291647354
-0.085306831 0.21104318 0.86536825 4281015835
-0.083539784 0.21059036 0.86334372 4281408281
-0.081755377 0.20990957 0.86031461 4282193946
-0.080005199 0.20945673 0.8582902 4283176478
-0.07828363 0.20923184 0.85727042 4284751147
-0.076585039 0.20923489 0.85725528 4285866291
-0.074869089 0.20900999 0.85623556 4286916413
-0.073156893 0.20878507 0.85521585 4287901512
-0.07146205 0.20878814 0.85520071 4288819278
-0.069767207 0.2087912 0.85518557 4289409618
-0.068072364 0.20879425 0.85517043 4290132828
-0.066377521 0.20879731 0.85515529 4290527587
-0.064688779 0.20902835 0.85614461 4291052906
-0.062992066 0.20903142 0.85612941 4291644787
-0.061295345 0.20903447 0.85611427 4291907702
-0.059599109 0.20926555 0.85710353 4291973495
-0.057899121 0.2094966 0.85809273 4292237694
-0.056195386 0.20972767 0.85908186 4292106621
-0.054487903 0.20995876 0.860071 4291909755
-0.05276965 0.21041787 0.86206442 4291910012
-0.051043898 0.21087699 0.86405778 4291056243
-0.049332179 0.21088007 0.86404246 4290399339
-0.047582537 0.21156724 0.86704004 4288757594
-0.045821644 0.21225442 0.87003744 4286592586
-0.08533825 0.21298659 0.86640441 4280427036
-0.083569318 0.21253003 0.86437976 4280557594
-0.081783026 0.21184362 0.86135054 4280819996
-0.08003097 0.21138702 0.859326 4281147933
-0.078307524 0.21116026 0.85830623 4281344285
-0.076607056 0.21116333 0.85829103 4281933855
-0.074906588 0.2111664 0.85827583 4282523426
-0.073206119 0.21116947 0.85826063 4283310632
-0.071505651 0.21117252 0.85824543 4283571494
-0.069805183 0.21117559 0.85823023 4284227113
-0.068104714 0.21117866 0.85821503 4284949296
-0.066404246 0.21118173 0.85819983 4286196028
-0.064703785 0.2111848 0.85818464 4286458431
-0.063007548 0.21141773 0.85917395 4286984263
-0.061305206 0.2114208 0.85915869 4287115079
-0.059602864 0.21142387 0.8591435 4287444301
-0.057899132 0.21165682 0.86013269 4287445071
-0.056191649 0.21188979 0.86112189 4287381075
-0.054475278 0.21235263 0.86311537 4287382101
-0.052758422 0.2125856 0.86410445 4286594895
-0.051028926 0.21304847 0.86609787 4286071118
-0.04931346 0.21305157 0.86608255 4285482318
-0.047560077 0.21374437 0.86908013 4284566349
-0.085369669 0.21493375 0.86744058 4280099099
-0.083625592 0.21470514 0.86642051 4280295707
-0.081835546 0.21401311 0.86339116 4280230427
-0.080079734 0.21355277 0.86136657 4280558366
-0.078352533 0.21332414 0.86034667 4280886304
-0.076648317 0.21332721 0.86033148 4281149218
-0.074926734 0.21309857 0.85931164 4281346084
-0.073224396 0.21310164 0.85929644 4281674022
-0.071535662 0.21333644 0.86028576 4281870887
-0.069831446 0.21333951 0.86027056 4282396974
-0.06812723 0.21334259 0.86025536 4282528303
-0.066423014 0.21334566 0.8602401 4282594610
-0.064718798 0.21334873 0.8602249 4282857782
-0.063014574 0.21335182 0.86020964 4283317821
-0.061307997 0.21312314 0.85918993 4283449406
-0.059606142 0.21335796 0.86017919 4283646786
-0.057900537 0.21359278 0.86116844 4283646787
-0.056191184 0.21382762 0.86215758 4283975752
-0.054467808 0.21452598 0.86515558 4283845192
-0.052740194 0.21499261 0.86714906 4283845706
-0.05100508 0.21545924 0.86914247 4283780939
-0.049283989 0.21546234 0.86912709 4283650123
-0.085372485 0.21665108 0.86747205 4281152044
-0.083628409 0.21642061 0.86645198 4280953638
-0.081838354 0.21572295 0.86342251 4280098842
-0.080082536 0.21525887 0.86139786 4280361757
-0.078334212 0.21479477 0.85937327 4280427037
-0.076612629 0.21456425 0.85835338 4280756258
-0.074912161 0.2145673 0.85833818 4281018660
-0.0732117 0.21457037 0.85832304 4281084197
-0.071511231 0.21457344 0.85830784 4281281319
-0.069822498 0.21481012 0.85929722 4281478698
-0.068120159 0.21481319 0.85928202 4281938992
-0.066417813 0.21481626 0.85926682 4282202421
-0.064709358 0.21458572 0.85824704 4282334007
-0.06300889 0.21458878 0.85823184 4282531129
-0.061308425 0.21459185 0.85821664 4282860094
-0.059607957 0.21459492 0.8582015 4283123523
-0.057906106 0.21483161 0.85919076 4283255366
-0.056200504 0.21506831 0.86018002 4283321415
-0.054486018 0.21553867 0.86217368 4283256137
-0.052757025 0.21624266 0.86517173 4283453771
-0.05102567 0.21671304 0.86716521 4283519821
-0.049308326 0.21671614 0.86714989 4283322699
-0.047553089 0.21742018 0.87014765 4283322955
-0.085375302 0.21836841 0.86750358 4282664770
-0.083631225 0.21813606 0.86648345 4283651151
-0.081841156 0.21743278 0.86345392 4283125064
-0.080062337 0.21672949 0.86042446 4282598720
-0.078294769 0.21602617 0.85739505 4281743154
-0.076596178 0.21602924 0.85737991 4282006326
-0.07488022 0.21579683 0.85636002 4280887845
-0.073183499 0.21579988 0.85634488 4281151017
-0.071486779 0.21580295 0.85632974 4280953381
-0.069790065 0.21580601 0.85631454 4281479982
-0.068093345 0.21580908 0.8562994 4281413932
-0.066388637 0.21557665 0.85527962 4281610798
-0.064693794 0.2155797 0.85526448 4282071605
-0.06299895 0.21558276 0.85524935 4282400314
-0.061306473 0.21582131 0.85623878 4282335035
-0.059610251 0.21605988 0.85722816 4282664000
-0.057910278 0.21629845 0.85821748 4282730305
-0.05620981 0.21630152 0.85820228 4282796099
-0.054499082 0.2167756 0.86019605 4283388492
-0.052780852 0.21724971 0.86218977 4283125321
-0.051046245 0.21795933 0.86518782 4284112216
-0.049332652 0.21796243 0.86517251 4284177752
-0.047593802 0.21843657 0.86716604 4285033317
-0.045847453 0.21891071 0.86915946 4283388236
-0.0853495 0.21984842 0.8665303 4280493345
-0.083607294 0.21961419 0.86551017 4281808948
-0.081868827 0.21937995 0.86449003 4283519823
-0.080088131 0.21867102 0.86146045 4284111959
-0.078318678 0.2179621 0.85843098 4284966755
-0.076598965 0.21772783 0.85741109 4285690734
-0.074882999 0.21749353 0.85639119 4284111446
-0.073186286 0.2174966 0.85637599 4286085749
-0.071489565 0.21749966 0.85636085 4283716689
-0.069792844 0.21750271 0.85634571 4286085493
-0.068086259 0.21726842 0.85532588 4283980117
-0.066383421 0.21703412 0.8543061 4284177496
-0.064690448 0.21703717 0.85429096 4285493356
-0.06300173 0.2172776 0.85528046 4287796111
-0.061309256 0.21751802 0.8562699 4284637792
-0.059613038 0.21775846 0.85725933 4286546046
-0.057913065 0.21799891 0.85824865 4286809730
-0.056212597 0.21800196 0.85823351 4287007623
-0.054507002 0.21824242 0.85922283 4289968308
-0.052790657 0.21872027 0.8612166 4286876037
-0.051066808 0.21919814 0.86321032 4288717984
-0.049335465 0.219676 0.86520398 4287599503
-0.047596619 0.2201539 0.86719751 4285954419
-0.085323691 0.22132468 0.8655569 4281742900
-0.083583355 0.22108857 0.86453676 4280492833
-0.081846766 0.22085245 0.86351663 4279967002
-0.080090925 0.22037712 0.86149174 4280690723
-0.078321464 0.21966255 0.85846215 4281546032
-0.076601751 0.21942641 0.8574422 4283388236
-0.074903153 0.21942946 0.85742706 4282598720
-0.073204562 0.21943253 0.85741186 4285230440
-0.071505971 0.2194356 0.85739672 4284572512
-0.069795631 0.21919943 0.85637683 4287533197
