# .PCD v0.7 - Point Cloud Data file format
VERSION 0.7
FIELDS x y z rgba
SIZE 4 4 4 4
TYPE F F F U
COUNT 1 1 1 1
WIDTH 1047
HEIGHT 1
VIEWPOINT 0 0 0 1 0 0 0
POINTS 1047
DATA ascii
-0.037707791 0.2366218 0.85140741 4294836220
-0.036020447 0.23662484 0.85139233 4294836220
-0.034305513 0.23688781 0.852382 4294836220
-0.032586832 0.23715079 0.85337162 4294836220
-0.030833062 0.2376737 0.85536587 4294901501
-0.029105006 0.23793669 0.85635543 4294901502
-0.027303025 0.23871955 0.8593542 4294901502
-0.025452832 0.2397624 0.8633576 4294901502
-0.02358764 0.24080525 0.86736083 4294836222
-0.075041048 0.24138278 0.86383194 4289045145
-0.073284596 0.24060071 0.86080122 4289439903
-0.071539395 0.2398186 0.85777062 4289900456
-0.069829017 0.23955995 0.85675031 4290229422
-0.068112478 0.23903954 0.854725 4290427059
-0.066403441 0.23851913 0.8526997 4290624951
-0.064708054 0.23826043 0.85167956 4290822587
-0.06301643 0.23800173 0.85065943 4291085759
-0.061328545 0.23774303 0.84963936 4291546310
-0.059644952 0.23774607 0.84962434 4291809482
-0.05796136 0.23774911 0.84960926 4292072655
-0.056274552 0.23801389 0.85059923 4292730842
-0.054589082 0.23801693 0.85058415 4293059807
-0.052896652 0.23828174 0.851574 4293454565
-0.051218145 0.23802301 0.85055405 4293717737
-0.049543388 0.2377643 0.84953403 4294046702
-0.047872379 0.23750556 0.84851414 4294178290
-0.04619066 0.23750859 0.84849912 4294375669
-0.044492606 0.2377734 0.84948891 4294573048
-0.0427908 0.23803823 0.85047871 4294836220
-0.041085243 0.23830305 0.8514685 4294836220
-0.039397899 0.23830609 0.85145342 4294836220
-0.03768672 0.23857093 0.85244316 4294836220
-0.035997503 0.23857397 0.85242808 4294836220
-0.034280699 0.23883882 0.85341775 4294836220
-0.032530684 0.23936547 0.85541213 4294901502
-0.030773172 0.23989214 0.85740644 4294901502
-0.029041369 0.24015701 0.85839593 4294901502
-0.027270732 0.2406837 0.86039013 4294901502
-0.025418676 0.24173404 0.86439359 4294901502
-0.023551622 0.24278441 0.86839694 4294901502
-0.07504385 0.24309261 0.86386329 4288848023
-0.07328739 0.24230491 0.86083251 4289243294
-0.071542181 0.24151719 0.8578018 4289769640
-0.069831803 0.24125665 0.85678148 4290032813
-0.068115257 0.24073251 0.85475606 4290361523
-0.066406205 0.24020834 0.85273069 4290624695
-0.064710826 0.23994777 0.8517105 4290887867
-0.063019194 0.2396872 0.85069036 4291019966
-0.061333723 0.23969024 0.85067528 4291546310
-0.059648253 0.23969328 0.85066026 4291743689
-0.057962783 0.23969632 0.85064518 4292072655
-0.056277316 0.23969936 0.8506301 4292796635
-0.054591846 0.2397024 0.85061508 4293125600
-0.052906379 0.23970544 0.8506 4293454565
-0.051229741 0.23944484 0.84957999 4293783530
-0.049556859 0.23918423 0.84855998 4294046703
-0.047875136 0.23918727 0.84854496 4294244083
-0.046193417 0.2391903 0.84852993 4294441462
-0.044511698 0.23919334 0.84851491 4294638841
-0.042811774 0.23946002 0.84950477 4294770427
-0.041128177 0.23946306 0.84948975 4294836220
-0.039422628 0.23972976 0.85047954 4294836220
-0.037713323 0.23999646 0.85146934 4294836220
-0.036025979 0.23999952 0.85145426 4294836220
-0.034311052 0.24026623 0.85244393 4294836221
-0.032562923 0.24079663 0.85443842 4294901502
-0.030775957 0.24159072 0.85743755 4294901502
-0.029044157 0.24185747 0.85842717 4294901502
-0.027273526 0.24238792 0.86042142 4294901502
-0.02545844 0.24318206 0.86342031 4294901502
-0.023593273 0.24423991 0.86742383 4294836222
-0.02179452 0.24477041 0.86941785 4294901502
-0.075064071 0.24506791 0.86489993 4289177501
-0.073305726 0.24427459 0.86186898 4289177501
-0.071558632 0.24348125 0.85883814 4289835431
-0.069846377 0.24321884 0.85781777 4290098605
-0.068127945 0.24269094 0.85579228 4290229937
-0.066425063 0.24242851 0.85477197 4290558902
-0.064725928 0.24216609 0.85375172 4290888123
-0.063034832 0.24216913 0.85373664 4291019966
-0.061341323 0.24190669 0.85271639 4291480517
-0.059652105 0.24190973 0.85270131 4292138448
-0.057964217 0.24164727 0.85168117 4292467413
-0.056276873 0.24165033 0.85166609 4292796635
-0.054589529 0.24165337 0.85165101 4293125600
-0.05290914 0.2413909 0.85063094 4293388772
-0.051232502 0.24112843 0.84961087 4293783530
-0.049548909 0.24113147 0.84959584 4294046702
-0.047865316 0.24113449 0.84958076 4294309876
-0.04618172 0.24113753 0.84956574 4294441462
-0.044498127 0.24114057 0.84955072 4294507255
-0.042814534 0.24114361 0.84953564 4294770427
-0.041130938 0.24114665 0.84952062 4294836221
-0.039425388 0.24141522 0.85051048 4294836221
-0.037716091 0.24168381 0.85150027 4294836221
-0.036003042 0.24195239 0.85249001 4294836222
-0.034286246 0.24222098 0.8534798 4294836222
-0.032536242 0.24275514 0.85547429 4294901502
-0.030747414 0.24355486 0.85847354 4294901502
-0.029013742 0.24382348 0.8594631 4294901502
-0.027241243 0.24435769 0.86145741 4294901502
-0.025387337 0.24542302 0.86546117 4294901502
-0.023557261 0.24622282 0.86846006 4294836222
-0.075084299 0.24704696 0.86593658 4289045917
-0.073308527 0.24598068 0.86190027 4289045917
-0.071561426 0.24518171 0.85886931 4289243296
-0.069860958 0.24518478 0.85885412 4289835433
-0.068140648 0.24465314 0.85682857 4290229937
-0.066435881 0.24438883 0.8558082 4290624695
-0.064734869 0.24412453 0.85478789 4290690488
-0.063041903 0.24412759 0.85477281 4290625208
-0.061348934 0.24413064 0.85475767 4291612361
-0.05965542 0.24386631 0.85373741 4292138448
-0.057965655 0.24360199 0.85271722 4292336084
-0.056279641 0.24333766 0.85169703 4292599256
-0.054597374 0.24307331 0.85067689 4293059807
-0.052918859 0.24280897 0.84965682 4293454565
-0.051235266 0.24281201 0.84964174 4293717738
-0.04955167 0.24281505 0.84962672 4293980911
-0.047868077 0.24281809 0.8496117 4294309876
-0.04617003 0.24308853 0.85060161 4294375669
-0.044484559 0.24309157 0.85058653 4294573048
-0.042799093 0.24309461 0.85057151 4294770427
-0.041093547 0.24336505 0.85156137 4294836220
-0.039406203 0.24336809 0.85154629 4294836221
-0.037718859 0.24337114 0.85153121 4294836222
-0.036005814 0.2436416 0.852521 4294836221
-0.034289017 0.24391207 0.8535108 4294836221
-0.032539021 0.24444997 0.85550541 4294901502
-0.030750202 0.24525532 0.85850471 4294901502
-0.029016534 0.24552582 0.85949433 4294901502
-0.027208965 0.2463312 0.86249352 4294901502
-0.025390146 0.24713661 0.86549258 4294901502
-0.023521256 0.24820946 0.86949635 4294901502
-0.075087108 0.24876055 0.86596799 4288979869
-0.073326871 0.24795598 0.86293685 4285624427
-0.071564212 0.24688217 0.85890055 4285624427
-0.06985195 0.24661601 0.85788012 4288519319
-0.068133503 0.24608061 0.85585445 4289966765
-0.066438667 0.24608366 0.85583931 4290690488
-0.064743824 0.24608673 0.85582417 4289835692
-0.063048981 0.24608979 0.85580903 4285427562
-0.061354134 0.24609284 0.85579389 4291283396
-0.059658192 0.2455574 0.85376847 4292007119
-0.057969749 0.24502195 0.8517431 4292401877
-0.056285609 0.24475574 0.85072291 4292599256
-0.054605212 0.24448952 0.84970272 4293059807
-0.052928571 0.2442233 0.84868258 4293388774
-0.051246852 0.24422634 0.84866756 4293454567
-0.049565129 0.24422936 0.84865254 4293586153
-0.047870837 0.24450167 0.84964257 4294178290
-0.046187244 0.24450471 0.84962749 4294441462
-0.044487324 0.24477702 0.85061747 4294638841
-0.042801857 0.24478006 0.85060245 4294836220
-0.041076239 0.24532168 0.8525973 4294770427
-0.039387021 0.24532472 0.85258222 4294836221
-0.037721626 0.24505848 0.8515622 4294901502
-0.036034282 0.24506152 0.85154712 4294901501
-0.034319364 0.24533387 0.85253692 4294901500
-0.032571249 0.24587551 0.85453159 4294901501
-0.03075299 0.24695578 0.85853595 4294901502
-0.029019326 0.24722816 0.85952556 4294901502
-0.027211765 0.24803916 0.86252487 4294901502
-0.025392957 0.24885018 0.86552405 4294901502
-0.023562899 0.24966124 0.86852312 4294901502
-0.073345222 0.24993503 0.8639735 4285492841
-0.07159435 0.24912483 0.8609423 4285492841
-0.069878332 0.2488568 0.85992181 4286282613
-0.068146214 0.24804655 0.8568908 4287730316
-0.066441447 0.24777851 0.85587043 4290625208
-0.064746603 0.24778156 0.85585529 4289309606
-0.06305176 0.24778461 0.85584015 4285559148
-0.061356913 0.24778767 0.85582495 4291612361
-0.059661519 0.24751961 0.85480464 4292204498
-0.057971194 0.24698041 0.85277921 4292336084
-0.056285173 0.24671233 0.85175896 4292730842
-0.054602902 0.24644424 0.85073876 4292928222
-0.05292438 0.24617615 0.84971857 4292862430
-0.051240787 0.24617918 0.84970355 4290559675
-0.04955719 0.24618222 0.84968847 4291941328
-0.047873598 0.24618526 0.84967345 4293717739
-0.046175558 0.24645944 0.85066348 4294375669
-0.044473767 0.24673364 0.85165346 4294573048
-0.042768229 0.24700783 0.85264337 4294770427
-0.041058939 0.24728204 0.85363328 4294967295
-0.039367843 0.2472851 0.85361814 4294835709
-0.037700571 0.24701698 0.85259807 4294901502
-0.03598566 0.24729119 0.85358793 4294901502
-0.034266993 0.24756542 0.85457778 4294901502
-0.032515138 0.24811082 0.85657251 4294901502
-0.03072446 0.24892741 0.85957199 4294901502
-0.028988922 0.24920167 0.86056167 4294901502
-0.027179496 0.2500183 0.86356103 4294901502
-0.025358822 0.25083497 0.86656034 4294901502
-0.0235269 0.25165164 0.86955947 4294901757
-0.07334803 0.25164488 0.86400485 4287531910
-0.071597144 0.25082904 0.8609736 4287531910
-0.069881126 0.25055912 0.85995305 4285032290
-0.068158925 0.25001624 0.85792726 4286677115
-0.066444226 0.24947333 0.85590148 4289506727
-0.064749382 0.24947639 0.85588634 4290164658
-0.063054539 0.24947946 0.8558712 4285230441
-0.061359692 0.24948251 0.85585606 4290164915
-0.059664294 0.24921256 0.85483569 4292138705
-0.057973966 0.24866962 0.8528102 4292336084
-0.056284748 0.24867266 0.85279506 4292862428
-0.054605667 0.2481297 0.85076964 4292928221
-0.05292714 0.24785973 0.84974945 4291480776
-0.051243547 0.24786277 0.84973443 4290362810
-0.049559955 0.24786581 0.84971935 4292270806
-0.047876358 0.24786884 0.84970433 4292072914
-0.046178322 0.24814491 0.85069436 4294309876
-0.044476535 0.24842097 0.85168439 4294704634
-0.042770997 0.24869704 0.85267437 4294770171
-0.041041642 0.24924617 0.85466933 4294506744
-0.039348677 0.24924922 0.85465419 4292401368
-0.037679523 0.24897923 0.85363406 4294506744
-0.035962738 0.24925531 0.85462397 4294901502
-0.034242205 0.24953142 0.85561383 4294901502
-0.032488476 0.25008059 0.85760856 4294901502
-0.030664617 0.25117585 0.86161309 4294901502
-0.028958526 0.25117895 0.8615979 4294901502
-0.027182302 0.25172815 0.86359245 4294901502
-0.025361637 0.25255042 0.86659181 4294901502
-0.023529721 0.25337273 0.86959106 4294901758
-0.073335275 0.25307986 0.86303085 4288914077
-0.071586259 0.25225839 0.85999948 4288914077
-0.069872111 0.25198662 0.85897893 4288190354
-0.068151779 0.25143996 0.85695308 4290362036
-0.066447005 0.25116816 0.85593259 4290362293
-0.064752162 0.25117123 0.85591745 4290428087
-0.063057318 0.25117427 0.85590231 4288256918
-0.061360039 0.25090247 0.85488188 4287598988
-0.059667069 0.25090551 0.85486674 4291480775
-0.057975419 0.25063372 0.85384643 4292336084
-0.056287516 0.25036189 0.85282606 4292796635
-0.054603364 0.25009003 0.85180581 4292994271
-0.05292296 0.24981821 0.85078555 4292007889
-0.051246308 0.24954635 0.8497653 4290692031
-0.049562715 0.24954939 0.84975028 4290955203
-0.047879118 0.24955243 0.8497352 4290692031
-0.046195526 0.24955547 0.84972018 4293455337
-0.044495616 0.24983341 0.85071021 4294441719
-0.042791959 0.25011134 0.85170025 4293520361
-0.041064486 0.2506642 0.85369533 4290756799
-0.039351452 0.25094217 0.85468525 4289374890
-0.037658483 0.25094524 0.85467017 4294375158
-0.035965517 0.25094828 0.85465503 4294901502
-0.034217421 0.25150117 0.85664988 4294901502
-0.032432385 0.25232902 0.85964966 4294901502
-0.030636102 0.25315687 0.86264938 4294901502
-0.028894946 0.2534349 0.86363906 4294901502
-0.027114978 0.25398785 0.86563367 4294901502
-0.025327511 0.2545408 0.86762816 4294901502
-0.073353633 0.25506452 0.86406761 4289309091
-0.071589053 0.25396073 0.86003071 4289309091
-0.069874898 0.25368708 0.8590101 4289835692
-0.068154559 0.25313666 0.8569842 4290230450
-0.066449784 0.25286302 0.85596371 4290362036
-0.064748749 0.25258932 0.85494322 4290757307
-0.063055784 0.25259238 0.85492808 4291020224
-0.061362814 0.25259542 0.85491294 4291612361
-0.059669849 0.25259849 0.8548978 4291809740
-0.057978194 0.25232479 0.85387743 4292270291
-0.056287099 0.25232783 0.85386235 4292665306
-0.054606132 0.25177738 0.85183674 4292863198
-0.052918788 0.25178042 0.85182166 4292797406
-0.051240258 0.25150672 0.85080141 4292928993
-0.049554788 0.25150976 0.85078633 4293652716
-0.047869317 0.2515128 0.85077125 4293389544
-0.046183851 0.25151584 0.85075623 4293915888
-0.04449838 0.25151888 0.85074115 4294508025
-0.042794723 0.25179869 0.85173124 4292138964
-0.041067258 0.25235531 0.85372633 4288651680
-0.039354227 0.25263512 0.8547163 4292336089
-0.03763745 0.25291497 0.85570627 4294375160
-0.035942607 0.25291803 0.85569113 4294901502
-0.034165081 0.25375149 0.8586911 4294638330
-0.032376304 0.25458494 0.86169094 4294375158
-0.030544972 0.25569525 0.86569571 4294901502
-0.028831379 0.25569832 0.8656804 4294901502
-0.02704767 0.25625506 0.86767501 4294901502
-0.025219522 0.2570886 0.87067455 4294901502
-0.073340878 0.25649577 0.8630935 4289572520
-0.071578152 0.25538447 0.85905653 4289572520
-0.069865875 0.25510892 0.85803592 4289704106
-0.068147406 0.25455478 0.8560099 4290164657
-0.066444494 0.25427923 0.85498941 4290493622
-0.064745337 0.25400367 0.85396886 4290625722
-0.063054249 0.25400671 0.85395378 4291086017
-0.061363153 0.25400978 0.8539387 4291349189
-0.059672058 0.25401282 0.85392356 4292072912
-0.057982277 0.25373724 0.85290313 4292467670
-0.056293055 0.25374031 0.85288805 4292796635
-0.0546089 0.25346473 0.85186768 4292994014
-0.052928489 0.25318912 0.85084736 4293388773
-0.051243022 0.25319216 0.85083228 4293717739
-0.049557552 0.2531952 0.85081726 4293981168
-0.047884643 0.25291961 0.84979701 4294113267
-0.046201047 0.25292262 0.84978193 4294244853
-0.044517454 0.25292566 0.84976691 4294113267
-0.042815674 0.25320736 0.850757 4292270293
-0.04109009 0.25376773 0.85275221 4289704366
-0.039378937 0.25404942 0.85374224 4294375415
-0.037664037 0.25433114 0.85473228 4294770174
-0.035945386 0.25461286 0.85572219 4294901759
-0.034195427 0.25517327 0.85771722 4288453790
-0.032408535 0.25601235 0.86071718 4290888131
-0.030610396 0.25685146 0.86371708 4294835711
-0.028867373 0.25713325 0.86470681 4294901502
-0.027050484 0.25797239 0.86770654 4294901502
-0.025259281 0.25853285 0.86970115 4294901502
-0.073343679 0.25820372 0.86312485 4289440934
-0.071580946 0.25708491 0.85908771 4289440934
-0.069868661 0.25680751 0.85806704 4289835692
-0.068150185 0.25624961 0.85604101 4290098864
-0.066439204 0.25569171 0.85401499 4290427830
-0.064741917 0.25541428 0.8529945 4290822845
-0.063052699 0.25541732 0.85297942 4290888639
-0.061365925 0.25570086 0.85396969 4291283398
-0.059674833 0.25570393 0.85395461 4292007119
-0.057983737 0.25570697 0.85393947 4292401877
-0.056292646 0.25571001 0.85392439 4292665049
-0.054611664 0.25515205 0.85189867 4292994014
-0.05292432 0.25515509 0.85188359 4293388773
-0.05123698 0.25515813 0.85186851 4293651946
-0.049549635 0.2551612 0.85185343 4294046704
-0.047862291 0.25516424 0.85183835 4294309876
-0.046189379 0.25488675 0.85081804 4294441462
-0.044503909 0.25488979 0.85080302 4294573048
-0.042818438 0.25489283 0.85078794 4294704634
-0.041112915 0.2551764 0.85177803 4293454567
-0.03940364 0.25545999 0.85276812 4294046705
-0.037666813 0.25602409 0.85476333 4294836222
-0.035948165 0.25630769 0.8557533 4294835966
-0.034198213 0.25687185 0.85774839 4288059032
-0.032411329 0.25771657 0.86074847 4294638075
-0.030613201 0.25856131 0.86374843 4294967039
-0.028837001 0.2591255 0.86574328 4294901247
-0.027018247 0.25997028 0.86874306 4294901502
-0.071597427 0.25906771 0.86012441 4289243555
-0.069883265 0.25878844 0.85910368 4289769899
-0.068162911 0.25822681 0.85707754 4290230450
-0.066450052 0.25766516 0.85505152 4290493622
-0.064750887 0.25738585 0.85403091 4290756794
-0.063059792 0.25738889 0.85401583 4291085760
-0.0613687 0.25739196 0.85400069 4291283396
-0.059678175 0.25767738 0.85499102 4292007119
-0.057985209 0.25768042 0.85497588 4292336084
-0.05629224 0.25768349 0.85496074 4292730842
-0.054609381 0.25712177 0.85293496 4293059807
-0.052920159 0.25712481 0.85291988 4293322980
-0.051230941 0.25712785 0.85290474 4293651946
-0.049541723 0.25713092 0.85288966 4293980911
-0.047852505 0.25713396 0.85287458 4294178290
-0.046163287 0.257137 0.8528595 4294375669
-0.044506673 0.25657526 0.85083389 4294573048
-0.042821202 0.2565783 0.85081887 4294704634
-0.041115683 0.25686374 0.85180902 4294901757
-0.039406411 0.25714919 0.85279912 4294836222
-0.037669588 0.25771707 0.85479438 4294770429
-0.035976622 0.25772011 0.85477924 4294375671
-0.034228548 0.25828803 0.85677439 4293388264
-0.032443553 0.25913835 0.85977459 4294835710
-0.030647306 0.2599887 0.86277473 4294901503
-0.028872987 0.26055664 0.86476964 4294309366
-0.027021067 0.26168948 0.86877459 4294769916
-0.071613915 0.26105428 0.86116117 4289177762
-0.069886051 0.2604889 0.85913491 4289769899
-0.068175636 0.26020774 0.85811418 4290033071
-0.066468969 0.25992659 0.85709351 4290362036
-0.064766057 0.2596454 0.8560729 4290756794
-0.063066892 0.25936422 0.85505229 4291019966
-0.061373919 0.25936729 0.85503715 4291743947
-0.059680954 0.25937033 0.85502207 4292007119
-0.057987984 0.25937337 0.85500693 4292401877
-0.056295015 0.25937644 0.85499179 4292730842
-0.054612149 0.25881097 0.85296595 4293059807
-0.052929856 0.25852975 0.85194546 4293454567
-0.051233713 0.25881708 0.85293573 4293783532
-0.049544495 0.25882012 0.85292065 4293980911
-0.047855273 0.25882316 0.85290557 4294178290
-0.046166055 0.25882623 0.85289049 4294441462
-0.044493139 0.25854498 0.85187012 4294704634
-0.042805795 0.25854802 0.85185504 4294770427
-0.04111845 0.25855106 0.85183996 4294901757
-0.039409183 0.25883839 0.85283011 4294836222
-0.037696164 0.25912574 0.8538202 4294836222
-0.036005072 0.25912878 0.85380512 4294901759
-0.03425888 0.25970042 0.85580033 4294836222
-0.032475766 0.2605564 0.85880065 4294704636
-0.030712703 0.26112807 0.86079574 4293454569
-0.02894214 0.26169974 0.86279076 4291480779
-0.027093982 0.26284006 0.86679596 4292467674
-0.071630411 0.2630446 0.862198 4289835179
-0.069900669 0.26247546 0.86017168 4289835179
-0.068188377 0.26219243 0.85915089 4290164657
-0.066479832 0.2619094 0.85813022 4290888380
-0.064775035 0.26162633 0.85710949 4291085759
-0.063073993 0.2613433 0.85608888 4291349189
-0.061376698 0.26106024 0.85506827 4291743947
-0.059684306 0.26134941 0.8560586 4292072912
-0.05799076 0.26106635 0.85503799 4292336084
-0.056297794 0.26106939 0.85502285 4292665049
-0.054609872 0.26078632 0.85400236 4293059807
-0.052925702 0.26050323 0.85298181 4293388773
-0.05123648 0.26050627 0.85296673 4293783532
-0.049547262 0.26050934 0.85295165 4293980911
-0.047845498 0.26079851 0.85394192 4294244083
-0.046154406 0.26080158 0.85392678 4294375669
-0.044479609 0.26051846 0.85290635 4294638841
-0.042790391 0.2605215 0.85289127 4294836220
-0.041101169 0.26052457 0.85287619 4294836220
-0.039411951 0.26052761 0.85286111 4294836220
-0.037675142 0.26110297 0.85485649 4294836221
-0.035982173 0.26110604 0.85484135 4294836222
-0.034234114 0.26168144 0.85683668 4294901759
-0.032478556 0.26225683 0.85883188 4294836222
-0.030684203 0.26311845 0.8618322 4294046706
-0.028944941 0.26340771 0.86282212 4292928225
-0.027096795 0.26455551 0.86682743 4293125604
-0.071633212 0.26475066 0.86222929 4289834665
-0.069915287 0.26446578 0.8612085 4290295473
-0.068191163 0.26389289 0.85918212 4290295473
-0.066482618 0.26360798 0.85816133 4290757307
-0.064771615 0.26303506 0.85613507 4290757307
-0.063076772 0.26303813 0.85611993 4291348932
-0.061379474 0.26275319 0.85509932 4291678154
-0.059685927 0.26246825 0.85407865 4292072912
-0.057994831 0.26247129 0.85406357 4292401877
-0.05630374 0.26247436 0.85404849 4292665050
-0.054612644 0.2624774 0.85403335 4292994016
-0.05292847 0.26219246 0.8530128 4293322981
-0.051239252 0.2621955 0.85299772 4293651946
-0.049550034 0.26219854 0.85298264 4293849582
-0.047860816 0.26220158 0.85296756 4294244083
-0.046157178 0.26249266 0.85395783 4294507255
-0.044466086 0.2624957 0.85394269 4294638841
-0.04277499 0.26249877 0.85392761 4294836220
-0.04110394 0.26221377 0.85290718 4294836220
-0.039392803 0.26250485 0.85389739 4294836220
-0.037677918 0.26279595 0.85488755 4294836221
-0.035984948 0.26279899 0.85487241 4294836222
-0.034236897 0.26337814 0.85686779 4294901502
-0.032451928 0.26424536 0.85986829 4294835709
-0.030687001 0.26482454 0.86186349 4294046449
-0.028914575 0.26540372 0.86385864 4293388520
-0.027099608 0.266271 0.8668589 4294901502
-0.071649715 0.26674661 0.86326623 4289703593
-0.069929913 0.26645982 0.86224538 4290098864
-0.06819395 0.26559335 0.85921329 4290098864
-0.066477321 0.2650167 0.85718691 4290362549
-0.064774394 0.26472992 0.85616618 4290691516
-0.063079551 0.26473296 0.85615104 4291480518
-0.061382249 0.26444614 0.85513037 4291612361
-0.059688699 0.26415932 0.8541097 4292006862
-0.057998896 0.2638725 0.85308909 4292401364
-0.056309678 0.26387557 0.85307401 4292730074
-0.05462046 0.26387861 0.85305887 4292927967
-0.052931242 0.26388165 0.85304379 4293322981
-0.051242024 0.26388469 0.85302871 4293783788
-0.049552802 0.26388773 0.85301363 4293981168
-0.047863584 0.2638908 0.85299855 4294244083
-0.046159949 0.26418373 0.85398883 4294507255
-0.044452567 0.26447669 0.8549791 4294638841
-0.042759597 0.26447976 0.85496396 4294770428
-0.041066632 0.2644828 0.85494888 4294836222
-0.039395578 0.26419595 0.85392839 4294836222
-0.037680693 0.26448891 0.8549186 4294901502
-0.03596206 0.26478186 0.85590875 4294901502
-0.034212139 0.26536477 0.8579042 4294901502
-0.032425303 0.26623762 0.86090475 4294901502
-0.03065851 0.26682055 0.86290002 4294901502
-0.028884215 0.26740348 0.86489522 4294770429
-0.027067382 0.26827636 0.86789554 4294836222
-0.071666226 0.26874629 0.86430329 4289834922
-0.069932714 0.26816592 0.86227667 4290098864
-0.068196744 0.26729381 0.85924447 4290491570
-0.0664801 0.26671341 0.85721803 4290623669
-0.064777173 0.26642475 0.8561973 4291084733
-0.06308233 0.26642779 0.85618216 4291480518
-0.061385024 0.26613912 0.85516143 4291743690
-0.05969147 0.26585042 0.8541407 4292203728
-0.058000378 0.26585346 0.85412562 4292532693
-0.056312449 0.26556477 0.85310501 4292927195
-0.054623231 0.26556781 0.85308987 4293256161
-0.05293401 0.26557088 0.85307479 4293388005
-0.051236004 0.26586568 0.85406518 4293848557
-0.049555574 0.26557696 0.85304463 4294111986
-0.047853816 0.26587176 0.85403496 4294309365
-0.046133898 0.26645836 0.8560307 4294440951
-0.044422768 0.2667532 0.85702097 4294638330
-0.042726051 0.26675627 0.85700583 4294835709
-0.041049369 0.26646754 0.85598528 4294901502
-0.039354526 0.26647061 0.85597014 4294901502
-0.037635896 0.26676545 0.85696036 4294901502
-0.03591352 0.26706031 0.85795051 4294901502
-0.034132317 0.26793873 0.86095124 4294901502
-0.032369278 0.26852542 0.86294663 4294901502
-0.030567452 0.2694039 0.86594719 4294901502
-0.028820701 0.2696988 0.86693716 4294901502
-0.027000127 0.27057731 0.86993754 4294901502
-0.071655318 0.27016252 0.86332893 4289239449
-0.069923669 0.2695784 0.86130226 4287983993
-0.068189569 0.26870066 0.85826999 4287983993
-0.066474795 0.2681165 0.85624349 4289235343
-0.064773738 0.26782596 0.8552227 4290489005
-0.063080773 0.26782903 0.85520762 4290820281
-0.061387803 0.26783207 0.85519248 4292071888
-0.059694245 0.2675415 0.85417175 4292400082
-0.058004435 0.26725093 0.85315108 4292860377
-0.056315217 0.26725399 0.85313594 4292531925
-0.054625999 0.26725703 0.85312086 4292992733
-0.052936781 0.26726007 0.85310578 4293519593
-0.051247563 0.26726311 0.8530907 4293651948
-0.049547683 0.2675598 0.85408109 4294111730
-0.047844056 0.26785651 0.85507149 4294243572
-0.046136677 0.26815319 0.85606182 4294505974
-0.044425551 0.2684499 0.85705209 4294703610
-0.042728834 0.26845297 0.85703695 4294835196
-0.041032117 0.26845604 0.85702181 4294637817
-0.039335396 0.26845908 0.85700661 4294638074
-0.037591111 0.26904947 0.85900223 4294835965
-0.035890646 0.26905254 0.85898703 4294704123
-0.034135111 0.26964295 0.86098254 4293914607
-0.032342669 0.27052706 0.86398327 4294638330
-0.030570263 0.27111748 0.86597866 4294901502
-0.028790357 0.27170795 0.86797392 4294901502
-0.027002949 0.2722984 0.86996913 4294901502
-0.07165812 0.27187046 0.86336023 4288247164
-0.069938309 0.27157807 0.86233926 4286931818
-0.068202317 0.27069473 0.85930687 4286931818
-0.066485666 0.27010682 0.85728031 4287327090
-0.064782731 0.2698144 0.85625947 4288247680
-0.063087888 0.26981747 0.85624433 4289433494
-0.061393045 0.26982051 0.85622919 4290420389
-0.059697609 0.26952809 0.8552084 4290882480
-0.058005925 0.26923564 0.85418767 4291606204
-0.05631483 0.26923868 0.85417253 4291409852
-0.054628771 0.26894623 0.85315186 4291871174
-0.052932642 0.26924479 0.85414231 4293517026
-0.051241551 0.26924783 0.85412723 4293451748
-0.049550459 0.2692509 0.85411215 4294307827
-0.0478343 0.26984498 0.85610801 4294439927
-0.046125051 0.27014357 0.8570984 4292334294
-0.044412054 0.27044216 0.85808873 4289045413
-0.042695303 0.27074075 0.859079 4290558651
-0.040994838 0.27074382 0.8590638 4290755773
-0.039272465 0.27104241 0.86005402 4293585642
-0.03754634 0.27134103 0.86104423 4290690750
-0.035816468 0.27163965 0.86203444 4291809231
-0.034055315 0.27223381 0.86402994 4291809231
-0.032286663 0.27282798 0.86602539 4294572537
-0.030510513 0.27342218 0.86802077 4294901502
-0.028760018 0.27372083 0.86901075 4294901502
-0.026935713 0.27461061 0.8720113 4294901502
-0.073446855 0.27506205 0.86843586 4289176736
-0.071674637 0.27387577 0.86439735 4289241245
-0.069941103 0.27328417 0.86237055 4288120710
-0.068205103 0.27239519 0.8593381 4288120710
-0.066488452 0.27180353 0.85731143 4288315268
-0.064791732 0.2718066 0.85729629 4289893532
-0.063095011 0.27180967 0.85728109 4289826712
-0.061395824 0.27151537 0.85626024 4288113271
-0.059700385 0.27122104 0.85523945 4291205799
-0.058008697 0.27092671 0.85421866 4290482846
-0.056317605 0.27092978 0.85420358 4290350492
-0.05462651 0.27093282 0.85418844 4290219163
-0.052928515 0.27123326 0.85517895 4291011761
-0.051235545 0.2712363 0.85516381 4290685875
-0.049542576 0.27123937 0.85514873 4292660692
-0.04784961 0.27124241 0.85513359 4294900734
-0.046142239 0.27154288 0.85612398 4290689469
-0.044447396 0.27154592 0.85610884 4286808452
-0.042734399 0.27184638 0.85709918 4289440429
-0.040997624 0.27244428 0.85909498 4289900722
-0.039253354 0.27304214 0.86109072 4292006867
-0.037525356 0.27334264 0.86208093 4292203989
-0.035793614 0.27364314 0.86307114 4292861919
-0.03405812 0.27394363 0.8640613 4292203989
-0.032289475 0.27454156 0.8660568 4294769916
-0.030513329 0.27513951 0.86805224 4294901502
-0.028762838 0.27544004 0.86904228 4294901502
-0.026938543 0.27633545 0.87204295 4294901502
-0.073449671 0.27677938 0.86846733 4289177248
-0.071691163 0.27588484 0.86543453 4289638057
-0.069955751 0.27528948 0.86340767 4290098094
-0.068217866 0.27439487 0.86037505 4290031789
-0.06649933 0.27379948 0.85834831 4290031275
-0.064794511 0.2735033 0.8573274 4291016633
-0.063093446 0.27320713 0.85630649 4291209135
-0.061398603 0.2732102 0.85629135 4288440696
-0.059703164 0.27291399 0.8552705 4290021525
-0.058010194 0.27291706 0.85525537 4290351517
-0.056317225 0.2729201 0.85524029 4290416542
-0.05461923 0.27322242 0.8562308 4289824148
-0.052924387 0.27322549 0.85621566 4292129985
-0.051229548 0.27322853 0.85620052 4292067015
-0.049534705 0.2732316 0.85618538 4291607491
-0.047852386 0.27293539 0.85516465 4294900733
-0.046173818 0.27263916 0.85414398 4291084483
-0.044482723 0.27264223 0.85412884 4286480000
-0.042773481 0.27294454 0.85511929 4290559423
-0.041020438 0.27384543 0.85812068 4291875026
-0.039278045 0.27444708 0.86011648 4294506744
-0.037528157 0.27504873 0.86211228 4291808975
-0.035822064 0.2750518 0.86209702 4293717228
-0.034088448 0.27535418 0.86308724 4293585642
-0.032321684 0.27595586 0.8650828 4294901502
-0.03054742 0.27655753 0.86707836 4294901502
-0.028798806 0.27685994 0.86806846 4294901502
-0.026976394 0.27776095 0.87106925 4294836222
-0.073452488 0.27849674 0.86849886 4289177762
-0.071707696 0.27789763 0.86647183 4289703593
-0.069970407 0.27729854 0.86444485 4290360496
-0.068240613 0.27669942 0.86241794 4290624438
-0.066510215 0.27579919 0.85938525 4290756795
-0.064797297 0.27520001 0.85735852 4291216321
-0.063100576 0.27520308 0.85734338 4291938761
-0.061401382 0.27490503 0.85632247 4289832872
-0.059706539 0.2749081 0.85630733 4290687925
-0.058011699 0.27491114 0.85629219 4292268242
-0.056316856 0.27491421 0.85627705 4292465621
-0.054616988 0.2752184 0.85726756 4292398289
-0.052913371 0.27552259 0.85825807 4293254880
-0.051214781 0.27552563 0.85824287 4292860893
-0.049526833 0.27522758 0.85722208 4293189857
-0.047855161 0.27462834 0.8551957 4294244086
-0.04617659 0.27433026 0.85417497 4292731103
-0.044485498 0.2743333 0.85415989 4292270552
-0.042758111 0.27493864 0.85615587 4293586412
-0.041023225 0.27554402 0.85815185 4294178292
-0.039302733 0.27584824 0.85914218 4294704636
-0.037554726 0.27645364 0.86113805 4294309878
-0.035824861 0.2767579 0.86212832 4294770429
-0.034091249 0.27706212 0.86311853 4294836222
-0.032324489 0.27766755 0.86511421 4294836222
-0.030550232 0.27827299 0.86710984 4294901502
-0.028768476 0.27887845 0.86910534 4294901502
-0.0269442 0.2797851 0.87210625 4294901502
-0.073455304 0.28021407 0.86853033 4289046176
-0.071710505 0.27961123 0.86650324 4289440934
-0.069973208 0.27900836 0.8644762 4290098094
-0.06823343 0.27810252 0.86144334 4290493622
-0.066513002 0.27749962 0.85941648 4290691259
-0.064793848 0.27659374 0.8563838 4290691259
-0.063099004 0.27659681 0.85636866 4291611079
-0.061404165 0.27659985 0.85635352 4291808459
-0.059709322 0.27660292 0.85633838 4292269523
-0.058014479 0.27660596 0.85632324 4292795868
-0.056319635 0.27660903 0.8563081 4292993247
-0.054624792 0.2766121 0.85629296 4293256421
-0.052923054 0.27691814 0.85728353 4293651435
-0.051226337 0.27692121 0.85726839 4293783277
-0.049529616 0.27692428 0.85725319 4294112499
-0.047845419 0.27662432 0.8562324 4294375670
-0.046164971 0.27632436 0.85521162 4294507256
-0.04448827 0.27602437 0.85419089 4294638843
-0.042779032 0.27633047 0.8551814 4294836222
-0.041066047 0.27663654 0.85617185 4294836222
-0.03934931 0.27694264 0.85716224 4294836222
-0.037605055 0.27755177 0.85915822 4294836222
-0.035878945 0.27785787 0.86014855 4294836222
-0.034121566 0.27846703 0.86214435 4294836222
-0.032356691 0.27907622 0.86414015 4294836222
-0.030584313 0.27968541 0.86613584 4294836222
-0.028804438 0.2802946 0.86813146 4294901502
-0.026982045 0.28120688 0.87113243 4294901502
-0.07345812 0.2819314 0.86856186 4289177249
-0.071699582 0.28101996 0.86552876 4289572520
-0.069976009 0.28071821 0.86450756 4290033327
-0.068236224 0.27980673 0.86147463 4290428087
-0.066507682 0.27889523 0.85844177 4290757052
-0.064802863 0.27859345 0.85742074 4291086017
-0.063101783 0.27829164 0.85639977 4291480518
-0.061404459 0.27798983 0.85537881 4291809227
-0.059711494 0.27799287 0.85536367 4292138451
-0.058018524 0.27799594 0.85534859 4292598488
-0.056325555 0.27799898 0.85533345 4293059039
-0.054627571 0.27830693 0.85632408 4293059553
-0.052925836 0.27861485 0.85731465 4293585896
-0.051229119 0.27861792 0.85729951 4293914862
-0.049532399 0.27862099 0.85728437 4294112754
-0.047835682 0.27862406 0.85726917 4294375669
-0.046138965 0.2786271 0.85725403 4294704634
-0.044458512 0.27832526 0.85623324 4294704634
-0.042763669 0.27832833 0.8562181 4294836221
-0.041068826 0.27833137 0.85620296 4294836222
-0.039352093 0.27863935 0.85719341 4294901759
-0.037607845 0.27925223 0.85918939 4294836222
-0.035907377 0.2792553 0.85917419 4294836222
-0.034124363 0.28017312 0.86217564 4294836222
-0.032359492 0.28078604 0.8641715 4294836222
-0.030555859 0.28170392 0.86717278 4294836222
-0.028807253 0.28201193 0.86816293 4294901502
-0.071702391 0.28273165 0.86556017 4289638056
-0.069966957 0.2821213 0.86353302 4290033329
-0.068229035 0.28120419 0.86049998 4290230708
-0.066510469 0.28059381 0.85847294 4290756540
-0.064799406 0.2799834 0.85644603 4290756540
-0.063104562 0.27998647 0.85643089 4291546570
-0.06140475 0.27937606 0.85440403 4291546570
-0.059713658 0.2793791 0.85438889 4292007378
-0.058022562 0.27938214 0.85437381 4292664538
-0.056331471 0.27938521 0.85435867 4292927967
-0.054640379 0.27938825 0.85434359 4293191652
-0.052935507 0.28000483 0.85633999 4293521130
-0.051231898 0.28031462 0.85733062 4293784302
-0.049535181 0.28031769 0.85731548 4294047474
-0.047825951 0.28062752 0.85830605 4294244852
-0.04611297 0.28093734 0.85929656 4294704891
-0.044428766 0.28063366 0.85827565 4294770428
-0.042730171 0.28063673 0.85826051 4294836222
-0.04103158 0.28063977 0.85824531 4294836222
-0.0393111 0.28094962 0.85923576 4294835966
-0.037586872 0.28125948 0.86022621 4294901758
-0.035858892 0.28156933 0.8612166 4294901502
-0.034127161 0.28187922 0.862207 4294901502
-0.032362297 0.28249589 0.86420286 4294901502
-0.030558672 0.28341937 0.86720425 4294901502
-0.028776934 0.28403607 0.86919999 4294901502
-0.071691461 0.28413478 0.86458558 4289309862
-0.069969758 0.28382927 0.86356431 4290032815
-0.068221837 0.28259793 0.85952526 4290032815
-0.066505142 0.28198379 0.85749817 4290427829
-0.064795949 0.28136966 0.85547119 4290625466
-0.063098617 0.28106409 0.85445017 4291020481
-0.061405037 0.28075853 0.85342914 4291480775
-0.059715204 0.28045294 0.85240817 4291940815
-0.05802786 0.28045601 0.85239309 4292467929
-0.056340516 0.28045905 0.85237807 4292927710
-0.054648161 0.28077072 0.85336876 4293126116
-0.052952059 0.28108239 0.85435951 4293389801
-0.051252201 0.28139406 0.8553502 4293849839
-0.0495486 0.28170577 0.85634083 4294243826
-0.047841247 0.28201747 0.85733145 4294441462
-0.046130143 0.28232917 0.85832202 4294704634
-0.044431552 0.28233224 0.85830683 4294705148
-0.042732958 0.28233531 0.85829169 4294770684
-0.041034367 0.28233835 0.85827649 4294835965
-0.039335772 0.28234142 0.85826129 4294836221
-0.037589662 0.28296182 0.86025745 4294901502
-0.03588732 0.28296489 0.86024225 4294901502
-0.034129962 0.28358528 0.86223829 4294835965
-0.032365102 0.2842057 0.86423421 4294901758
-0.030592743 0.28482616 0.86623013 4294967039
-0.028779753 0.28575528 0.86923152 4294901245
-0.071694262 0.28584462 0.86461693 4288778125
-0.06997256 0.28553721 0.86359566 4290754226
-0.068234615 0.28460887 0.86056244 4290952633
-0.066507928 0.2836805 0.85752928 4290952633
-0.064804964 0.28337309 0.8565082 4291150012
-0.063101389 0.28275517 0.85448116 4291085760
-0.061407804 0.28244773 0.85346013 4291349702
-0.059717968 0.28214028 0.85243917 4291678156
-0.058029369 0.28245384 0.85342997 4292599002
-0.056340151 0.28245687 0.85341489 4292993503
-0.054645922 0.28277043 0.85440564 4293322469
-0.052947946 0.28308398 0.85539639 4293717227
-0.05125498 0.28308704 0.85538125 4293980656
-0.049551379 0.2834006 0.85637194 4294309364
-0.04784403 0.28371418 0.85736257 4294506998
-0.04613293 0.28402776 0.8583532 4294835707
-0.044434335 0.28403082 0.858338 4294901501
-0.042735744 0.28403389 0.8583228 4294901502
-0.04103715 0.28403693 0.85830766 4294966782
-0.039294798 0.28466108 0.86030388 4294901503
-0.0375687 0.28497469 0.86129439 4294966783
-0.03583885 0.2852883 0.86228478 4294901246
-0.034105252 0.28560191 0.86327523 4294967039
-0.032367907 0.28591555 0.86426562 4294966782
-0.030564299 0.28685027 0.86726719 4294966526
-0.028782573 0.28747448 0.86926305 4294966014
-0.07171081 0.2878668 0.86565435 4285800242
-0.06998723 0.28755754 0.86463302 4286859347
-0.0682474 0.28662357 0.86159968 4288644228
-0.066518828 0.28568956 0.85856646 4291279029
-0.064807743 0.28506792 0.85653931 4291279029
-0.063108534 0.28475863 0.85551816 4291939014
-0.061410576 0.28413695 0.85349113 4292464333
-0.059720736 0.28382763 0.8524701 4292793554
-0.05803214 0.28414303 0.85346097 4292664023
-0.056339789 0.28445846 0.85445178 4293059039
-0.054643691 0.28477389 0.85544252 4293388004
-0.052950725 0.28477693 0.85542744 4293716715
-0.05126651 0.28446761 0.85440642 4294046193
-0.049564786 0.28478304 0.85539716 4294309622
-0.047871821 0.28478611 0.85538203 4294441206
-0.046164472 0.28510156 0.85637271 4294769403
-0.044453375 0.28541699 0.85736334 4294966782
-0.042756658 0.28542006 0.8573482 4294901502
-0.041019935 0.28604794 0.85934454 4294966783
-0.039297588 0.28636342 0.86033511 4294966527
-0.037571494 0.28667888 0.86132562 4294966527
-0.035841648 0.2869944 0.86231613 4294966527
-0.034108054 0.28730989 0.86330652 4294966270
-0.032341331 0.28793779 0.86530262 4294965758
-0.030567111 0.28856575 0.86729866 4294699249
-0.070013776 0.2898958 0.86667657 4286978353
-0.068270192 0.28895622 0.86364305 4286847281
-0.066537857 0.28801662 0.86060971 4287046457
-0.064823024 0.28739122 0.85858244 4287314251
-0.063115679 0.28676581 0.85655522 4288306795
-0.061418343 0.28645462 0.85553408 4290023573
-0.059724752 0.28614345 0.85451299 4291145392
-0.058032405 0.28646073 0.85550386 4292858321
-0.056339435 0.2864638 0.85548872 4293912037
-0.05464647 0.28646684 0.85547358 4294241773
-0.0529535 0.28646991 0.8554585 4294505715
-0.051269282 0.28615868 0.85443747 4294768630
-0.04957819 0.28616175 0.85442233 4294768888
-0.047887094 0.28616479 0.85440725 4294900731
-0.046181627 0.28648213 0.855398 4294966013
-0.044472408 0.28679943 0.85638869 4294966270
-0.042759441 0.28711677 0.85737932 4294966526
-0.041042723 0.2874341 0.85836995 4294966270
-0.039300378 0.28806573 0.86036634 4294966014
-0.037574288 0.2883831 0.86135691 4294237927
-0.035844445 0.28870046 0.86234742 4293378257
-0.034083355 0.28933212 0.86434358 4292317870
-0.032314766 0.28996381 0.86633974 4292570770
-0.030538676 0.2905955 0.86833578 4291841910
-0.06829299 0.29129639 0.8656866 4287636282
-0.066565029 0.29066727 0.86365914 4288160061
-0.064838305 0.28972203 0.86062568 4288028989
-0.063131586 0.28940898 0.85960448 4288291392
-0.061428621 0.28909594 0.85858321 4288158782
-0.059730027 0.28909901 0.85856807 4288291138
-0.058032684 0.28878593 0.85754687 4288424521
-0.056335967 0.288789 0.85753173 4289083736
-0.054639246 0.28879207 0.85751659 4289415268
-0.052942529 0.28879511 0.85750145 4289549677
-0.051245812 0.28879818 0.85748625 4290012282
-0.049549095 0.28880125 0.85747111 4291000205
-0.047864873 0.28848815 0.85645002 4291065998
-0.046184402 0.28817508 0.85542905 4291526806
-0.044475187 0.28849429 0.85641974 4291458703
-0.042762224 0.28881347 0.85741049 4291390601
-0.041045509 0.28913268 0.85840112 4292045708
-0.039303172 0.28976807 0.86039758 4292108421
-0.037529588 0.29071963 0.86339974 4291446127
-0.035796002 0.29103887 0.86439025 4291642991
-0.034031168 0.29167429 0.86638647 4292037236
-0.032258835 0.29230973 0.86838263 4292629629
-0.070043154 0.2939589 0.8687517 4283960858
-0.068295799 0.29300809 0.86571801 4285664547
-0.066559695 0.29205725 0.86268437 4287832379
-0.06484735 0.29174232 0.86166304 4288094525
-0.063138753 0.29142743 0.86064172 4288620098
-0.061433911 0.29111251 0.85962045 4288882760
-0.059732813 0.29079759 0.85859925 4289276491
-0.058035467 0.29048264 0.85757804 4289472844
-0.05633875 0.29048571 0.85756284 4289933140
-0.054642029 0.29048878 0.8575477 4289735505
-0.052945312 0.29049182 0.85753256 4289867091
-0.051248595 0.29049489 0.85751736 4290459230
-0.049551878 0.29049796 0.85750222 4290722658
-0.047867652 0.29018301 0.85648113 4290985060
-0.046187181 0.28986803 0.85546011 4291511404
-0.044477966 0.29018912 0.85645086 4291511660
-0.042783123 0.29019216 0.85643572 4291577197
-0.041048292 0.2908313 0.85843229 4292366713
-0.039284095 0.29178846 0.86143464 4292366200
-0.037532389 0.2924276 0.8634311 4292563836
-0.035798807 0.29274872 0.86442161 4292827007
-0.034061469 0.29306984 0.86541212 4292893057
-0.032291017 0.29370901 0.86740839 4292171388
-0.071777068 0.295993 0.86980474 4280294421
-0.07004597 0.29567626 0.86878324 4280621333
-0.068298608 0.29471979 0.86574936 4281472276
-0.066570625 0.29408318 0.86372179 4282519831
-0.064856403 0.29376641 0.8627004 4283436824
-0.063150309 0.29376948 0.8626852 4285272355
-0.061444219 0.29377255 0.86266994 4287043892
-0.059737496 0.29345578 0.86164862 4288292162
-0.058034521 0.29313898 0.86062735 4289080138
-0.056332178 0.29314205 0.86061209 4289539406
-0.054629836 0.29314512 0.8605969 4290196823
-0.052920628 0.29346806 0.8615877 4290656606
-0.051216409 0.29347113 0.8615725 4291116900
-0.04952281 0.29315433 0.8605513 4291182694
-0.047832958 0.2928375 0.85953009 4291380845
-0.046146858 0.29252067 0.858509 4291906675
-0.044448264 0.29252374 0.8584938 4292235127
-0.042731557 0.29284671 0.85948455 4292234870
-0.040991105 0.29348958 0.86148113 4292300920
-0.039243158 0.29413247 0.86347765 4291578737
-0.03746397 0.29509529 0.86647999 4290659688
-0.035724763 0.29541829 0.8674705 4289149271
-0.033981808 0.29574129 0.86846101 4287246920
-0.071766123 0.29739049 0.86883008 4279966742
-0.070036903 0.29707187 0.86780852 4280229144
-0.068291403 0.29610977 0.86477458 4280360727
-0.066573426 0.29579115 0.86375314 4280556823
-0.064865462 0.29579422 0.86373788 4280884762
-0.063157491 0.29579729 0.86372262 4281540636
-0.061447017 0.29547864 0.86270124 4281932571
-0.059740927 0.29548171 0.86268598 4282653984
-0.058036074 0.29516304 0.86166465 4283308321
-0.056331854 0.29516613 0.86164945 4284028194
-0.05462265 0.29549095 0.86264026 4284749607
-0.052909695 0.2958158 0.86363107 4285537583
-0.051201727 0.29581887 0.86361581 4286390584
-0.049504373 0.29550019 0.86259454 4286849595
-0.047810771 0.29518148 0.86157328 4286981181
-0.046106555 0.29518455 0.86155808 4287309889
-0.044402335 0.29518765 0.86154282 4287376710
-0.042661894 0.29583427 0.86353952 4286786112
-0.040933937 0.29615912 0.86453021 4285803324
-0.039180372 0.29680577 0.86652672 4285346365
-0.037419304 0.29745245 0.86852318 4284495418
-0.035701964 0.29745555 0.86850786 4283776316
-0.03392965 0.29810223 0.87050426 4283778369
-0.071741417 0.29846063 0.86684906 4279835669
-0.070015937 0.29814014 0.8658275 4279967255
-0.068284199 0.29749602 0.86379975 4280033048
-0.066568092 0.2971755 0.86277825 4280032535
-0.064861998 0.29717857 0.86276299 4280295194
-0.063155904 0.29718164 0.86274779 4280623645
-0.061447304 0.29686111 0.86172634 4281017120
-0.059742447 0.29654056 0.86070502 4281214499
-0.058040105 0.29654363 0.86068976 4281280033
-0.056337763 0.2965467 0.86067456 4281607715
-0.054630432 0.29687339 0.86166549 4281804065
-0.052912496 0.29752374 0.86366242 4282395175
-0.051204529 0.29752681 0.86364716 4282395434
-0.049507171 0.29720625 0.86262584 4282527276
-0.047813565 0.2968857 0.86160457 4282724910
-0.046094988 0.29721242 0.86259532 4282790448
-0.044388894 0.29721549 0.86258012 4283119158
-0.042664692 0.29754221 0.86357087 4283382075
-0.040936742 0.29786897 0.86456156 4283383614
-0.039205041 0.29819569 0.86555219 4283450177
-0.037469588 0.29852244 0.86654288 4282990907
-0.035730388 0.2988492 0.86753345 4282991934
-0.03398744 0.29917598 0.86852401 4282926655
-0.071757995 0.30049968 0.86788678 4282269755
-0.070030637 0.30017731 0.86686516 4281809459
-0.068297014 0.29952943 0.86483735 4280033048
-0.066579029 0.29920706 0.86381578 4279769876
-0.064864799 0.29888466 0.86279434 4280295707
-0.063158706 0.29888773 0.86277908 4280361500
-0.061450098 0.29856533 0.86175764 4280690466
-0.059744596 0.2979174 0.85973006 4280559392
-0.058042895 0.29824597 0.86072099 4280756771
-0.056340553 0.29824904 0.86070579 4281019430
-0.05463323 0.29857761 0.86169672 4281150503
-0.052922152 0.29890621 0.86268759 4281281832
-0.051216062 0.29890928 0.86267239 4281545261
-0.049520578 0.29858685 0.86165106 4281807919
-0.047816359 0.29858992 0.8616358 4282071091
-0.046097785 0.29891852 0.86262667 4282202164
-0.044391692 0.29892159 0.86261141 4282465336
-0.042667493 0.29925019 0.86360216 4282728508
-0.040939547 0.29957879 0.86459291 4282794814
-0.039207846 0.29990742 0.8655836 4282992193
-0.037472401 0.30023605 0.86657429 4282664512
-0.035733204 0.30056468 0.86756492 4282533696
-0.033962775 0.30121884 0.86956143 4282665025
-0.071747035 0.30188781 0.86691189 4281414446
-0.070033446 0.30189088 0.86689657 4282730306
-0.068309836 0.30156663 0.86587501 4283059271
-0.066589974 0.30124235 0.86485344 4283519822
-0.064867593 0.30059072 0.86282563 4280953895
-0.0631615 0.30059382 0.86281037 4281677618
-0.061450373 0.29994217 0.86078268 4280229915
-0.059747387 0.29961786 0.85976124 4280888102
-0.058046918 0.29962093 0.85974604 4280165149
-0.05634645 0.299624 0.85973084 4280165149
-0.054641005 0.29995444 0.86072183 4280296734
-0.052938659 0.29995751 0.86070663 4280954664
-0.051236317 0.29996058 0.86069143 4281348908
-0.04954458 0.29963627 0.8596701 4281545775
-0.047831632 0.29996672 0.86066097 4281808946
-0.046114936 0.3002972 0.86165184 4281677360
-0.044394489 0.30062765 0.86264271 4281677360
-0.042670295 0.30095813 0.86363351 4281874739
-0.040942349 0.30128863 0.86462426 4282269497
-0.039232507 0.3012917 0.864609 4282203448
-0.03749894 0.30162221 0.86559975 4283124293
-0.035736017 0.30228013 0.86759639 4283519051
-0.033993073 0.30261064 0.86858702 4288717211
-0.071749844 0.30360138 0.86694336 4280230172
-0.070036255 0.30360448 0.86692804 4280361758
-0.068322666 0.30360755 0.86691272 4281282860
-0.066600926 0.30328143 0.8658911 4283191114
-0.064876668 0.30262604 0.86386323 4283454029
-0.063159905 0.30197066 0.86183536 4285822834
-0.061453164 0.3016445 0.86081392 4283651408
-0.059750821 0.30164757 0.86079866 4286348664
-0.058048479 0.30165064 0.86078346 4283454542
-0.056346137 0.30165371 0.86076826 4285494895
-0.054648772 0.30132753 0.85974687 4286678656
-0.052948304 0.3013306 0.85973167 4284901475
-0.051239111 0.30166292 0.86072266 4288915618
-0.049547371 0.30133674 0.85970128 4283915350
-0.047834426 0.30166906 0.8606922 4290692029
-0.046103381 0.30233067 0.86268926 4284309338
-0.044381063 0.30266303 0.86368012 4284440924
-0.042673096 0.3026661 0.86366487 4286546300
-0.040945154 0.30299845 0.86465567 4290427830
-0.03921346 0.30333084 0.86564642 4286611836
-0.037478019 0.30366319 0.86663717 4288519833
-0.035713229 0.30432487 0.86863387 4286282870
-0.066611886 0.30532423 0.86692888 4279769621
-0.06487947 0.30433401 0.86389452 4280164379
-0.063162699 0.30367488 0.86186665 4280953895
-0.06145848 0.30367795 0.86185139 4280756516
-0.059754264 0.30368102 0.86183619 4280691493
-0.058050048 0.30368409 0.861821 4280295708
-0.056345832 0.30368716 0.86180574 4280888102
-0.054641612 0.30369022 0.86179054 4281085481
-0.052944243 0.30336219 0.86076909 4281217067
-0.051241901 0.30336526 0.86075389 4282928198
-0.049539559 0.30336833 0.86073864 4281414446
-0.047837216 0.3033714 0.86072344 4284310107
-0.046106178 0.30403677 0.86272055 4282731589
-0.044383865 0.30437097 0.86371142 4281809974
-0.042675897 0.30437407 0.86369616 4282600003
-0.040947959 0.3047083 0.86468703 4282730306
-0.039216269 0.30504254 0.86567783 4281875767
-0.037457108 0.30570793 0.86767465 4287533195
-0.066606537 0.30670485 0.86595392 4280230172
-0.06487599 0.30570897 0.86291951 4283651665
-0.063165493 0.30537909 0.86189789 4283717971
-0.061461277 0.30538216 0.86188269 4283388493
-0.059757058 0.30538523 0.86186749 4283652178
-0.058052842 0.3053883 0.86185223 4280953638
-0.056348626 0.30539137 0.86183703 4281743411
-0.054649379 0.30506146 0.86081553 4283453772
-0.052947037 0.30506453 0.86080033 4283190600
-0.051244695 0.3050676 0.86078513 4283190600
-0.049542353 0.30507067 0.86076987 4283453772
-0.047852479 0.30474073 0.85974848 4283782737
-0.046137664 0.30507681 0.86073947 4283388236
-0.044402886 0.3057459 0.86273658 4284440668
-0.042696793 0.305749 0.86272138 4285625200
-0.04095076 0.30641812 0.86471838 4287401098
-0.039219078 0.30675423 0.86570925 4286743681
-0.03748364 0.30709037 0.86670005 4282598722
-0.063172698 0.30741814 0.86293554 4281349168
-0.061466601 0.30742124 0.86292034 4281283373
-0.059760511 0.30742431 0.86290509 4282731076
-0.058055636 0.30709252 0.86188352 4281808947
-0.05635142 0.30709559 0.86186826 4283322443
-0.054652169 0.30676377 0.86084676 4285164390
-0.052949827 0.30676684 0.86083156 4284374361
