# .PCD v0.7 - Point Cloud Data file format
VERSION 0.7
FIELDS x y z rgba
SIZE 4 4 4 4
TYPE F F F U
COUNT 1 1 1 1
WIDTH 1047
HEIGHT 1
VIEWPOINT 0 0 0 1 0 0 0
POINTS 1047
DATA ascii
-0.086590759 0.15097204 0.85327637 4289439392
-0.084840797 0.15064669 0.85125428 4289570979
-0.083124951 0.15048552 0.85023576 4289965738
-0.08143761 0.15048857 0.85022068 4290360497
-0.079727389 0.15032738 0.84920216 4291150270
-0.07799992 0.15000199 0.84718031 4291677128
-0.076279953 0.14967658 0.84515852 4292401109
-0.074619234 0.14984383 0.84614688 4293124832
-0.090184234 0.15365532 0.85935903 4289176475
-0.088383265 0.15316017 0.8563332 4289373599
-0.086563163 0.15249893 0.85230392 4289768357
-0.084786557 0.15200374 0.84927827 4289899944
-0.083074465 0.15184069 0.84825969 4290097324
-0.081341363 0.15151155 0.84623772 4290294960
-0.079638638 0.15134849 0.84521925 4290558389
-0.077918664 0.15101932 0.84319741 4290558903
-0.076244444 0.15102234 0.84318244 4290756283
-0.074552968 0.15085927 0.84216404 4291150785
-0.072880626 0.15086228 0.84214914 4291611335
-0.071208283 0.15086529 0.84213418 4292203728
-0.069535933 0.15086831 0.84211922 4292532949
-0.067873344 0.15103744 0.84310764 4293125343
-0.066207007 0.15120658 0.844096 4293454308
-0.064530909 0.15120961 0.84408104 4293783273
-0.062858947 0.15137875 0.84506935 4294046445
-0.061180975 0.15138178 0.84505433 4294178031
-0.059503004 0.1513848 0.84503937 4294375410
-0.057823539 0.15155397 0.84602761 4294572789
-0.056143697 0.151557 0.84601259 4294638582
-0.054458607 0.15172617 0.84700078 4294770168
-0.052776888 0.1517292 0.84698576 4294770168
-0.040822666 0.15324596 0.85590827 4294967034
-0.039146192 0.15308285 0.85489005 4294967034
-0.037449475 0.15308592 0.85487485 4294901754
-0.035752755 0.15308897 0.85485971 4294901500
-0.034000553 0.1534244 0.85685056 4294901500
-0.032211233 0.15392603 0.85984433 4294835707
-0.030442158 0.15426148 0.86183506 4294901500
-0.090187028 0.15535954 0.85939026 4289176473
-0.088386051 0.15485875 0.85636431 4289373853
-0.086565934 0.15419 0.85233492 4289768611
-0.084789321 0.15368919 0.84930921 4290163114
-0.083077222 0.15352426 0.84829062 4290492081
-0.08134412 0.15319139 0.84626853 4290755510
-0.079618514 0.15285848 0.84424657 4291018939
-0.077900402 0.15252556 0.8422246 4291018939
-0.07622806 0.15252858 0.8422097 4291216832
-0.074521199 0.15219565 0.84018785 4291414212
-0.072837226 0.15203068 0.8391695 4291611591
-0.071170501 0.15203367 0.83915466 4291940556
-0.069492146 0.1518687 0.83813637 4292137935
-0.067827307 0.1518717 0.83812147 4292269777
-0.06616246 0.15187471 0.83810663 4292467413
-0.064497612 0.1518777 0.83809173 4292796380
-0.062832765 0.15188071 0.83807683 4293059809
-0.061165661 0.15171571 0.83705866 4293322725
-0.059502691 0.15171871 0.83704382 4293651433
-0.057839718 0.15172172 0.83702898 4293980398
-0.05617338 0.15189272 0.83801734 4294243570
-0.054503296 0.15206374 0.83900571 4294506742
-0.052829459 0.15223478 0.83999407 4294704121
-0.051151872 0.1524058 0.84098238 4294835707
-0.049470536 0.15257685 0.84197062 4294835707
-0.04778545 0.1527479 0.84295887 4294901500
-0.046096615 0.15291895 0.84394705 4294901500
-0.04440403 0.15309 0.84493524 4294901500
-0.042707697 0.15326108 0.84592336 4294901500
-0.040987372 0.15360019 0.84791458 4294901500
-0.039281663 0.15377128 0.84890264 4294901500
-0.037596192 0.15377432 0.84888756 4294901500
-0.035884861 0.15394542 0.84987557 4294901500
-0.034086559 0.15462069 0.85387266 4294901501
-0.032243647 0.15546405 0.85887259 4294901502
-0.030476451 0.15580325 0.86086339 4294901502
-0.02853494 0.15698281 0.86786908 4294901502
-0.090189829 0.15706374 0.85942155 4289110680
-0.08838883 0.15655734 0.85639548 4289373853
-0.086568706 0.15588109 0.85236597 4289702818
-0.084792085 0.15537465 0.84934008 4290163627
-0.083079986 0.15520786 0.8483215 4290558386
-0.081346869 0.15487123 0.84629935 4290821560
-0.079644144 0.15470441 0.84528083 4291085246
-0.077903144 0.1541979 0.84225529 4291085246
-0.076211669 0.15403107 0.84123689 4291545797
-0.074506678 0.15369438 0.83921498 4291545797
-0.072824568 0.15352753 0.83819664 4291743177
-0.071159728 0.15353054 0.83818179 4292203727
-0.069494881 0.15353353 0.83816689 4292532692
-0.067830034 0.15353654 0.83815199 4292730328
-0.066157304 0.15336968 0.83713377 4292993757
-0.064488322 0.1532028 0.83611554 4293322467
-0.062823087 0.15303592 0.83509731 4293519847
-0.061161604 0.15286903 0.83407915 4293717739
-0.059504259 0.15287203 0.83406436 4293980911
-0.057846911 0.15287502 0.83404952 4294244083
-0.056186203 0.15304789 0.83503801 4294441462
-0.054521743 0.15322077 0.83602649 4294638842
-0.052853532 0.15339367 0.83701491 4294835709
-0.051181573 0.15356657 0.83800328 4294901502
-0.04951673 0.15356958 0.83798844 4294901502
-0.047839146 0.15374248 0.83897674 4294901502
-0.046157811 0.15391539 0.83996505 4294901502
-0.044456244 0.15425824 0.8419565 4294901502
-0.042765535 0.15443116 0.84294468 4294901502
-0.04107108 0.15460411 0.84393287 4294901502
-0.039350759 0.15494697 0.84592414 4294901502
-0.037646931 0.15511993 0.84691226 4294901502
-0.03591349 0.15546282 0.84890342 4294901501
-0.034117077 0.15614559 0.85290068 4294901502
-0.032246441 0.15716825 0.85890388 4294901502
-0.030447766 0.15768115 0.86189777 4294901502
-0.02847104 0.15904377 0.86990672 4294901502
-0.090226755 0.15893964 0.86045647 4289044887
-0.088423878 0.15842763 0.85743028 4289373853
-0.086601868 0.15774389 0.85340059 4289637025
-0.084851876 0.15740353 0.85137826 4289966247
-0.083109386 0.15706316 0.849356 4290361263
-0.081374392 0.15672277 0.84733373 4290756280
-0.079646893 0.15638237 0.84531158 4290953660
-0.077926904 0.15604195 0.84328955 4291282625
-0.076233543 0.15587325 0.84227103 4291611590
-0.074509412 0.15536109 0.83924556 4291611590
-0.072827302 0.15519236 0.83822721 4291808969
-0.071162455 0.15519537 0.83821231 4292401106
-0.069497608 0.15519838 0.83819741 4292598742
-0.067832761 0.15520138 0.83818257 4292993756
-0.066167921 0.15520439 0.83816767 4293256929
-0.064491041 0.15486389 0.836146 4293585894
-0.062825806 0.15469514 0.83512777 4293980397
-0.061166588 0.15469813 0.83511293 4294243826
-0.059507366 0.15470113 0.83509809 4294441462
-0.057846658 0.15487587 0.83608663 4294638841
-0.056182202 0.15505064 0.83707511 4294770427
-0.054519232 0.15505363 0.83706027 4294836221
-0.052849151 0.15522841 0.8380487 4294836222
-0.051175319 0.15540318 0.83903712 4294836222
-0.049508598 0.15540619 0.83902222 4294901503
-0.047829144 0.15558097 0.84001058 4294901502
-0.046160549 0.15558398 0.83999568 4294901502
-0.044458985 0.15593056 0.84198719 4294901502
-0.042768281 0.15610537 0.84297544 4294901502
-0.041053593 0.15645199 0.84496683 4294901502
-0.039353516 0.15662681 0.84595495 4294901502
-0.037625704 0.15697344 0.84794629 4294901502
-0.035890393 0.15732008 0.84993744 4294901502
-0.034064386 0.15818216 0.85493791 4294901502
-0.03221963 0.15904428 0.85993826 4294901502
-0.030387605 0.15973461 0.86393529 4294901502
-0.028440511 0.16094042 0.8709414 4294967295
-0.090229556 0.16064572 0.86048776 4289110680
-0.088458933 0.16030166 0.85846519 4289373853
-0.086665422 0.15978399 0.85543901 4289571489
-0.084883161 0.15926631 0.85241288 4290032040
-0.083138786 0.1589222 0.85039049 4290427055
-0.081377149 0.15840448 0.8473646 4290624950
-0.07964965 0.15806033 0.8453424 4290888123
-0.077929646 0.15771617 0.84332025 4291216832
-0.076236285 0.1575456 0.84230173 4291545540
-0.074512146 0.1570278 0.83927613 4291545540
-0.072830029 0.15685721 0.83825773 4291808712
-0.071165182 0.1568602 0.83824283 4292401363
-0.069500342 0.15686321 0.83822799 4292664791
-0.067835495 0.15686621 0.83821309 4292993756
-0.066162758 0.1566956 0.83719474 4293322722
-0.064493768 0.15652497 0.83617646 4293651687
-0.062828533 0.15635435 0.83515817 4293980653
-0.061169308 0.15635735 0.83514339 4294178290
-0.059510481 0.15653397 0.83613193 4294375669
-0.057849385 0.15653697 0.83611709 4294770427
-0.056184929 0.15671359 0.83710563 4294836220
-0.054516725 0.15689024 0.83809412 4294836220
-0.052844774 0.15706688 0.83908254 4294836221
-0.051178053 0.15706989 0.8390677 4294836222
-0.049511332 0.1570729 0.8390528 4294901502
-0.047844611 0.15707591 0.8390379 4294901502
-0.046163283 0.15725257 0.84002626 4294901502
-0.044478208 0.15742925 0.84101462 4294901502
-0.042789381 0.15760592 0.84200293 4294901502
-0.041076574 0.15795627 0.84399438 4294901502
-0.039356269 0.15830664 0.84598577 4294901502
-0.037604485 0.1588307 0.84898031 4294901502
-0.035867307 0.1591811 0.85097158 4294901502
-0.034067169 0.15987888 0.85496908 4294901502
-0.032222427 0.16075036 0.85996956 4294901502
-0.030453375 0.16110082 0.86196053 4294901502
-0.028510053 0.16231975 0.86896688 4294901502
-0.090300635 0.16270271 0.86252654 4289044887
-0.088526264 0.16235489 0.86050385 4289308317
-0.086698599 0.16165616 0.8564738 4289637282
-0.084885933 0.1609574 0.85244393 4289966247
-0.083168194 0.16078499 0.85142511 4290426799
-0.081404671 0.16026165 0.8483991 4290690230
-0.079652399 0.15973829 0.84537315 4290953660
-0.077932395 0.15939038 0.84335095 4291216832
-0.076239027 0.15921792 0.84233242 4291480004
-0.074549414 0.15904547 0.8413139 4291677383
-0.072863549 0.15887301 0.84029537 4292072141
-0.071181431 0.15870053 0.83927691 4292401106
-0.069514714 0.15870354 0.83926207 4292664791
-0.067838222 0.15853105 0.83824366 4293059549
-0.066165484 0.15835856 0.83722526 4293388515
-0.064502515 0.15836157 0.83721042 4293717480
-0.062835395 0.15818906 0.83619207 4294046189
-0.0611743 0.15819205 0.83617723 4294178290
-0.059513599 0.15837055 0.83716583 4294375669
-0.05784915 0.15854907 0.83815438 4294638841
-0.056184303 0.15855208 0.83813953 4294836220
-0.054514229 0.1587306 0.83912802 4294836220
-0.052847508 0.15873361 0.83911312 4294836220
-0.051180787 0.1587366 0.83909827 4294901500
-0.049514066 0.15873961 0.83908337 4294901501
-0.047847345 0.15874262 0.83906847 4294901502
-0.046180625 0.15874563 0.83905357 4294901502
-0.04448095 0.1590997 0.84104526 4294901502
-0.042792127 0.15927826 0.84203357 4294901502
-0.041079324 0.15963235 0.84402514 4294835709
-0.039336924 0.16016203 0.84701985 4294901502
-0.037559293 0.16086726 0.85101765 4294901502
-0.035844225 0.16104586 0.85200578 4294901502
-0.034042224 0.16175114 0.85600334 4294901502
-0.032254826 0.16228089 0.8589977 4294901502
-0.030487655 0.16263509 0.86098874 4294901502
-0.028546229 0.16386713 0.86799538 4294901246
-0.090337589 0.16458985 0.86356169 4288913301
-0.088529058 0.16406097 0.86053514 4289176474
-0.086701386 0.16335474 0.85650498 4289374110
-0.084888704 0.16264848 0.85247493 4289966248
-0.083170965 0.1624742 0.85145611 4290426800
-0.081382662 0.1617679 0.8474263 4290558387
-0.079655148 0.16141625 0.84540397 4290887867
-0.077935137 0.16106459 0.84338164 4291282625
-0.076260917 0.16106761 0.84336668 4291545797
-0.074569426 0.16089328 0.84234816 4291808969
-0.072897084 0.1608963 0.8423332 4292006861
-0.071211211 0.16072196 0.84131467 4292335826
-0.069529094 0.16054761 0.84029621 4292664792
-0.067850724 0.16037326 0.83927774 4292993502
-0.066176109 0.1601989 0.83825934 4293322468
-0.064505242 0.16002452 0.83724093 4293651433
-0.062842265 0.16002752 0.83722609 4294046191
-0.061181571 0.1602079 0.8382147 4294309363
-0.059516724 0.16021091 0.83819979 4294572535
-0.057850402 0.16039129 0.8391884 4294704377
-0.056183681 0.1603943 0.8391735 4294770427
-0.05451696 0.16039731 0.83915859 4294836220
-0.052850239 0.16040032 0.83914369 4294836220
-0.051174544 0.16058071 0.84013224 4294901501
-0.049505949 0.16058372 0.84011728 4294901502
-0.047837354 0.16058673 0.84010237 4294901502
-0.046168759 0.16058974 0.84008747 4294901502
-0.044467211 0.16094758 0.84207922 4294901502
-0.042776518 0.16112801 0.84306759 4294901502
-0.041041624 0.16166328 0.84606242 4294901502
-0.039295483 0.16219857 0.8490572 4294901502
-0.037538089 0.1627339 0.85205191 4294835709
-0.035795297 0.16309181 0.85404325 4294901502
-0.034017283 0.16362716 0.85703772 4294901502
-0.032198422 0.16433996 0.86103535 4294901502
-0.03042751 0.16469792 0.86302644 4294769916
-0.028515702 0.16576566 0.86903012 4294769916
-0.090306245 0.16612236 0.86258924 4288979095
-0.088531859 0.16576706 0.86056644 4289110681
-0.086673766 0.16487412 0.85553235 4289308318
-0.084862955 0.16416037 0.85150218 4289768870
-0.083120435 0.16380499 0.84947968 4290361007
-0.081385419 0.16344962 0.84745717 4290690231
-0.079635002 0.16291499 0.84443104 4290822074
-0.077937886 0.1627388 0.8434124 4291085246
-0.076263666 0.16274182 0.84339744 4291414211
-0.074572168 0.16256562 0.8423788 4291677640
-0.072899826 0.16256863 0.84236389 4291941068
-0.07120043 0.16221319 0.84034169 4292335827
-0.069531828 0.1622162 0.84032679 4292664792
-0.067843683 0.16186073 0.83830476 4292993757
-0.066170938 0.16168448 0.83728629 4293322467
-0.064507969 0.16168749 0.83727145 4293585897
-0.062844992 0.16169049 0.83725655 4293980911
-0.061184302 0.16187274 0.83824521 4294309619
-0.059519455 0.16187574 0.83823037 4294572535
-0.057854608 0.16187875 0.83821547 4294704634
-0.056189764 0.16188174 0.83820063 4294836220
-0.054519694 0.16206402 0.83918917 4294836220
-0.052852973 0.16206703 0.83917427 4294901501
-0.051186252 0.16207004 0.83915943 4294901502
-0.049508683 0.16225231 0.84014791 4294966782
-0.047840089 0.16225532 0.84013301 4294901502
-0.046156898 0.16243762 0.84112144 4294901502
-0.044469956 0.16261992 0.84210986 4294901502
-0.042779263 0.16280222 0.84309828 4294901502
-0.041044381 0.16334312 0.84609324 4294835709
-0.039320342 0.16370474 0.84808487 4293585642
-0.037564836 0.16424568 0.85107964 4292138196
-0.03579808 0.16478664 0.85407436 4294835709
-0.034020074 0.16532761 0.85706896 4294901502
-0.032201223 0.16604792 0.86106664 4294835709
-0.030430317 0.16640963 0.86305785 4294440951
-0.028518528 0.16748862 0.86906171 4294704123
-0.090309046 0.1678322 0.86262065 4288913047
-0.088502377 0.16729207 0.85959393 4289110426
-0.086676553 0.16657083 0.85556346 4289242525
-0.084865727 0.16584958 0.85153317 4289834663
-0.083149858 0.16567154 0.85051435 4290295215
-0.081388175 0.16513132 0.84748799 4290361523
-0.079660654 0.16477217 0.84546554 4290822074
-0.077940628 0.16441302 0.8434431 4291151039
-0.076266408 0.16441603 0.84342813 4291480004
-0.074592188 0.16441905 0.84341317 4291677640
-0.072902568 0.16424097 0.84239453 4291941069
-0.071216695 0.16406287 0.84137595 4292270034
-0.06953457 0.16388479 0.84035742 4292664792
-0.067856193 0.16370668 0.8393389 4292993758
-0.06618157 0.16352856 0.83832037 4293256675
-0.064510696 0.16335045 0.83730197 4293651433
-0.062847726 0.16335344 0.83728707 4293980654
-0.061184753 0.16335645 0.83727223 4294243826
-0.059522185 0.16354059 0.83826089 4294506742
-0.057857338 0.16354358 0.83824605 4294704377
-0.056192495 0.16354659 0.83823115 4294836220
-0.054522429 0.16373073 0.83921975 4294835964
-0.052848611 0.16391487 0.84020835 4294901501
-0.051171046 0.16409904 0.84119689 4294967295
-0.049489733 0.1642832 0.84218538 4294901502
-0.047817387 0.16428623 0.84217042 4294111986
-0.046130449 0.16447039 0.8431589 4294769916
-0.044423293 0.16483574 0.84515071 4294769916
-0.042745322 0.16483876 0.84513569 4294901502
-0.041047134 0.16502295 0.84612405 4294835709
-0.039301012 0.1655695 0.84911907 4293848814
-0.037543636 0.16611606 0.85211396 4292006610
-0.035800859 0.16648147 0.85410541 4294704123
-0.033995144 0.16720925 0.85810339 4294901502
-0.032115247 0.16829944 0.86410779 4294835709
-0.030338721 0.1686649 0.866099 4294440951
-0.028387986 0.16993634 0.87310624 4294637817
-0.090311855 0.16954203 0.862652 4288978838
-0.088505171 0.16899627 0.85962516 4289044631
-0.086679332 0.16826755 0.85559464 4289308317
-0.084897026 0.16772173 0.85256797 4289768870
-0.083152622 0.16735888 0.85054529 4290295471
-0.08141572 0.16699599 0.84852266 4290558902
-0.079663403 0.16645013 0.8454963 4290887867
-0.077964403 0.1662702 0.84447753 4291085246
-0.076288313 0.16627322 0.84446257 4291414211
-0.074594937 0.16609326 0.84344387 4291743433
-0.072889902 0.16573033 0.84142154 4291941069
-0.071205899 0.16555037 0.8404029 4292270034
-0.069525644 0.16537039 0.83938438 4292598999
-0.067858927 0.16537338 0.83936948 4292993502
-0.066184297 0.16519341 0.83835095 4293322724
-0.06451945 0.1651964 0.83833605 4293586153
-0.06285461 0.16519941 0.83832121 4293849325
-0.06118748 0.16501941 0.83730274 4294178290
-0.059524506 0.16502242 0.8372879 4294507255
-0.057861537 0.16502541 0.837273 4294704634
-0.056198567 0.16502841 0.83725816 4294836220
-0.054525159 0.16539744 0.83925033 4294836220
-0.052851349 0.16558346 0.84023893 4294901501
-0.051164821 0.16595252 0.84223104 4294901502
-0.049481634 0.16613856 0.84321952 4292993505
-0.047807414 0.16614158 0.84320456 4292335575
-0.046118602 0.16632764 0.84419304 4293848814
-0.044426043 0.1665137 0.84518147 4294440951
-0.042748075 0.16651672 0.8451665 4294901502
-0.04104989 0.16670279 0.84615487 4294901502
-0.039325863 0.16707191 0.84814662 4294638330
-0.037546411 0.16780715 0.85214496 4294177779
-0.035803638 0.16817631 0.85413653 4294901502
-0.033942506 0.1692777 0.86014128 4294901502
-0.03208847 0.17019607 0.86514252 4294901502
-0.030278608 0.17074837 0.86813706 4294901502
-0.090314656 0.17125186 0.86268336 4288781716
-0.088507965 0.17070049 0.85965645 4288913559
-0.086682118 0.16996425 0.85562575 4289242526
-0.084899798 0.16941282 0.85259902 4289703333
-0.083155386 0.16904621 0.85057622 4290164143
-0.081393696 0.16849475 0.84754974 4290558902
-0.07966616 0.1681281 0.84552711 4290690488
-0.077967152 0.16794628 0.84450829 4291085502
-0.076291062 0.1679493 0.84449333 4291348931
-0.074580394 0.16758263 0.84247088 4291612104
-0.072892644 0.16740079 0.84145218 4291875276
-0.071195103 0.16703409 0.8394298 4292270034
-0.069528379 0.1670371 0.83941495 4292598999
-0.067851871 0.16685525 0.83839637 4292927965
-0.066187032 0.16685824 0.83838147 4293388517
-0.064522184 0.16686125 0.83836663 4293586153
-0.062857337 0.16686425 0.83835173 4293915118
-0.061190207 0.16668238 0.83733326 4294112497
-0.059526823 0.16650049 0.8363148 4294507255
-0.057865728 0.16650349 0.83629996 4294704634
-0.056204632 0.16650648 0.83628511 4294441462
-0.054533109 0.16687927 0.83827734 4294441462
-0.052854083 0.16725205 0.84026957 4294901758
-0.051167563 0.16762486 0.84226167 4294901502
-0.049495216 0.16762787 0.84224677 4294901502
-0.04781016 0.16781579 0.84323531 4292138196
-0.046121351 0.16800372 0.8442238 4294440951
-0.044445258 0.16800675 0.84420884 4294835709
-0.042750824 0.16819468 0.84519726 4294901502
-0.041052643 0.16838263 0.84618568 4294901502
-0.039328624 0.1687555 0.84817749 4294901502
-0.037549183 0.16949823 0.85217601 4294835709
-0.035780579 0.17005607 0.85517097 4294901502
-0.033945303 0.17098379 0.86017257 4294901502
-0.032061696 0.17209648 0.86617732 4294901502
-0.030281432 0.17246944 0.86816859 4294901502
-0.08854305 0.17259139 0.86069161 4288848023
-0.086715311 0.17184766 0.85666078 4289111710
-0.084931113 0.17129061 0.85363394 4289572262
-0.083184816 0.17092025 0.85161108 4290164143
-0.081421241 0.17036316 0.84858441 4290493109
-0.07969182 0.16999277 0.84656173 4290625208
-0.077969901 0.16962236 0.84453905 4290954173
-0.076293811 0.16962539 0.84452409 4291348931
-0.074583136 0.16925496 0.84250152 4291677896
-0.072895378 0.16907126 0.84148282 4292006862
-0.071211375 0.16888754 0.84046417 4292270034
-0.069542773 0.16889055 0.84044921 4292664792
-0.067864396 0.16870682 0.83943063 4292993758
-0.066197671 0.16870981 0.83941573 4293322724
-0.064530954 0.16871282 0.83940083 4293585897
-0.062864229 0.16871583 0.83938593 4293915118
-0.061195221 0.16853209 0.8383674 4294244083
-0.05952996 0.16834834 0.83734888 4294507255
-0.057866991 0.16835134 0.83733404 4294770427
-0.056204021 0.16835433 0.8373192 4293717739
-0.054530628 0.16873087 0.83931148 4292928223
-0.052842651 0.16929418 0.84230733 4293980656
-0.051161345 0.16948397 0.84329593 4294243572
-0.049487125 0.16948698 0.84328097 4294835709
-0.047800194 0.16967678 0.84426951 4294638330
-0.046124101 0.16967981 0.84425455 4294901502
-0.044431545 0.16986962 0.84524304 4294901502
-0.042753577 0.16987264 0.84522808 4294901502
-0.0410554 0.17006247 0.8462165 4294901502
-0.0393093 0.17062588 0.84921181 4294901502
-0.03750404 0.17156292 0.85421383 4294901502
-0.03575753 0.17193958 0.85620552 4294901502
-0.033920392 0.17287667 0.86120725 4294901502
-0.032034926 0.17400061 0.86721218 4294901502
-0.030252796 0.17437734 0.86920351 4294966782
-0.088545844 0.17429747 0.8607229 4288847768
-0.086718097 0.17354624 0.85669196 4289111711
-0.084905349 0.172795 0.85266107 4289572007
-0.083187588 0.17260946 0.85164207 4289967021
-0.081423998 0.17204675 0.84861529 4290427829
-0.079671659 0.17148402 0.84558862 4290691001
-0.077972651 0.17129846 0.8445698 4290954173
-0.076296553 0.17130147 0.84455484 4291283138
-0.074585877 0.1709273 0.84253222 4291546311
-0.07289812 0.17074171 0.84151345 4291875276
-0.07121411 0.17055613 0.84049475 4292270034
-0.069545515 0.17055914 0.84047985 4292533206
-0.067867123 0.17037353 0.83946121 4292993502
-0.066200405 0.17037654 0.83944631 4293191138
-0.064533688 0.17037953 0.83943141 4293454567
-0.062871128 0.17057116 0.84042025 4293651946
-0.061200242 0.17038555 0.8394016 4294178290
-0.059533104 0.17019993 0.83838308 4294573048
-0.057869717 0.17001429 0.83736455 4294769914
-0.056203414 0.17020594 0.83835334 4293914862
-0.054528154 0.17058621 0.84034568 4293191395
-0.052838311 0.17115515 0.84334159 4294112499
-0.051164091 0.17115818 0.84332663 4293915120
-0.049489871 0.1711612 0.84331167 4294901502
-0.047815651 0.17116421 0.84329671 4294901502
-0.046141431 0.17116724 0.84328175 4294901502
-0.044450756 0.17135891 0.84427029 4294901502
-0.042774659 0.17136194 0.84425533 4294901502
-0.041037947 0.17193097 0.84725082 4294901502
-0.039267905 0.17268868 0.85124969 4294901502
-0.037458908 0.1736351 0.85625184 4294901502
-0.035708655 0.17401552 0.85824353 4294901502
-0.033895489 0.17477332 0.86224198 4294901502
-0.032037746 0.17571981 0.86724371 4294901502
-0.030255621 0.1761003 0.86923516 4294901502
-0.028299347 0.17742424 0.87624335 4287795088
-0.088580936 0.176194 0.86175823 4288848025
-0.086720884 0.17524484 0.85672307 4289177249
-0.08490812 0.17448609 0.85269207 4289638057
-0.083190359 0.17429867 0.85167307 4289967278
-0.081426762 0.17373033 0.84864616 4290427829
-0.079697333 0.17335245 0.84662336 4290691001
-0.07799644 0.17316501 0.84560442 4291085759
-0.076318473 0.17316803 0.84558946 4291414724
-0.074605919 0.17279011 0.84356678 4291612104
-0.072916277 0.17260265 0.84254795 4291941069
-0.071230389 0.17241518 0.84152919 4292401620
-0.069548249 0.17222771 0.84051049 4292598999
-0.067869857 0.17204024 0.83949178 4292730843
-0.06620314 0.17204325 0.83947688 4293191395
-0.064542465 0.17223674 0.84046572 4292204500
-0.062878035 0.17243026 0.84145457 4291349191
-0.061207566 0.17243327 0.84143966 4292270293
-0.059536677 0.17224577 0.84042102 4294507255
-0.057869535 0.17205828 0.83940244 4294770427
-0.056199484 0.17225179 0.84039122 4294178290
-0.05452048 0.17263584 0.84238362 4294178290
-0.052841056 0.17282937 0.84337229 4294836221
-0.051166836 0.17283238 0.84335732 4294836222
-0.049492616 0.17283541 0.84334236 4294836222
-0.047831099 0.17264791 0.84232384 4294836222
-0.046158753 0.17265092 0.84230888 4294901502
-0.044453502 0.17303501 0.84430104 4294901502
-0.042777408 0.17303804 0.84428608 4294901502
-0.041020501 0.17380323 0.8482852 4294901502
-0.039248597 0.17456844 0.85228419 4294901502
-0.037437741 0.17552423 0.85728651 4294901502
-0.035685617 0.1759084 0.85927826 4294901502
-0.033870593 0.1766737 0.86327684 4294901502
-0.032040566 0.17743902 0.8672753 4294901502
-0.030258447 0.17782325 0.86926675 4294901502
-0.028302195 0.17916031 0.87627518 4284703329
-0.088583738 0.17790197 0.86178952 4288716439
-0.08672367 0.17694342 0.85675424 4289045663
-0.084939435 0.17636949 0.8537271 4289572007
-0.083219796 0.17618021 0.85270798 4289901485
-0.081454314 0.17560625 0.84968102 4290362036
-0.079745926 0.17541696 0.84866202 4290691001
-0.078041285 0.17522766 0.84764308 4291019967
-0.0763404 0.17503834 0.84662414 4291348932
-0.074643254 0.17484902 0.84560525 4291743690
-0.072934441 0.17446734 0.84358251 4291941069
-0.071246676 0.17427801 0.84256369 4292335827
-0.069562659 0.17408866 0.84154493 4292665049
-0.067882389 0.17389931 0.84052616 4292928222
-0.066221714 0.17409469 0.84151506 4293191395
-0.064557292 0.17429008 0.84250391 4289638573
-0.062889121 0.17448546 0.84349275 4288191127
-0.061214902 0.17448848 0.84347779 4289178022
-0.059539836 0.17410675 0.84145534 4292270293
-0.057870816 0.17391737 0.8404367 4293717739
-0.056198895 0.17411277 0.84142554 4294638328
-0.054523222 0.17430817 0.84241426 4294770427
-0.052843802 0.17450358 0.84340304 4294836221
-0.05116063 0.17469899 0.8443917 4294835965
-0.049495362 0.17450963 0.84337312 4294901502
-0.047821142 0.17451264 0.84335816 4294901502
-0.046146922 0.17451566 0.8433432 4294901502
-0.0444398 0.1749035 0.84533542 4294901502
-0.042743508 0.17509894 0.84632397 4294901502
-0.041003063 0.17567922 0.84931964 4294901502
-0.039251368 0.17625952 0.85231519 4294901502
-0.037440527 0.1772247 0.85731769 4294901502
-0.035688411 0.17761262 0.85930949 4294901502
-0.033873398 0.17838541 0.86330825 4294901502
-0.032043386 0.17915823 0.86730683 4294901502
-0.030229824 0.17973864 0.87030184 4294901502
-0.028305041 0.1808964 0.87630701 4282466623
-0.088586539 0.17960992 0.86182088 4288781976
-0.086726449 0.178642 0.85678542 4289045920
-0.084913664 0.17786825 0.85275412 4289572520
-0.083195895 0.17767709 0.851735 4290033071
-0.081457078 0.17729172 0.84971195 4290427829
-0.07974869 0.17710054 0.84869289 4290756794
-0.078022994 0.17671515 0.84666997 4290954173
-0.076343149 0.17671818 0.84665495 4291283139
-0.074646004 0.17652698 0.84563601 4291677897
-0.072937191 0.17614156 0.84361321 4291941069
-0.071249418 0.17595035 0.84259439 4292270034
-0.0695654 0.17575912 0.84157556 4292665049
-0.067885123 0.1755679 0.8405568 4292994015
-0.066224456 0.17576516 0.8415457 4293322981
-0.064560033 0.1759624 0.8425346 4291349191
-0.062891871 0.17615968 0.8435235 4287467404
-0.061217647 0.17616269 0.84350854 4288191127
-0.059542574 0.17577721 0.84148604 4292072914
-0.057873555 0.17558596 0.84046733 4293980655
-0.056204956 0.17558897 0.84045243 4294835707
-0.054531164 0.17578624 0.84144121 4294901500
-0.052853622 0.17598353 0.84243 4294901501
-0.051172327 0.17618081 0.84341878 4294901502
-0.049498107 0.17618383 0.84340382 4294901502
-0.047836587 0.17599258 0.84238517 4294901502
-0.046149667 0.17618987 0.84337389 4294901502
-0.044442553 0.17658146 0.84536618 4294901502
-0.042746261 0.17677878 0.84635478 4294901502
-0.041026022 0.1771704 0.84834695 4294901502
-0.039254144 0.17795061 0.85234624 4294901502
-0.037467264 0.17873086 0.85634536 4294901502
-0.035717029 0.17912252 0.85833722 4294901502
-0.033903901 0.17990281 0.8623361 4294901502
-0.032075778 0.18068314 0.86633486 4294901502
-0.030264098 0.18126917 0.86932999 4294901502
-0.02834121 0.18243816 0.8753354 4280953127
-0.088621639 0.18151395 0.86285627 4288585112
-0.086759664 0.18053666 0.85782063 4288979870
-0.084973544 0.17995149 0.85479325 4289506470
-0.08325202 0.17975846 0.85377407 4290033071
-0.081509449 0.17936935 0.85175091 4290296243
-0.07977438 0.17898022 0.84972781 4290691001
-0.078046806 0.17859107 0.84770477 4291019966
-0.076365083 0.17859411 0.84768975 4291348932
-0.07464876 0.17820494 0.84566683 4291743690
-0.072955362 0.17801186 0.84464788 4292006862
-0.071265712 0.17781879 0.843629 4292204241
-0.069579817 0.1776257 0.84261012 4292599256
-0.067897663 0.1774326 0.8415913 4293125600
-0.066235125 0.17763174 0.8425802 4293322980
-0.064568833 0.17783086 0.84356916 4293388774
-0.062894613 0.17783388 0.8435542 4289638573
-0.06121809 0.17764078 0.84253538 4289704366
-0.059544884 0.17725153 0.84051287 4293915118
-0.057877734 0.17705841 0.83949417 4294770427
-0.056207694 0.17725755 0.84048301 4294836220
-0.054533903 0.17745671 0.84147191 4294901500
-0.052849293 0.177852 0.84346443 4294901500
-0.051166128 0.17805117 0.84445322 4294901502
-0.049490035 0.1780542 0.84443825 4294901502
-0.047813937 0.17805722 0.84442323 4294901502
-0.046123274 0.17825639 0.84541196 4294901502
-0.044428863 0.17845559 0.84640062 4294901502
-0.042730696 0.17865478 0.84738928 4294901502
-0.040988397 0.17924631 0.85038507 4294901502
-0.039234847 0.17983787 0.85338086 4294901502
-0.037446104 0.18062562 0.85738009 4294901502
-0.035694003 0.18102103 0.85937202 4294835709
-0.033879012 0.18180883 0.86337101 4294901502
-0.032049023 0.18259665 0.86736989 4294901502
-0.030266924 0.18299212 0.86936158 4294901246
-0.086792886 0.18243507 0.85885596 4288848797
-0.085004874 0.18184428 0.85582846 4289375141
-0.08328148 0.18164939 0.85480922 4289967278
-0.08151222 0.18105856 0.8517819 4290427829
-0.079777144 0.18066567 0.84975874 4290691001
-0.078049563 0.18027279 0.84773564 4291019966
-0.076348662 0.18007785 0.84671658 4291348932
-0.07465151 0.1798829 0.84569758 4291677897
-0.072958112 0.17968796 0.84467864 4292006862
-0.071268462 0.179493 0.8436597 4292401620
-0.069582559 0.17929803 0.84264082 4292730585
-0.067910209 0.17930105 0.84262586 4293059808
-0.066245802 0.17950206 0.84361482 4293388774
-0.064571582 0.17950508 0.84359986 4293586153
-0.062897362 0.1795081 0.8435849 4293454567
-0.061218522 0.17911512 0.84156221 4293652459
-0.05954719 0.17872213 0.83953965 4294310133
-0.057880469 0.17872512 0.83952475 4294704634
-0.056210432 0.17892614 0.84051365 4294836220
-0.054531451 0.17932518 0.84250635 4294901500
-0.052852038 0.17952622 0.84349513 4294901501
-0.051159937 0.17992528 0.84548771 4294901502
-0.049481966 0.1799283 0.84547269 4294901502
-0.047803994 0.17993133 0.84545773 4294901502
-0.046111461 0.18013239 0.84644645 4294901502
-0.044398732 0.18053149 0.8484388 4294901502
-0.04271514 0.18053453 0.84842378 4294901502
-0.040970974 0.18113169 0.85141969 4294901502
-0.039193492 0.18192691 0.85541916 4294901502
-0.037401013 0.18272217 0.85941851 4294901502
-0.035670981 0.18292329 0.86040688 4294901502
-0.033854131 0.18371859 0.86440605 4294835709
-0.032022279 0.18451391 0.86840498 4294901502
-0.03020687 0.18511119 0.8714003 4294967039
-0.086826108 0.18433723 0.8598913 4288980383
-0.085036218 0.18374081 0.85686374 4289506727
-0.083284259 0.18334422 0.85484034 4289967278
-0.081514992 0.18274777 0.8518129 4290493622
-0.079756968 0.1821513 0.84878558 4290691001
-0.078031257 0.18175465 0.84676242 4290954174
-0.076332234 0.18155783 0.84574336 4291348932
-0.074636951 0.18136102 0.84472436 4291612104
-0.072945423 0.18116419 0.84370536 4291941069
-0.071257643 0.18096736 0.84268641 4292270034
-0.069585301 0.18097037 0.84267145 4292730843
-0.067912951 0.18097338 0.84265655 4293059809
-0.066248544 0.18117628 0.84364551 4293454567
-0.064568266 0.18097942 0.84262663 4293783532
-0.062895916 0.18098244 0.84261173 4294112497
-0.061218955 0.1805857 0.84058899 4294375669
-0.059549924 0.18038884 0.83957022 4294573048
-0.057883203 0.18039183 0.83955532 4294770170
-0.056213167 0.18059473 0.84054428 4294901500
-0.054534193 0.18099752 0.84253699 4294901501
-0.052847721 0.18140031 0.84452969 4294901502
-0.051162686 0.18160324 0.84551847 4294901502
-0.049484719 0.18160626 0.84550351 4294901502
-0.047794059 0.1818092 0.84649229 4294901502
-0.046099652 0.18201213 0.84748101 4294901502
-0.044401493 0.18221508 0.84846973 4294901502
-0.042699587 0.18241802 0.8494584 4294901502
-0.040953558 0.18302082 0.85245436 4294966782
-0.039174214 0.18382354 0.85645396 4294966782
-0.037379872 0.1846263 0.86045343 4294900989
-0.035647966 0.18482929 0.86144185 4294966782
-0.033801567 0.18583202 0.86644471 4294966782
-0.031936415 0.1868348 0.87144738 4294900989
-0.030146828 0.18723778 0.87343913 4294045421
-0.086859338 0.18624313 0.86092675 4288848797
-0.085067563 0.18564111 0.85789901 4289309348
-0.083313726 0.18524076 0.85587555 4289901485
-0.081542574 0.18463869 0.85284799 4290427829
-0.079782672 0.1840366 0.84982055 4290822587
-0.078034014 0.18343449 0.84679323 4291085759
-0.076334983 0.18323579 0.84577417 4291283139
-0.0746397 0.1830371 0.84475511 4291480518
-0.07296361 0.18304013 0.84474009 4291941069
-0.071273953 0.18284142 0.84372109 4292269779
-0.069599733 0.18284445 0.84370613 4292664795
-0.067925513 0.18284746 0.84369123 4293059809
-0.066251293 0.18285048 0.84367627 4293388774
-0.064571008 0.18265176 0.84265733 4293783532
-0.062898658 0.18265477 0.84264237 4294112497
-0.061224002 0.18245605 0.84162354 4294375156
-0.059553094 0.18225729 0.84060466 4294572535
-0.057883061 0.18246207 0.84159368 4294769914
-0.056209281 0.18266684 0.84258264 4294901244
-0.054531749 0.18287162 0.84357154 4294966782
-0.052843407 0.18327817 0.84556425 4294966782
-0.051156502 0.18348297 0.84655309 4294901502
-0.049476657 0.183486 0.84653813 4294901502
-0.047784127 0.18369082 0.84752691 4294901502
-0.04608785 0.18389562 0.84851563 4294901502
-0.044387821 0.18410045 0.84950435 4294901502
-0.042684041 0.18430528 0.85049301 4294966782
-0.04095633 0.1847119 0.85248542 4294966782
-0.039176997 0.18552212 0.85648513 4294966782
-0.037358735 0.18653418 0.86148846 4294966782
-0.03559915 0.18694086 0.86348051 4294966782
-0.033776697 0.18775117 0.86747986 4294966525
-0.031880129 0.18896511 0.87348634 4294703353
-0.086831696 0.18774565 0.85995388 4288914590
-0.085013226 0.18693441 0.85592186 4289309348
-0.083289817 0.18673389 0.85490251 4289967278
-0.081520528 0.18612619 0.85187489 4290427829
-0.079762496 0.18551847 0.84884733 4290756794
-0.07803677 0.18511432 0.84682405 4291085760
-0.076337732 0.18491377 0.84580493 4291414725
-0.074625134 0.18450959 0.84378177 4291677897
-0.072950915 0.18451262 0.84376681 4291875276
-0.071276695 0.18451563 0.84375185 4292138706
-0.069602475 0.18451865 0.84373689 4292599258
-0.067918442 0.18431807 0.84271789 4293059809
-0.066246092 0.18432108 0.84270293 4293322981
-0.064567685 0.18412048 0.84168398 4293717483
-0.062897213 0.18412349 0.84166908 4294177777
-0.061224427 0.18392287 0.8406502 4294375156
-0.059555832 0.18392588 0.8406353 4294638328
-0.057887234 0.18392889 0.8406204 4294835707
-0.056215331 0.18413554 0.84160942 4294901758
-0.054534495 0.18454583 0.84360224 4294901758
-0.052853219 0.18475249 0.8445912 4294900989
-0.051168192 0.18495916 0.84558004 4294966526
-0.049490221 0.18496218 0.84556508 4294966782
-0.047799569 0.18516886 0.84655392 4294966782
-0.04609061 0.18557921 0.8485465 4294966782
-0.044374153 0.18598956 0.85053909 4294966526
-0.042686809 0.18599261 0.85052401 4294966526
-0.040938921 0.18660665 0.85352021 4294966782
-0.039179783 0.18722071 0.8565163 4294900989
-0.037385467 0.18803847 0.86051601 4294768633
-0.035627764 0.18844889 0.86250824 4294373618
-0.033751838 0.18967405 0.86851507 4294505461
-0.031823859 0.19110294 0.87552547 4294307825
-0.08683449 0.18944985 0.85998511 4288914590
-0.085016005 0.18863112 0.85595298 4289309348
-0.083265901 0.18822326 0.8539294 4289967278
-0.081523299 0.1878154 0.85190588 4290493622
-0.079788193 0.18740752 0.84988242 4290756794
-0.078039527 0.18679416 0.84685487 4291019967
-0.076359682 0.18679719 0.84683985 4291414725
-0.074645199 0.18638928 0.84481657 4291677897
-0.072969101 0.18639231 0.8448016 4292006862
-0.071293011 0.18639532 0.84478664 4292270292
-0.069616914 0.18639834 0.84477168 4292665051
-0.067931004 0.18619588 0.84375262 4292994016
-0.066240892 0.18578793 0.84172958 4293388774
-0.064570419 0.18579094 0.84171468 4293849325
-0.06289576 0.18558845 0.84069574 4294178033
-0.061227161 0.18559146 0.84068084 4294440949
-0.059558567 0.18559447 0.84066588 4294571251
-0.057889972 0.18559748 0.84065098 4293385694
-0.056218069 0.18580601 0.84164006 4293319389
-0.054542422 0.18601453 0.84262902 4293846503
-0.05286302 0.18622306 0.84361804 4294703352
-0.051179871 0.1864316 0.84460694 4294966780
-0.049503777 0.18643463 0.84459198 4294967038
-0.047802325 0.1868487 0.84658474 4294966782
-0.046093371 0.18726279 0.84857738 4294966525
-0.044360492 0.18788244 0.85157382 4294966269
-0.042652968 0.18809102 0.85256255 4294965500
-0.04092152 0.18850514 0.85455507 4294964987
-0.039160516 0.18912484 0.85755122 4294898681
-0.037388265 0.18974455 0.86054736 4293646047
-0.035604764 0.19036427 0.86354333 4293845221
-0.033754658 0.19139513 0.86854666 4294504434
-0.086837284 0.19115406 0.86001641 4288848797
-0.085018791 0.19032782 0.85598409 4289309348
-0.083295375 0.19012356 0.85496467 4290033071
-0.081526071 0.18950461 0.85193688 4290493622
-0.079813905 0.18930031 0.85091752 4290888380
-0.078084424 0.18888868 0.84889406 4291151553
-0.076381631 0.18868437 0.84787488 4291349189
-0.074665271 0.18827271 0.84585148 4291612361
-0.072987296 0.18827574 0.84583652 4291941326
-0.071295761 0.18807141 0.8448174 4292270292
-0.069619663 0.18807444 0.84480244 4292665051
-0.067933746 0.1878701 0.84378332 4292928223
-0.066251576 0.18766575 0.84276432 4293454567
-0.064573161 0.18746141 0.84174532 4293783276
-0.062902689 0.18746442 0.84173036 4294177777
-0.0612299 0.18726005 0.84071141 4294440692
-0.059561305 0.18726306 0.84069651 4294307053
-0.057891279 0.18747345 0.84168559 4292262850
-0.056220811 0.18747647 0.84167069 4293315282
-0.054545164 0.18768686 0.84265971 4294172902
-0.052865766 0.18789728 0.84364873 4294765039
-0.05118262 0.18810768 0.84463769 4293909215
-0.049506526 0.18811071 0.84462273 4294502637
-0.047805078 0.18852854 0.84661555 4293779685
-0.04608158 0.18915379 0.84961218 4294043370
-0.044346835 0.18977906 0.85260868 4294174956
-0.042637441 0.18998952 0.85359746 4294635250
-0.040883947 0.19061482 0.85659379 4293911528
-0.039119206 0.19124013 0.85959005 4294371567
-0.037367139 0.19165805 0.86158246 4293514717
-0.035581771 0.19228341 0.86457849 4294503151
-0.033729807 0.19332364 0.869582 4294966012
-0.086840078 0.19285826 0.86004764 4288980383
-0.084992997 0.19181533 0.85501093 4289375141
-0.083271459 0.19160919 0.85399151 4289967278
-0.081528842 0.19119382 0.85196787 4290559415
-0.079793721 0.19077845 0.84994423 4290756795
-0.078087181 0.19057226 0.84892493 4291019967
-0.076384388 0.19036609 0.8479057 4291349189
-0.07466802 0.18995067 0.8458823 4291678154
-0.0729746 0.18974447 0.84486312 4291941326
-0.071284935 0.18953827 0.843844 4292401877
-0.069610715 0.18954128 0.84382904 4292665049
-0.067926668 0.18933508 0.84280992 4292994016
-0.066246368 0.18912885 0.84179085 4293454311
-0.064575903 0.18913186 0.84177595 4293914605
-0.062905431 0.18913488 0.84176099 4294177777
-0.061234962 0.18913789 0.84174609 4294506485
-0.05956449 0.1891409 0.84173119 4294766834
-0.057894021 0.18914391 0.84171623 4294170335
-0.056223549 0.18914692 0.84170133 4293970390
-0.05455308 0.18914995 0.84168643 4293311690
-0.05287556 0.18936221 0.84267545 4293510096
-0.051194292 0.18957451 0.84366447 4293182414
-0.049520072 0.18957752 0.84364951 4294435817
-0.047820505 0.1899991 0.84564245 4292989142
-0.046098892 0.19062997 0.84863919 4294108906
-0.044366032 0.19126086 0.85163581 4294437871
-0.042640217 0.19168247 0.85362852 4294899193
-0.040886734 0.1923134 0.85662496 4294569715
-0.039144047 0.19273505 0.85861748 4294767866
-0.037369937 0.19336601 0.86161375 4294965757
-0.03558458 0.193997 0.86460996 4294966269
-0.033732634 0.1950466 0.86961365 4294966782
-0.08684288 0.19456248 0.86007893 4288848798
-0.085024357 0.19372125 0.85604632 4289243555
-0.083300933 0.19351323 0.8550269 4289901485
-0.081556439 0.19309412 0.85300314 4290493622
-0.079819441 0.19267499 0.85097945 4290757051
-0.078089945 0.19225585 0.84895587 4291020224
-0.076406352 0.19225889 0.84894079 4291414982
-0.074688099 0.19183972 0.84691727 4291678154
-0.072992802 0.19163166 0.84589809 4291941326
-0.071301252 0.19142358 0.84487891 4292401877
-0.069625162 0.1914266 0.84486389 4292730843
-0.067949064 0.19142963 0.84484893 4293125602
-0.066272974 0.19143265 0.84483397 4293454567
-0.064590797 0.19122456 0.84381485 4293914862
-0.062916577 0.19122759 0.84379989 4294177777
-0.061242357 0.1912306 0.84378493 4294506485
-0.059567682 0.19102249 0.84276593 4294438639
-0.05789534 0.19102551 0.84275097 4293449947
-0.056222994 0.19102852 0.84273601 4293579480
-0.054545477 0.19124268 0.84372509 4294367713
-0.052871257 0.1912457 0.84371012 4294895084
-0.051188119 0.19145986 0.8446992 4294766064
-0.049512021 0.19146289 0.84468424 4294964986
-0.047810588 0.19188821 0.84667718 4294766323
-0.046087109 0.1925247 0.84967399 4294964986
-0.044352382 0.19316122 0.85267073 4294966271
-0.042642996 0.19337544 0.85365957 4294965757
-0.04088952 0.19401199 0.85665613 4294966013
-0.039102752 0.19485973 0.8606565 4294966527
-0.037324902 0.19549632 0.86365283 4294966783
-0.035535805 0.19613293 0.86664909 4294835709
-0.03370779 0.19698074 0.87064904 4294901502
-0.086876124 0.19647963 0.86111456 4288914336
-0.085055716 0.19563091 0.85708183 4289375142
-0.083303712 0.19520806 0.85505795 4289967279
-0.081559211 0.19478519 0.85303414 4290493622
-0.079822205 0.19436233 0.85101038 4290888381
-0.078092702 0.19393943 0.84898674 4291217603
-0.076389901 0.1937295 0.84796739 4291480775
-0.074690856 0.19351956 0.84694809 4291678154
-0.072995551 0.19330962 0.84592885 4291941326
-0.071317583 0.19331264 0.84591389 4292401877
-0.069639616 0.19331567 0.84589887 4292730843
-0.067951813 0.19310571 0.84487969 4293191395
-0.066283673 0.19332173 0.84586889 4293454567
-0.064605705 0.19332476 0.84585392 4293980654
-0.062923528 0.19311479 0.84483474 4294244083
-0.061245102 0.19290482 0.84381562 4294506998
-0.059570424 0.19269483 0.84279656 4294901500
-0.057898082 0.19269784 0.84278166 4294835965
-0.056222443 0.19291387 0.8437708 4294836222
-0.054543056 0.1931299 0.84475988 4294835966
-0.052866962 0.19313292 0.84474492 4294967295
-0.051190864 0.19313595 0.84472996 4294966525
-0.049514771 0.19313897 0.84471494 4294966782
-0.047813345 0.19356805 0.846708 4294966525
-0.046104416 0.19399714 0.84870094 4294966782
-0.044371571 0.19463928 0.8516978 4294966525
-0.042664062 0.19485536 0.85268664 4294966782
-0.040912472 0.19549753 0.85568333 4294966526
-0.039105549 0.19656581 0.86068779 4294966783
-0.037303794 0.19742107 0.8646881 4294966782
-0.035512831 0.19806331 0.86768448 4294900989
-0.033655286 0.19913168 0.87268841 4294967037
-0.086909384 0.19840054 0.86215025 4289045151
-0.085058503 0.19732949 0.857113 4289374372
-0.083333202 0.19711773 0.85609347 4289967022
-0.081561983 0.19647628 0.85306519 4290493623
-0.079802014 0.19583483 0.85003704 4290888381
-0.078074381 0.19540818 0.84801328 4291283396
-0.07637345 0.19519638 0.84699392 4291612104
-0.074676275 0.19498456 0.84597462 4291809484
-0.072998308 0.19498758 0.84595966 4292072914
-0.07132034 0.19499061 0.84594464 4292533465
-0.069642365 0.19499363 0.84592968 4292862430
-0.067954563 0.1947818 0.84491044 4293125602
-0.066278465 0.19478482 0.84489548 4293520360
-0.064602375 0.19478785 0.84488046 4293849325
-0.062926278 0.19479087 0.8448655 4294309876
-0.061247848 0.19457902 0.84384638 4294507254
-0.05957317 0.19436717 0.84282726 4294835961
-0.057900824 0.19437018 0.8428123 4294901756
-0.056225188 0.19458808 0.8438015 4294835963
-0.054545805 0.19480599 0.84479064 4294901501
-0.052869711 0.19480902 0.84477568 4294901502
-0.051193614 0.19481203 0.84476072 4294901502
-0.049506731 0.19502996 0.84574974 4294836221
-0.047816098 0.19524789 0.84673882 4294901501
-0.046121716 0.19546582 0.84772784 4294901245
-0.044390757 0.19611357 0.85072482 4294966782
-0.042685125 0.19633153 0.85171372 4294901502
-0.040915255 0.19719423 0.8557145 4294901502
-0.039130382 0.19805697 0.8597151 4294835709
-0.03728269 0.19934957 0.86572349 4294967038
-0.035515651 0.19978252 0.86771601 4294966782
-0.033658121 0.20086026 0.87272012 4294967037
-0.086912185 0.2001085 0.8621816 4289110174
-0.08508987 0.19924478 0.85814857 4289570980
-0.083335981 0.19881444 0.85612458 4290032044
-0.081589594 0.19838408 0.85410058 4290493366
-0.079827741 0.19773699 0.85107231 4290888381
-0.078098223 0.1973066 0.8490485 4291282626
-0.07641463 0.19730964 0.84903347 4291611847
-0.0747137 0.19709596 0.84801406 4291875276
-0.073016517 0.19688226 0.84699476 4292138705
-0.071323089 0.19666857 0.84597546 4292533465
-0.069656834 0.19688833 0.84696472 4292862686
-0.067967147 0.19667463 0.84594548 4293126372
-0.066289179 0.19667765 0.84593046 4293389288
-0.064605124 0.19646394 0.84491122 4293849583
-0.062929027 0.19646695 0.84489626 4294178292
-0.061250594 0.19625324 0.84387708 4294507257
-0.059576374 0.19625625 0.84386212 4294770429
-0.057902154 0.19625928 0.84384716 4294836222
-0.056224648 0.19647905 0.84483635 4294770428
-0.054543391 0.19669884 0.84582549 4294836220
-0.052865423 0.19670187 0.84581053 4294836221
-0.051178541 0.19692166 0.84679961 4294901502
-0.049498696 0.19692469 0.84678465 4294901502
-0.047806192 0.19714449 0.84777367 4294901502
-0.046095401 0.19758108 0.84976679 4294770686
-0.044377111 0.1980177 0.85175979 4294901502
-0.042669609 0.19823752 0.85274869 4294901502
-0.040897876 0.19910774 0.85674959 4294900989
-0.039111145 0.19997796 0.86075038 4294770687
-0.037261594 0.20128183 0.86675894 4294901502
-0.035492685 0.20171852 0.86875147 4294967295
-0.086945444 0.20203502 0.86321741 4289174168
-0.085092664 0.20094523 0.85817981 4289571493
-0.083365478 0.20072973 0.85716015 4289966765
-0.081592366 0.20007704 0.85413164 4291215292
-0.079830512 0.19942433 0.85110325 4291281598
-0.078100987 0.1989902 0.84907937 4291478978
-0.076398179 0.19877464 0.84805995 4291611847
-0.074716456 0.19877768 0.84804493 4291875276
-0.073019274 0.1985621 0.84702557 4292072656
-0.071325839 0.19834653 0.84600621 4292598745
-0.069636159 0.19813095 0.84498692 4292928223
-0.067960061 0.19813398 0.84497195 4293257188
-0.066275999 0.19791839 0.84395266 4293586153
-0.064601779 0.19792141 0.8439377 4293980911
-0.062927559 0.19792442 0.84392273 4294309877
-0.061253339 0.19792745 0.84390777 4294573050
-0.059579119 0.19793047 0.84389281 4294835965
-0.057903491 0.19815211 0.84488207 4294836222
-0.056227397 0.19815513 0.84486711 4294836222
-0.054546144 0.1983768 0.84585631 4294901502
-0.052868173 0.19837983 0.84584129 4294901502
-0.051181298 0.1986015 0.84683049 4294966782
-0.049501453 0.19860452 0.84681547 4294966782
-0.047808949 0.19882621 0.84780455 4294901502
-0.046098165 0.19926655 0.84979767 4294901502
-0.044379883 0.19970691 0.85179079 4294836222
-0.042672381 0.19992861 0.85277975 4294835966
-0.040900663 0.20080632 0.85678077 4294966782
-0.039091911 0.20190272 0.86178571 4294967039
-0.037288316 0.20278049 0.86578643 4294900989
-0.035495508 0.20343961 0.86878306 4294835966
-0.08509545 0.20264569 0.85821098 4285933885
-0.083368264 0.20242831 0.85719132 4286925656
-0.081595145 0.20176999 0.85416269 4289233287
-0.079856247 0.20133212 0.8521387 4290880423
-0.078124836 0.20089425 0.8501147 4291935421
-0.076420151 0.20067681 0.84909523 4292529355
-0.074719213 0.20045938 0.84807581 4292662224
-0.07302203 0.20024194 0.84705639 4292465872
-0.071314998 0.19980401 0.84503263 4292795609
-0.0696389 0.19980703 0.84501767 4292993246
-0.067952968 0.19958958 0.84399831 4293322468
-0.066270776 0.19937211 0.84297907 4293651689
-0.064598434 0.19937512 0.84296411 4293915375
-0.062926084 0.19937815 0.84294915 4294244341
-0.061256085 0.19960165 0.84393853 4294572537
-0.059582334 0.19982518 0.84492779 4294966525
-0.057904836 0.2000487 0.84591705 4294966782
-0.056226864 0.20005174 0.84590209 4294966782
-0.054543741 0.20027527 0.84689128 4294966782
-0.052863896 0.2002783 0.84687626 4294966782
-0.051184051 0.20028134 0.8468613 4294966782
-0.049504206 0.20028436 0.84684628 4294966782
-0.047811709 0.20050792 0.84783542 4294901502
-0.046100929 0.20095201 0.8498286 4294901502
-0.044382654 0.20139611 0.85182178 4294966783
-0.042675156 0.2016197 0.85281074 4294966783
-0.040903445 0.2025049 0.85681194 4294966527
-0.039094709 0.20361067 0.861817 4294966271
-0.037267227 0.20471649 0.86682194 4294965246
-0.035498329 0.20516069 0.86881465 4294563813
-0.085126832 0.20456848 0.85924673 4286784061
-0.083371051 0.20412689 0.8572225 4287177277
-0.081597924 0.20346296 0.85419381 4286980154
-0.079859011 0.20302133 0.85216969 4287179329
-0.0781276 0.20257971 0.85014564 4287316562
-0.076422915 0.20236041 0.8491261 4288966779
-0.074721977 0.20214109 0.84810662 4290548891
-0.073024787 0.20192178 0.8470872 4292065209
-0.071331345 0.20170246 0.84606779 4292856267
