# .PCD v0.7 - Point Cloud Data file format
VERSION 0.7
FIELDS x y z rgba
SIZE 4 4 4 4
TYPE F F F U
COUNT 1 1 1 1
WIDTH 1047
HEIGHT 1
VIEWPOINT 0 0 0 1 0 0 0
POINTS 1047
DATA ascii
-0.034308285 0.23857702 0.85241294 4294507255
-0.032619067 0.23858006 0.85239786 4294638841
-0.030929847 0.23858312 0.85238278 4294770427
-0.029174209 0.23910978 0.85437709 4294901757
-0.02741107 0.23963645 0.85637134 4294901502
-0.025677392 0.23990133 0.8573609 4294966782
-0.024017636 0.23964258 0.85634106 4294901502
-0.022361627 0.23938382 0.85532123 4294901502
-0.020581614 0.23991053 0.85731536 4294901502
-0.018705187 0.24096091 0.86131865 4294901502
-0.016906427 0.24148765 0.86331254 4294901502
-0.015003751 0.24253808 0.86731559 4294901502
-0.013186243 0.24306485 0.86930937 4294901502
-0.011309278 0.24385348 0.8723076 4294901502
-0.0094748978 0.2443803 0.87430125 4294901502
-0.0075216014 0.24543081 0.87830383 4294901500
-0.066558957 0.24521691 0.87182784 4288124558
-0.064809456 0.24416557 0.86779201 4288519315
-0.063087828 0.24390505 0.86677164 4288716696
-0.061362699 0.24285367 0.86273605 4289374628
-0.059653115 0.24206588 0.85970563 4289966765
-0.05795344 0.2415417 0.85768038 4290229937
-0.056258056 0.24128114 0.85666019 4290361523
-0.054566424 0.24102056 0.85564005 4290493622
-0.05287854 0.24075998 0.85461992 4290691001
-0.051194407 0.24049939 0.85359985 4291348931
-0.049514022 0.2402388 0.85257977 4291612104
-0.047837388 0.23997821 0.85155976 4291875276
-0.046150044 0.23998125 0.85154468 4292204241
-0.044479031 0.23972064 0.85052472 4292598999
-0.042793564 0.23972368 0.85050964 4292993757
-0.041108094 0.23972672 0.85049462 4293322979
-0.039422628 0.23972976 0.85047954 4293651946
-0.037713323 0.23999646 0.85146934 4294046704
-0.036025979 0.23999952 0.85145426 4294178290
-0.034338638 0.24000256 0.85143918 4294441462
-0.032651294 0.2400056 0.8514241 4294638841
-0.030932616 0.24027233 0.85241377 4294770427
-0.029176984 0.24080274 0.85440814 4294836220
-0.027413853 0.24133317 0.85640252 4294836220
-0.025680179 0.24159992 0.85739207 4294901501
-0.024020417 0.24133928 0.85637218 4294901502
-0.0223237 0.24134235 0.85635704 4294901502
-0.020584401 0.24160911 0.85734653 4294901502
-0.018752441 0.24240328 0.8603453 4294901502
-0.016955562 0.24293377 0.86233932 4294901502
-0.015054774 0.2439917 0.86634248 4294901502
-0.013239146 0.24452221 0.86833632 4294901502
-0.011364065 0.24531648 0.87133473 4294901502
-0.009531565 0.24584702 0.87332845 4294901502
-0.0075244512 0.24716876 0.87833571 4294901501
-0.066561781 0.24694175 0.87185949 4288059022
-0.064812273 0.2458829 0.86782354 4288322194
-0.063090637 0.2456205 0.86680311 4286940543
-0.061367918 0.24482712 0.86377245 4288519574
-0.059656449 0.24403371 0.86074197 4289638313
-0.057954896 0.24350579 0.85871661 4290098607
-0.056254428 0.24350886 0.85870141 4289374629
-0.054564122 0.24298091 0.85667616 4286611836
-0.05287436 0.24271846 0.85565597 4287072644
-0.051197179 0.24219048 0.85363084 4291349189
-0.049506087 0.24219353 0.85361576 4291612104
-0.047827572 0.24193107 0.85259569 4291875276
-0.046138354 0.24193411 0.85258061 4292138448
-0.044465467 0.24167164 0.85156059 4292532949
-0.042778123 0.24167468 0.85154551 4292993758
-0.041090779 0.24167772 0.85153043 4293256931
-0.039425388 0.24141522 0.85051048 4293585897
-0.037739921 0.24141826 0.8504954 4294046705
-0.036054451 0.2414213 0.85048032 4294244084
-0.034341402 0.24168989 0.85147011 4294441462
-0.032624606 0.24195848 0.85245985 4294573048
-0.030904058 0.24222709 0.85344958 4294836220
-0.029179761 0.2424957 0.8544392 4294836220
-0.027416635 0.24302988 0.85643363 4294901500
-0.025682963 0.2432985 0.85742319 4294835964
-0.023984371 0.24330157 0.85740805 4294901501
-0.022285778 0.24330463 0.85739285 4294901502
-0.020544607 0.24357326 0.8583824 4294901502
-0.018710783 0.24437307 0.86138123 4294901502
-0.016865708 0.24517289 0.86437994 4294901502
-0.015057586 0.24570715 0.86637396 4294901502
-0.013191889 0.24650702 0.86937249 4294901502
-0.01126299 0.24757248 0.87337559 4294835966
-0.0094267465 0.24810679 0.87536931 4294901502
-0.0074715996 0.24917232 0.87937218 4294835708
-0.066564612 0.24866657 0.87189114 4287532935
-0.064821258 0.2478676 0.86886019 4288322451
-0.063097745 0.24760333 0.86783969 4285493098
-0.061373144 0.24680433 0.86480898 4286677115
-0.05965979 0.2460053 0.86177832 4288585625
-0.057957683 0.24520625 0.85874778 4290164657
-0.056257214 0.24520931 0.85873258 4288387990
-0.054566905 0.24467762 0.85670727 4285559148
-0.052877139 0.24441329 0.85568708 4286612093
-0.051191125 0.24414895 0.85466689 4291283396
-0.049498156 0.24415201 0.85465181 4291546311
-0.047817767 0.24388766 0.85363168 4291875276
-0.046126671 0.24389072 0.85361654 4292138448
-0.044451907 0.24362637 0.85259646 4292467413
-0.042762689 0.24362941 0.85258138 4292006607
-0.041093547 0.24336505 0.85156137 4290690748
-0.039428152 0.24310069 0.85054135 4293322725
-0.037766512 0.24283631 0.8495214 4293783532
-0.036082916 0.24283934 0.84950638 4294178290
-0.03434417 0.24337722 0.85150105 4294375669
-0.032597926 0.24391513 0.85349572 4294638841
-0.030875506 0.2441856 0.85448539 4294901757
-0.029182537 0.24418865 0.85447031 4294901501
-0.027454494 0.24445915 0.85545993 4294901501
-0.02568575 0.24499708 0.85745436 4294901501
-0.023948332 0.24526758 0.85844398 4294901502
-0.022207165 0.2455381 0.85943353 4294901502
-0.020462247 0.24580863 0.86042303 4294901502
-0.01866913 0.24634661 0.86241722 4294901502
-0.016822191 0.24715206 0.86541605 4294901502
-0.0150604 0.24742261 0.86640543 4294901502
-0.013144637 0.24849556 0.87040877 4294901502
-0.011213875 0.24956854 0.87441194 4294901502
-0.0093757631 0.2501066 0.87640572 4294901502
-0.0073630558 0.25144708 0.88141328 4294901244
-0.06657549 0.25066063 0.87292796 4286611833
-0.064830251 0.24985604 0.86989695 4288322451
-0.06310486 0.24958991 0.8688764 4286085491
-0.06137595 0.24851604 0.86484039 4284769888
-0.059662588 0.24771138 0.86180961 4285164902
-0.057960473 0.2469067 0.85877901 4289244068
-0.056263205 0.24664052 0.8577587 4288914591
-0.054569688 0.24637432 0.85673839 4286151285
-0.052879918 0.24610813 0.8557182 4285822834
-0.0511939 0.24584192 0.85469794 4291415239
-0.049500931 0.24584498 0.85468286 4291546568
-0.047820538 0.24557875 0.85366267 4291809483
-0.046129446 0.24558181 0.85364759 4292204241
-0.044454675 0.24531558 0.85262746 4291809484
-0.042765457 0.24531862 0.85261238 4289046179
-0.041096311 0.24505238 0.8515923 4291217092
-0.039452866 0.24451685 0.84956735 4291282885
-0.037793096 0.2442506 0.8485474 4293125089
-0.036085676 0.24452293 0.84953725 4294178033
-0.034346938 0.24506456 0.85153204 4294441462
-0.032600697 0.24560621 0.85352671 4294573048
-0.030878281 0.24587856 0.85451645 4294506744
-0.029185314 0.24588162 0.85450137 4294901502
-0.027457273 0.24615398 0.85549104 4294901502
-0.025725482 0.24642636 0.85648072 4294901502
-0.023912298 0.24723737 0.85947996 4294901502
-0.022169258 0.24750976 0.86046952 4294901502
-0.02042247 0.24778216 0.86145908 4294901502
-0.018671932 0.24805456 0.86244857 4294901502
-0.016825 0.24886565 0.86544752 4294901502
-0.015063213 0.24913807 0.8664369 4294901502
-0.013147462 0.25021851 0.87044036 4294901502
-0.011216713 0.25129899 0.87444371 4294901502
-0.0093247863 0.25211015 0.87744224 4294901502
-0.066586375 0.25265846 0.87396491 4285953903
-0.064833075 0.25157714 0.86992854 4286217075
-0.063107684 0.25130913 0.86890793 4287138177
-0.061378758 0.25022775 0.8648718 4286546042
-0.059665386 0.24941747 0.8618409 4289178275
-0.057961937 0.24887829 0.85981536 4289835948
-0.056262791 0.24861023 0.85879499 4289440934
-0.054567397 0.24834217 0.85777467 4287467401
-0.05287575 0.2480741 0.85675436 4285362283
-0.051187854 0.24780601 0.85573411 4289244326
-0.049493011 0.24780907 0.85571897 4291414725
-0.047810741 0.24754098 0.85469878 4291875276
-0.046132218 0.24727289 0.85367858 4292204242
-0.044441126 0.24727593 0.8536635 4292335572
-0.042768229 0.24700783 0.85264337 4289703853
-0.041079011 0.24701089 0.85262829 4290756541
-0.039411735 0.24674277 0.85160822 4290493369
-0.037724391 0.24674581 0.85159314 4292861917
-0.03603705 0.24674885 0.85157806 4294243826
-0.034322135 0.24702308 0.85256791 4294375669
-0.032574028 0.24756847 0.85456264 4293717740
-0.030849738 0.2478427 0.85555243 4292269782
-0.029154895 0.24784575 0.8555373 4294835709
-0.027460052 0.24784882 0.85552216 4294901502
-0.025691321 0.24839425 0.85751671 4294901502
-0.02387627 0.24921089 0.86051601 4294901502
-0.022131359 0.24948516 0.86150563 4294901502
-0.020382699 0.24975945 0.86249518 4294901502
-0.018630289 0.25003374 0.86348468 4294901502
-0.016827811 0.25057924 0.86547893 4294901502
-0.015017833 0.25112474 0.86747313 4294901502
-0.01310022 0.25221267 0.87147671 4294901502
-0.011115666 0.25357187 0.87648487 4294901502
-0.0092199985 0.25438866 0.87948346 4294901502
-0.064835899 0.25329819 0.86996007 4287598728
-0.063106194 0.25275534 0.86793423 4288322451
-0.061381564 0.25193945 0.86490315 4288980382
-0.059668183 0.25112355 0.86187226 4289769899
-0.057964731 0.25058061 0.85984659 4290033072
-0.056265581 0.25031069 0.85882622 4290362037
-0.054570183 0.25004074 0.85780585 4290888381
-0.052885476 0.2494978 0.85578036 4290757052
-0.051199455 0.24922784 0.85476011 4290888638
-0.049506485 0.24923089 0.85474497 4291546569
-0.047826085 0.24896093 0.85372472 4291941069
-0.046149436 0.24869095 0.85270452 4292138449
-0.044460215 0.248694 0.85268945 4292335830
-0.042770997 0.24869704 0.85267437 4291480777
-0.041081779 0.2487001 0.85265929 4292007121
-0.039414503 0.2484301 0.85163915 4291743693
-0.037727159 0.24843314 0.85162407 4292204500
-0.036039814 0.24843618 0.85160899 4294046704
-0.034324903 0.24871229 0.85259891 4293849325
-0.032576803 0.24926142 0.85459369 4290099125
-0.030883834 0.24926448 0.85457855 4292072403
-0.029190866 0.24926753 0.85456347 4294704123
-0.027462831 0.24954365 0.85555321 4294901502
-0.025694106 0.25009283 0.85754788 4294967295
-0.023879066 0.25091511 0.8605473 4294901502
-0.022134157 0.25119126 0.86153692 4294901502
-0.0203855 0.25146741 0.86252648 4294901502
-0.018633094 0.25174356 0.86351603 4294901502
-0.016830621 0.25229281 0.86551034 4294901502
-0.015020649 0.25284207 0.8675046 4294901502
-0.013103048 0.25393751 0.87150836 4294901502
-0.01106657 0.25557917 0.8775214 4294835709
-0.0092228511 0.25612849 0.87951535 4294835709
-0.064838722 0.25501928 0.86999166 4288059279
-0.06310901 0.25447267 0.8679657 4288585623
-0.061384372 0.25365114 0.86493456 4289243553
-0.059670981 0.25282964 0.86190355 4289704104
-0.057967521 0.25228295 0.85987782 4290098864
-0.056268372 0.25201115 0.85885739 4290362036
-0.054578036 0.25146446 0.85683179 4290757051
-0.052888256 0.25119263 0.85581148 4291020223
-0.05120223 0.2509208 0.85479116 4291349189
-0.049519952 0.25064895 0.85377085 4291612361
-0.047828857 0.25065202 0.85375577 4291941326
-0.046152204 0.25038016 0.85273552 4292138705
-0.044462986 0.2503832 0.85272044 4292533464
-0.042773768 0.25038627 0.85270536 4292796637
-0.04108455 0.25038931 0.85269028 4293322981
-0.039395332 0.25039235 0.85267514 4293586153
-0.037706111 0.25039539 0.85266006 4293980911
-0.035991203 0.25067335 0.85364997 4294178290
-0.034300111 0.25067642 0.85363489 4292796637
-0.032579578 0.25095439 0.85462475 4288191127
-0.030886611 0.25095743 0.85460967 4294704123
-0.029193642 0.2509605 0.85459453 4294901502
-0.027430547 0.25151342 0.85658926 4294901502
-0.025659954 0.25206637 0.85858393 4294177779
-0.02388186 0.25261933 0.86057854 4292269782
-0.022136955 0.25289732 0.86156821 4294309365
-0.020388301 0.25317535 0.86255783 4294901502
-0.018635897 0.2534534 0.86354738 4294901502
-0.016787119 0.25428134 0.86654663 4294901502
-0.014975279 0.25483435 0.86854094 4294901502
-0.013055815 0.25593731 0.87254477 4294901502
-0.01101748 0.25759023 0.87855804 4294901502
-0.06484773 0.25701711 0.8710286 4288124815
-0.063111827 0.25619 0.86799723 4288519573
-0.061387181 0.25536287 0.86496598 4289177247
-0.059673779 0.2545357 0.86193484 4289572007
-0.057970311 0.25398529 0.85990906 4290032558
-0.056267969 0.25398836 0.85989386 4290296243
-0.054575752 0.25343791 0.85786813 4290691258
-0.052884098 0.25316423 0.85684776 4290954686
-0.051196195 0.25289053 0.85582739 4291283652
-0.049512036 0.25261682 0.85480708 4291480775
-0.047819071 0.25261986 0.85479194 4291875533
-0.046140537 0.25234616 0.85377169 4292138705
-0.044465758 0.25207242 0.85275143 4292336084
-0.04277654 0.25207546 0.85273635 4292862429
-0.041067258 0.25235531 0.85372633 4293322981
-0.039376166 0.25235835 0.85371125 4293586153
-0.037661262 0.25263819 0.85470122 4293915118
-0.035968293 0.25264123 0.85468608 4294178547
-0.034275323 0.2526443 0.85467094 4293915631
-0.032582354 0.25264734 0.8546558 4292138707
-0.030858077 0.25292721 0.85564572 4294770173
-0.029163234 0.25293025 0.85563058 4294901502
-0.02743333 0.25321013 0.85662037 4294835709
-0.025662743 0.2537668 0.8586151 4290427578
-0.023884656 0.25432351 0.86060983 4289506220
-0.022139754 0.25460342 0.8615995 4294506231
-0.020348543 0.25516015 0.86359406 4294967038
-0.018594267 0.25544006 0.86458367 4294901502
-0.016743623 0.25627363 0.86758298 4294901502
-0.014929914 0.25683039 0.86957735 4294901502
-0.013008588 0.25794086 0.87358129 4294901502
-0.010968396 0.25960502 0.87959474 4294901502
-0.064844362 0.25846145 0.87005484 4288190608
-0.063114643 0.25790733 0.86802876 4288651160
-0.061387546 0.25679594 0.86399204 4289045663
-0.059676576 0.2562418 0.86196613 4289637800
-0.057973105 0.25568762 0.85994029 4289967022
-0.056273948 0.25541207 0.8589198 4290362036
-0.054578539 0.25513649 0.85789931 4290756794
-0.052893817 0.25458229 0.85587364 4291019966
-0.051207781 0.2543067 0.85485327 4291283651
-0.049514815 0.25430977 0.85483813 4291414982
-0.047834404 0.25403419 0.85381782 4291875533
-0.046143312 0.25403723 0.85380268 4292072912
-0.044468526 0.25376162 0.85278243 4292401878
-0.042779308 0.25376469 0.85276735 4292796637
-0.041070033 0.25404638 0.85375738 4293257188
-0.039378937 0.25404942 0.85374224 4293586153
-0.037687846 0.25405249 0.85372716 4293980911
-0.03599675 0.25405553 0.85371202 4294244083
-0.034305658 0.25405857 0.85369694 4294507255
-0.032585133 0.25434032 0.85468686 4294638841
-0.030892164 0.25434336 0.85467178 4294770171
-0.029166013 0.25462511 0.85566163 4294901502
-0.027436113 0.25490683 0.85665148 4292664540
-0.025702463 0.25518858 0.85764134 4287730065
-0.023926256 0.25574905 0.85963613 4292730076
-0.022183232 0.2560308 0.86062586 4294966782
-0.020351347 0.25686997 0.86362541 4294901246
-0.018552642 0.25743046 0.86561996 4294901246
-0.016746439 0.25799096 0.86761451 4294901502
-0.014980917 0.25827277 0.868604 4294901502
-0.013061479 0.25939071 0.87260813 4294901502
-0.011023181 0.26106614 0.87862182 4294901502
-0.064847186 0.26018253 0.87008637 4288321940
-0.063117459 0.25962466 0.86806023 4288716698
-0.061390352 0.25850579 0.86402339 4289046176
-0.059679374 0.25794789 0.86199743 4289572520
-0.057975896 0.25738996 0.85997152 4290098864
-0.056273554 0.25739303 0.85995632 4290427829
-0.054581326 0.25683507 0.85793048 4290691258
-0.052889664 0.25655764 0.85690999 4290954687
-0.051201753 0.25628018 0.85588956 4291349189
-0.04950691 0.25628325 0.85587442 4291678154
-0.047824621 0.25600579 0.85485405 4291941326
-0.046146084 0.2557283 0.85383373 4292270291
-0.044454992 0.25573137 0.8538186 4292599257
-0.042763896 0.25573441 0.85380352 4292994016
-0.041052748 0.25601801 0.85479355 4293257188
-0.039359782 0.25602105 0.85477841 4293651946
-0.037666813 0.25602409 0.85476333 4293915118
-0.035973843 0.25602716 0.85474819 4294244083
-0.034280878 0.2560302 0.85473305 4294375669
-0.032558478 0.25631383 0.85572302 4294770427
-0.030863635 0.25631687 0.85570788 4294836220
-0.029168792 0.25631994 0.85569274 4294901501
-0.027438896 0.25660354 0.85668266 4293848814
-0.025705248 0.25688717 0.85767251 4293585387
-0.023929048 0.25745139 0.8596673 4294835709
-0.022186028 0.25773501 0.8606571 4294901246
-0.02035415 0.25857982 0.86365682 4294638330
-0.018511023 0.25942463 0.86665636 4293980400
-0.016702952 0.25998887 0.86865091 4294901502
-0.01488738 0.26055315 0.8706454 4294835709
-0.013014258 0.26139802 0.87364471 4294901502
-0.06485001 0.26190361 0.87011796 4288125074
-0.063120276 0.26134199 0.86809176 4288388246
-0.061393157 0.26021561 0.8640548 4288980383
-0.059682172 0.25965396 0.86202872 4289506727
-0.057977382 0.25937468 0.86100811 4290033071
-0.056276344 0.25909537 0.8599875 4290427829
-0.054579057 0.25881606 0.85896701 4290559672
-0.052885517 0.25853673 0.85794646 4290888637
-0.051204532 0.25797501 0.85592067 4291283396
-0.049509689 0.25797808 0.85590553 4291612361
-0.0478274 0.25769874 0.8548851 4291809740
-0.046148859 0.25741941 0.85386473 4292204498
-0.044457763 0.25742245 0.85384965 4292533464
-0.042748492 0.25770789 0.85483974 4292994016
-0.041055527 0.25771096 0.8548246 4293322981
-0.03934063 0.25799641 0.8558147 4293651946
-0.037645787 0.25799948 0.85579956 4293980911
-0.035950944 0.25800255 0.85578442 4294178290
-0.034283653 0.25772318 0.8547641 4294441462
-0.032561257 0.25800866 0.85575414 4294770427
-0.030866414 0.2580117 0.855739 4294836220
-0.029171571 0.25801477 0.85572386 4294836221
-0.027441677 0.25830024 0.85671377 4294835966
-0.025708035 0.25858575 0.85770369 4294967295
-0.023970641 0.25887126 0.85869354 4294901502
-0.022188822 0.25943923 0.86068839 4294572537
-0.020356955 0.26028964 0.86368817 4292730333
-0.018513838 0.26114008 0.86668783 4291743438
-0.016705772 0.26170808 0.86868244 4294901502
-0.014890206 0.26227611 0.87067699 4294901502
-0.013017092 0.26312661 0.87367642 4294901502
-0.064852834 0.2636247 0.87014955 4288321940
-0.063123092 0.26305932 0.86812323 4288650905
-0.061398409 0.26220968 0.86509156 4289111456
-0.059685543 0.2616443 0.86306542 4289375141
-0.057978876 0.26136312 0.86204475 4289967278
-0.05627596 0.26108196 0.86102414 4290427829
-0.054576796 0.26080078 0.86000353 4290625721
-0.052888304 0.26023531 0.85797763 4290888894
-0.051207311 0.25966987 0.85595179 4291217603
-0.049523141 0.25938866 0.85493129 4291612361
-0.047830176 0.2593917 0.85491616 4291875533
-0.046151631 0.25911048 0.85389578 4292138705
-0.044460539 0.25911352 0.85388064 4292401878
-0.042751271 0.25940087 0.8548708 4292862430
-0.041058302 0.25940391 0.85485566 4293191395
-0.039343409 0.25969127 0.85584575 4293520360
-0.037624769 0.25997859 0.85683584 4293849325
-0.035953723 0.25969738 0.85581547 4294112497
-0.034286428 0.25941613 0.85479516 4294375669
-0.032593459 0.25941917 0.85478008 4294638841
-0.030869193 0.25970656 0.85577005 4294836220
-0.02917435 0.2597096 0.85575491 4294836220
-0.027409412 0.26028126 0.85775 4294836221
-0.025673896 0.26056865 0.85873991 4294901758
-0.02397343 0.26057172 0.85872471 4294835966
-0.022232288 0.2608591 0.85971457 4294901502
-0.020402305 0.26171514 0.86271447 4294046193
-0.018561073 0.26257122 0.86571431 4292467161
-0.016754888 0.26314297 0.86770898 4294901502
-0.014941203 0.26371473 0.86970365 4294901502
-0.013019927 0.26485518 0.87370813 4294901502
-0.064868055 0.26591799 0.87219214 4288255633
-0.063134566 0.26534888 0.87016577 4288650391
-0.061403666 0.26420751 0.86612844 4289111199
-0.059688922 0.26363838 0.86410224 4289703336
-0.057980377 0.26335534 0.86308151 4290032815
-0.056275584 0.26307228 0.86206084 4290296499
-0.054574538 0.26278922 0.86104017 4290559928
-0.052884165 0.26222003 0.85901415 4290888894
-0.051201291 0.26165083 0.85698825 4291217603
-0.049515247 0.26136774 0.8559677 4291546568
-0.047820404 0.26137081 0.85595256 4291809740
-0.046139982 0.26108772 0.85493213 4292138705
-0.044447016 0.26109079 0.85491699 4292533463
-0.042754047 0.26109383 0.85490185 4292796637
-0.041041031 0.26138303 0.855892 4293191395
-0.039324269 0.26167226 0.85688215 4293520360
-0.037603755 0.26196149 0.85787219 4293915118
-0.035930831 0.26167837 0.85685182 4294178290
-0.034261659 0.26139528 0.85583144 4294441462
-0.032566816 0.26139832 0.8558163 4294770427
-0.030871972 0.26140139 0.85580117 4294836220
-0.029143961 0.26169062 0.8567912 4294836220
-0.027377153 0.26226604 0.85878628 4294836221
-0.025639765 0.2625553 0.8597762 4294901759
-0.023898629 0.26284456 0.86076611 4294835965
-0.022194412 0.26284763 0.86075091 4294901502
-0.020362562 0.26370931 0.86375087 4293651435
-0.018519463 0.26457101 0.86675078 4293914607
-0.016665116 0.26543272 0.86975056 4294901502
-0.014895857 0.26572201 0.87074023 4294901502
-0.012922674 0.26715618 0.87574989 4294901502
-0.064877093 0.26793081 0.87322932 4286873980
-0.063141719 0.26735795 0.87120283 4288649878
-0.06140893 0.2662091 0.86716539 4289045406
-0.059692886 0.26592419 0.8661446 4289440678
-0.057981882 0.2653513 0.86411834 4290098094
-0.056275211 0.26506639 0.86309761 4290493109
-0.054577332 0.26449344 0.86107147 4290625208
-0.052893873 0.26363248 0.85803998 4291085504
-0.05121287 0.26305953 0.85601395 4291414212
-0.049518026 0.2630626 0.85599881 4291546568
-0.047823183 0.26306564 0.85598367 4291613131
-0.04612834 0.26306871 0.85596853 4292335314
-0.044433497 0.26307175 0.8559534 4292598486
-0.042738654 0.26307482 0.85593826 4293059550
-0.041043811 0.26307788 0.85592312 4293257186
-0.039327051 0.26336896 0.85691327 4293651944
-0.037606541 0.26366007 0.85790336 4293980909
-0.035907947 0.26366311 0.85788822 4294178289
-0.034236897 0.26337814 0.85686779 4294638841
-0.032569595 0.26309314 0.85584742 4294835964
-0.030843461 0.26338425 0.85683745 4294901502
-0.029146742 0.26338732 0.85682231 4294967295
-0.027379941 0.2639665 0.85881752 4294901502
-0.025605641 0.26454571 0.8608126 4294901502
-0.023862632 0.26483685 0.86180252 4294967295
-0.02215654 0.26483992 0.86178726 4294901502
-0.020322826 0.26570722 0.86478734 4294835965
-0.018522277 0.26628646 0.86678225 4294836222
-0.01666794 0.2671538 0.86978215 4294836222
-0.014850517 0.26773307 0.87177688 4294836222
-0.012925516 0.2688885 0.87578166 4294836222
-0.064879924 0.26965752 0.87326097 4286410606
-0.063144542 0.26908091 0.87123442 4288581519
-0.061414201 0.26821443 0.86820245 4289240988
-0.059695695 0.26763779 0.86617601 4289768359
-0.057984687 0.26706111 0.86414969 4290295216
-0.056278013 0.26677433 0.8631289 4290558902
-0.05458013 0.26619765 0.8611027 4290756538
-0.05289666 0.26533106 0.85807109 4291216063
-0.051206857 0.26504424 0.85705048 4291479237
-0.04951014 0.26504731 0.85703534 4291611336
-0.047813423 0.26505038 0.8570202 4291874765
-0.046116706 0.26505342 0.857005 4292203730
-0.044436276 0.2647666 0.85598445 4292664281
-0.042741433 0.26476964 0.85596931 4292927966
-0.041066632 0.2644828 0.85494888 4293322979
-0.039351746 0.26477575 0.85593903 4293586151
-0.037633114 0.26506874 0.85692924 4294112238
-0.035910733 0.26536173 0.85791934 4294243825
-0.034212139 0.26536477 0.8579042 4294769914
-0.032513548 0.26536784 0.857889 4294901244
-0.030814955 0.26537091 0.85787386 4294966782
-0.02911636 0.26537398 0.85785866 4294967039
-0.027347691 0.26595691 0.85985392 4294901246
-0.025571521 0.26653984 0.86184907 4294967039
-0.023787854 0.26712281 0.86384416 4294900989
-0.022078011 0.2671259 0.8638289 4294967039
-0.020283094 0.26770887 0.86582392 4294901502
-0.018480677 0.26829186 0.86781883 4294901502
-0.016624473 0.26916483 0.87081885 4294836222
-0.014805184 0.26974785 0.87281364 4294836222
-0.012878319 0.2709108 0.87681848 4294836222
-0.064876541 0.2710925 0.87228703 4286141274
-0.063147366 0.27080387 0.87126607 4286274657
-0.061417017 0.26993176 0.86823392 4287789436
-0.059698507 0.26935136 0.86620748 4289368981
-0.057987493 0.26877096 0.86418104 4290291623
-0.056280814 0.2684823 0.86316025 4290886327
-0.054582924 0.26790187 0.86113399 4289039248
-0.052892532 0.26732141 0.85910773 4290553516
-0.051192064 0.26732448 0.85909259 4291672767
-0.049491595 0.26732755 0.85907739 4292134346
-0.047791131 0.26733062 0.85906219 4292398545
-0.046105076 0.26704192 0.85804158 4290951612
-0.044439055 0.26646143 0.85601556 4292663513
-0.042762376 0.26617271 0.85499501 4293190625
-0.041089445 0.26588398 0.85397452 4293388260
-0.039376438 0.26617882 0.85496479 4293651944
-0.037635896 0.26676545 0.85696036 4293849066
-0.03591352 0.26706031 0.85795051 4293322210
-0.034159854 0.26764694 0.85994595 4293914348
-0.032457512 0.26765001 0.85993075 4293519335
-0.030786453 0.26736128 0.85891026 4294572024
-0.029085986 0.26736435 0.85889506 4294177523
-0.027315447 0.26795104 0.86089039 4292992992
-0.025537409 0.26853773 0.86288559 4294177266
-0.023713088 0.26941627 0.86588597 4293388007
-0.021999495 0.26941937 0.86587065 4294769916
-0.020200836 0.27000609 0.86786568 4294901502
-0.018394675 0.27059284 0.86986065 4294901502
-0.016581014 0.27117962 0.87185556 4294836222
-0.014759855 0.27176639 0.87385041 4294836222
-0.012781095 0.27322868 0.87886053 4294836222
-0.064873159 0.27252373 0.87131304 4285552474
-0.063145854 0.27223322 0.87029201 4285944152
-0.061417371 0.27135548 0.8672598 4287521901
-0.059700727 0.27077132 0.8652333 4286797151
-0.057991579 0.27018717 0.86320686 4287720820
-0.056286775 0.26989663 0.86218601 4288248447
-0.054590754 0.26931244 0.8601597 4289168266
-0.052895322 0.26902187 0.85913897 4288970119
-0.051194854 0.26902494 0.85912377 4288244857
-0.049494386 0.26902801 0.85910857 4289955221
-0.047793917 0.26903108 0.85909337 4290351005
-0.046122268 0.26844686 0.85706729 4290483105
-0.044458121 0.26786262 0.85504121 4291471283
-0.042783309 0.26757202 0.85402066 4292132036
-0.041112252 0.26728141 0.85300016 4292069578
-0.039401125 0.26757812 0.85399044 4293781992
-0.037686247 0.26787484 0.85498071 4293914602
-0.035941962 0.26846522 0.85697633 4288058770
-0.034190178 0.2690556 0.85897183 4288519579
-0.032460302 0.26935235 0.85996199 4291348421
-0.030820524 0.26876807 0.85793614 4293453797
-0.029088775 0.26906481 0.8589263 4291348422
-0.027353276 0.26936156 0.85991633 4291348167
-0.025577119 0.269952 0.86191165 4291611339
-0.023754679 0.27083617 0.86491215 4292532441
-0.022002306 0.27113295 0.86590207 4294966782
-0.020246183 0.27142975 0.86689198 4294901246
-0.018441902 0.27202022 0.86888707 4294901502
-0.016583843 0.27290446 0.87188721 4294901502
-0.014714534 0.27378869 0.87488729 4294901502
-0.012733914 0.27526036 0.87989753 4294901502
-0.064882204 0.27454215 0.87235034 4288517522
-0.063148677 0.2739543 0.8703236 4287462781
-0.061420184 0.27307093 0.86729127 4288912537
-0.059703533 0.27248302 0.86526471 4288977560
-0.057994381 0.27189511 0.86323816 4288385423
-0.056289572 0.27160269 0.86221731 4288514955
-0.054588512 0.27131027 0.86119652 4290353825
-0.052891202 0.27101785 0.86017573 4289430928
-0.05118008 0.27131641 0.86116606 4287981431
-0.04947586 0.27131951 0.8611508 4290744479
-0.047784176 0.27102706 0.86013007 4289429133
-0.046110645 0.27043909 0.85810387 4289100938
-0.044460896 0.26955557 0.85507226 4288707464
-0.042786084 0.26926309 0.85405171 4292263365
-0.041115019 0.26897061 0.85303116 4289503652
-0.039403897 0.2692692 0.85402149 4293518820
-0.037665244 0.26986334 0.85601717 4294375155
-0.035944745 0.27016193 0.85700744 4287269254
-0.034192964 0.27075607 0.85900307 4289638060
-0.032463092 0.27105469 0.85999322 4291019456
-0.030792031 0.27076221 0.85897267 4293716970
-0.029091563 0.27076527 0.85895747 4292269269
-0.027356066 0.27106389 0.85994756 4292532441
-0.025579916 0.27165809 0.86194295 4292861407
-0.023757486 0.27254787 0.86494356 4292861406
-0.022005117 0.27284652 0.86593354 4294901245
-0.020206466 0.27344075 0.86792868 4294901502
-0.018400319 0.27403501 0.86992383 4294901502
-0.016540393 0.27492484 0.87292409 4294901502
-0.014669219 0.27581471 0.87592423 4294901502
-0.064885028 0.27626699 0.87238199 4287992461
-0.063155845 0.27597275 0.8713609 4288387733
-0.061425466 0.27508375 0.86832845 4288848797
-0.059706341 0.27419475 0.86529613 4289375654
-0.057997182 0.27360308 0.86326951 4289901742
-0.05629237 0.27330878 0.8622486 4290427059
-0.054591306 0.27301449 0.86122775 4291149500
-0.052893993 0.27272019 0.86020696 4291146422
-0.05119165 0.27272326 0.86019176 4287787131
-0.049489308 0.27272633 0.8601765 4289498006
-0.047799494 0.272432 0.85915577 4290092196
-0.046127833 0.27184027 0.85712951 4289630876
-0.044463672 0.27124852 0.85510331 4288710800
-0.042770702 0.27125159 0.85508823 4293187291
-0.041097764 0.27095723 0.85406762 4289635239
-0.039406668 0.27096027 0.85405248 4293255137
-0.037668023 0.27155817 0.85604829 4294242800
-0.035947528 0.27185863 0.85703856 4287466891
-0.034223281 0.2721591 0.85802883 4291151299
-0.032495286 0.2724596 0.85901904 4292598745
-0.03079482 0.27246267 0.85900384 4293848812
-0.029094351 0.27246574 0.85898864 4291348679
-0.027358858 0.27276623 0.8599788 4292138196
-0.025619615 0.27306673 0.86096895 4294111986
-0.023837846 0.27366468 0.86296433 4294111986
-0.022089228 0.27396521 0.86395437 4294901502
-0.020251809 0.27486065 0.86695492 4294901502
-0.018403141 0.27575609 0.86995542 4294901502
-0.016496949 0.27694902 0.87396097 4294901502
-0.01467206 0.27754706 0.875956 4294901503
-0.06489408 0.27829105 0.8734194 4287730059
-0.063158669 0.27769569 0.87139249 4288322196
-0.061428282 0.27680108 0.86835992 4288717467
-0.059709147 0.27590644 0.86532748 4289637030
-0.057999983 0.27531105 0.86330086 4289835436
-0.056295168 0.27501488 0.86227995 4290362549
-0.054599129 0.27441943 0.86025339 4290690745
-0.052896786 0.2744225 0.86023819 4291151040
-0.051203217 0.27412632 0.85921735 4290491573
-0.049502753 0.27412939 0.85920215 4291544517
-0.047814809 0.27383319 0.85818136 4292532184
-0.046130616 0.27353698 0.85716063 4292531927
-0.044450175 0.27324077 0.85613996 4292531414
-0.042773481 0.27294454 0.85511929 4293452772
-0.041100536 0.2726483 0.85409862 4292927198
-0.039387543 0.27295065 0.85508901 4293520360
-0.037670802 0.27325299 0.8560794 4293651689
-0.035950311 0.27355534 0.85706967 4293256931
-0.034226067 0.27385768 0.85806 4294441462
-0.032527473 0.27386075 0.8580448 4294573048
-0.030797608 0.27416313 0.85903507 4294573048
-0.02909714 0.2741662 0.85901988 4294375669
-0.027396673 0.27416927 0.85900468 4294638585
-0.025659308 0.27447164 0.85999483 4294901501
-0.023918193 0.27477401 0.86098498 4294901501
-0.02213268 0.27537572 0.86298043 4294901502
-0.020297145 0.2762768 0.8659811 4294901502
-0.018405965 0.27747717 0.86998695 4294901502
-0.016499784 0.27867758 0.87399274 4294901502
-0.014626754 0.27957872 0.87699306 4294901502
-0.06490314 0.28031889 0.87445682 4287665036
-0.063165843 0.27971977 0.87242985 4288387990
-0.061431099 0.27851841 0.86839145 4288783004
-0.059711955 0.27761817 0.86535889 4289375141
-0.058002785 0.27701899 0.86333215 4289901485
-0.056297965 0.27672094 0.86231124 4290296243
-0.054596897 0.27642289 0.86129028 4290691001
-0.052899577 0.27612484 0.86026943 4290954174
-0.051197235 0.2761279 0.86025417 4291348932
-0.049505539 0.27582985 0.85923338 4291743434
-0.047805071 0.27583292 0.85921818 4292137937
-0.046119001 0.27553484 0.85819739 4292335317
-0.044436682 0.27523676 0.8571766 4292795612
-0.042758111 0.27493864 0.85615587 4293387493
-0.041083287 0.27464056 0.8551352 4293650921
-0.039368425 0.27494478 0.85612559 4293914605
-0.03764981 0.275249 0.85711598 4294178033
-0.035927445 0.27555323 0.85810632 4294440949
-0.034228854 0.27555627 0.85809112 4294770427
-0.032500863 0.27586052 0.85908145 4294836220
-0.030800397 0.27586359 0.85906625 4294836220
-0.029099928 0.27586666 0.85905105 4294836220
-0.027399462 0.27586973 0.85903585 4294836220
-0.025662098 0.27617398 0.86002606 4294836220
-0.023882218 0.27677941 0.86202163 4294901500
-0.022094836 0.27738488 0.86401713 4294967036
-0.020257436 0.27829155 0.86701787 4294901500
-0.018364392 0.27949947 0.87102389 4294901502
-0.016410081 0.28100857 0.87603503 4294835966
-0.014581453 0.28161412 0.87803018 4294835966
-0.064899743 0.28174448 0.8734827 4287861645
-0.063164324 0.28114161 0.87145573 4288191637
-0.061431438 0.27993277 0.86741716 4288717211
-0.059714157 0.27902687 0.86438453 4289375141
-0.058006857 0.27842396 0.86235774 4289901485
-0.056303907 0.27812403 0.86133677 4290230963
-0.054599691 0.2781271 0.86132157 4290559928
-0.052902371 0.27782717 0.86030066 4290888638
-0.051208798 0.27752724 0.85927975 4291348932
-0.049508329 0.27753031 0.85926455 4291678154
-0.047820382 0.27723035 0.8582437 4291941584
-0.046136182 0.27693039 0.85722291 4292401365
-0.044455733 0.27663043 0.85620213 4292730588
-0.042779032 0.27633047 0.8551814 4293256931
-0.041106082 0.27603048 0.85416067 4293585896
-0.039393097 0.27633658 0.85515112 4293914605
-0.03767636 0.27664265 0.85614157 4294178033
-0.035955872 0.27694875 0.85713196 4294375669
-0.034231637 0.27725488 0.85812229 4294836221
-0.032533046 0.27725792 0.85810715 4294836222
-0.030834453 0.27726099 0.85809195 4294836222
-0.029135861 0.27726406 0.85807675 4294836222
-0.02740225 0.27757019 0.85906708 4294836222
-0.02566489 0.27787632 0.86005729 4294836222
-0.023885015 0.27848551 0.86205292 4294836222
-0.022138281 0.27879167 0.86304307 4294770686
-0.020260248 0.28000703 0.86704934 4294901502
-0.018367218 0.2812224 0.87105548 4294966782
-0.016412921 0.28274092 0.8760668 4294901246
-0.0145843 0.2833502 0.87806201 4294966782
-0.064902574 0.28347117 0.87351441 4288714901
-0.063167147 0.28286457 0.87148732 4288387219
-0.06143425 0.28164822 0.86744863 4288848027
-0.059716962 0.28073671 0.86441588 4289374885
-0.058009654 0.28013003 0.86238909 4289769899
-0.056303561 0.28013313 0.86237383 4290230963
-0.054602485 0.27983132 0.8613528 4290297013
-0.052898269 0.27983439 0.8613376 4290757565
-0.051202819 0.27953258 0.86031663 4291283396
-0.049500477 0.27953565 0.86030143 4291612361
-0.047810651 0.27923384 0.85928053 4291875790
-0.046138965 0.2786271 0.85725403 4292467670
-0.044458512 0.27832526 0.85623324 4292665051
-0.042763669 0.27832833 0.8562181 4293126115
-0.041088842 0.27802646 0.85519731 4293454824
-0.039395873 0.27802953 0.85518217 4293980654
-0.03767914 0.27833751 0.85617262 4294309876
-0.035958655 0.27864546 0.85716307 4294376183
-0.034206908 0.27925837 0.85915899 4294836222
-0.03250644 0.27926144 0.85914385 4294836222
-0.030805973 0.27926451 0.85912865 4294836222
-0.029105507 0.27926758 0.85911345 4294836222
-0.027405038 0.27927065 0.85909826 4294901502
-0.025667682 0.27957866 0.86008853 4294901502
-0.023887813 0.2801916 0.86208421 4294901502
-0.022141082 0.28049961 0.86307442 4294901502
-0.020263061 0.28172249 0.86708081 4294901502
-0.018325655 0.28325033 0.87209249 4294835966
-0.016369499 0.28477821 0.87710398 4294835966
-0.01453901 0.28539124 0.87909925 4294966526
-0.064905405 0.28519788 0.87354606 4286931560
-0.063169971 0.28458753 0.87151891 4288846231
-0.061437063 0.28336367 0.8674801 4289176478
-0.059719764 0.28244653 0.8644473 4289308835
-0.058011185 0.28214288 0.86342621 4289769899
-0.056306358 0.28183919 0.86240512 4290231220
-0.054600269 0.28184229 0.86238986 4290297270
-0.052894175 0.28184536 0.8623746 4290692029
-0.051196847 0.28154168 0.86135364 4291086530
-0.049503267 0.28123799 0.86033267 4291678154
-0.047813438 0.28093427 0.85931176 4291941326
-0.046127357 0.28063059 0.85829085 4292467672
-0.044445027 0.28032687 0.85727 4292796637
-0.04274831 0.28032994 0.85725486 4293322724
-0.041091617 0.27971944 0.85522836 4293717739
-0.039398648 0.27972248 0.85521322 4293915375
-0.037681919 0.28003234 0.85620373 4294375413
-0.035961438 0.28034219 0.85719419 4294507255
-0.03423721 0.28065205 0.85818464 4294836222
-0.03250923 0.2809619 0.85917503 4294836222
-0.030777501 0.28127176 0.86016536 4294836222
-0.029075159 0.28127483 0.86015016 4294836222
-0.027337806 0.28158471 0.86114049 4294901502
-0.025633588 0.28158778 0.86112523 4294901502
-0.023890611 0.28189766 0.8621155 4294966782
-0.022143884 0.28220758 0.86310571 4294901502
-0.020265875 0.28343794 0.86711228 4294901502
-0.018328484 0.28497514 0.87212414 4294966782
-0.016372344 0.2865124 0.87713581 4294966015
-0.064908236 0.2869246 0.87357777 4285015093
-0.063172795 0.28631049 0.8715505 4285478981
-0.061439876 0.28507912 0.86751157 4287920251
-0.059722569 0.28415638 0.86447865 4289635488
-0.05801525 0.28354222 0.86245167 4290557104
-0.056312293 0.28323665 0.86143059 4290821047
-0.054608077 0.28323972 0.86141533 4290821561
-0.052903857 0.28324282 0.86140013 4290888125
-0.051217161 0.28262863 0.85937333 4291086017
-0.049516693 0.2826317 0.85935813 4291481033
-0.047828738 0.2823261 0.85833716 4292006862
-0.046158914 0.28171188 0.85631055 4292467414
-0.04446407 0.28171495 0.85629541 4292796124
-0.042769227 0.28171799 0.85628027 4293256419
-0.041094393 0.28141239 0.85525942 4293716969
-0.039423309 0.2811068 0.85423863 4293980398
-0.037708458 0.2814185 0.8552292 4294375156
-0.036015488 0.28142154 0.85521406 4294638072
-0.034267504 0.28204194 0.85721016 4294901502
-0.032541402 0.28235367 0.85820061 4294901502
-0.030780293 0.28297409 0.86019659 4294901502
-0.029077951 0.28297716 0.86018139 4294901245
-0.0273406 0.28328893 0.86117172 4294901502
-0.025636382 0.283292 0.86115652 4294901501
-0.023893408 0.28360376 0.86214679 4294966782
-0.022146683 0.28391552 0.86313707 4294966527
-0.020353703 0.284536 0.86513281 4294966271
-0.018420076 0.2860826 0.87014484 4294964477
-0.016421445 0.28793791 0.87616217 4294431206
-0.063184358 0.28865442 0.87359399 4285996596
-0.06144518 0.28710508 0.86854899 4285667629
-0.059726607 0.28648719 0.86652184 4286131518
-0.058015533 0.2858693 0.86449474 4286664278
-0.056311954 0.28525138 0.86246771 4288907400
-0.054610871 0.28494394 0.86144662 4290884015
-0.052906655 0.28494701 0.86143142 4291937475
-0.051219951 0.28432909 0.8594045 4292004295
-0.049519483 0.28433213 0.85938931 4292399567
-0.04783152 0.28402469 0.85836834 4292794325
-0.046147313 0.28371724 0.85734743 4292794583
-0.044466849 0.28340977 0.85632652 4293123806
-0.042772006 0.28341281 0.85631132 4293519078
-0.041077163 0.28341588 0.85629618 4293782764
-0.03938232 0.28341895 0.85628104 4294111729
-0.037687477 0.28342199 0.8562659 4294375159
-0.035992634 0.28342506 0.85625076 4294638332
-0.034270287 0.28373867 0.85724127 4294966783
-0.032514807 0.28436282 0.85923743 4294966527
-0.03075183 0.28498697 0.86123347 4294966527
-0.029014483 0.28530061 0.86222386 4294966270
-0.027273385 0.28561425 0.86321419 4294966270
-0.025565419 0.28561732 0.86319894 4294966527
-0.023857452 0.28562039 0.86318368 4294966014
-0.022149485 0.28562349 0.86316842 4294964989
-0.020314006 0.28655827 0.86616969 4294566126
-0.01837852 0.28811425 0.87118191 4292963732
-0.063195929 0.29100585 0.87563765 4285733424
-0.061455481 0.28975952 0.87159836 4286586421
-0.059730038 0.28851312 0.86755919 4286848564
-0.058017079 0.28789148 0.86553204 4286913844
-0.056311622 0.28726983 0.86350495 4286716979
-0.054613665 0.28664815 0.86147785 4287180098
-0.052916326 0.28633884 0.86045676 4287579990
-0.051231492 0.28571716 0.85842985 4288506228
-0.049532901 0.2857202 0.85841471 4290221210
-0.047846813 0.28541088 0.85739368 4291079856
-0.046164472 0.28510156 0.85637271 4292659402
-0.044469628 0.2851046 0.85635757 4293515740
-0.042774785 0.28510767 0.85634243 4294437612
-0.041059941 0.28542313 0.85733306 4294898933
-0.03936322 0.2854262 0.85731792 4294965754
-0.037666503 0.28542924 0.85730273 4294966014
-0.035969786 0.28543231 0.85728759 4294966271
-0.034273069 0.28543538 0.85727245 4294966014
-0.032517597 0.28606328 0.85926861 4294965758
-0.030723372 0.28700361 0.86227036 4294898425
-0.029017281 0.28700671 0.86225516 4294568177
-0.027276186 0.28732219 0.86324549 4293841887
-0.025568219 0.28732529 0.86323023 4293246415
-0.023821501 0.28764081 0.86422056 4292910007
-0.02211166 0.28764388 0.8642053 4293161624
-0.020274315 0.28858432 0.86720669 4292236927
-0.018381344 0.28983721 0.8712135 4292235129
-0.061468299 0.29273942 0.87565392 4284749864
-0.059734721 0.29117131 0.87060857 4286651187
-0.058017384 0.2902317 0.86757535 4287373368
-0.056305043 0.28992054 0.86655408 4287307575
-0.054601457 0.28929511 0.86452693 4287701306
-0.052912243 0.28835544 0.86149395 4288160320
-0.051225528 0.28772998 0.85946691 4288159294
-0.04952506 0.28773305 0.85945171 4288027709
-0.047837093 0.28742185 0.85843068 4288159552
-0.046152875 0.28711066 0.85740966 4288620873
-0.044456158 0.28711373 0.85739452 4289148246
-0.042759441 0.28711677 0.85737932 4289938532
-0.041042723 0.2874341 0.85836995 4290399596
-0.039322253 0.28775147 0.85936058 4290860660
-0.037621789 0.28775454 0.85934538 4291320956
-0.03592132 0.28775761 0.85933018 4291649665
-0.034220852 0.28776067 0.85931498 4291911811
-0.032520384 0.28776374 0.85929978 4292107138
-0.03075742 0.2883954 0.861296 4291908475
-0.029020078 0.28871277 0.86228645 4291644020
-0.027278988 0.28903016 0.86327684 4291775348
-0.025534147 0.28934756 0.86426723 4292433277
-0.023785558 0.28966495 0.86525756 4292366971
-0.022033216 0.28998235 0.86624789 4292695937
-0.020192131 0.29092839 0.86924934 4292959364
-0.018339798 0.29187447 0.87225068 4291710838
-0.061481141 0.29573432 0.87970978 4282781207
-0.059740674 0.29447299 0.87567019 4282781207
-0.058013953 0.29352775 0.8726368 4284551971
-0.056292236 0.29321474 0.87161541 4286125868
-0.054584265 0.29226947 0.86858213 4287504697
-0.052880671 0.29164031 0.86655492 4288095551
-0.051193323 0.29069498 0.86352181 4288489542
-0.04949598 0.29038194 0.86250067 4288816710
-0.047802385 0.29006886 0.86147952 4289145932
-0.046098169 0.29007193 0.86146426 4289342798
-0.044410199 0.28975886 0.86044317 4289933910
-0.042707857 0.28976193 0.86042798 4290262106
-0.041005515 0.289765 0.86041278 4290787680
-0.039281301 0.29008424 0.86140341 4291379305
-0.037553336 0.29040349 0.86239392 4291708270
-0.035847243 0.29040655 0.86237872 4291905905
-0.034168649 0.29009345 0.86135769 4292037492
-0.03246443 0.29009652 0.86134249 4292235641
-0.030728968 0.29041579 0.862333 4292433020
-0.028989755 0.29073504 0.86332345 4292432763
-0.027246792 0.29105431 0.86431384 4292564862
-0.025536951 0.29105738 0.86429858 4293025413
-0.023749618 0.29169285 0.86629462 4292762497
-0.021954788 0.29232833 0.8682906 4291974009
-0.020067466 0.29359621 0.87229776 4288625752
-0.061481487 0.29715431 0.8787356 4280358931
-0.059742879 0.29588544 0.8746959 4280358931
-0.058016781 0.29525259 0.87266839 4280818199
-0.056295063 0.2949377 0.871647 4281604119
-0.054582085 0.29430479 0.86961961 4282716953
-0.05288348 0.29335389 0.86658633 4283764251
-0.051196124 0.29240295 0.86355317 4285207335
-0.049498778 0.292088 0.86253196 4286782517
-0.047805179 0.29177308 0.86151075 4287964483
-0.046100963 0.29177615 0.86149555 4288752459
-0.044396747 0.29177922 0.8614803 4289935193
-0.042692527 0.29178229 0.8614651 4290328924
-0.041008305 0.29146734 0.86044401 4290722913
-0.039305963 0.29147041 0.86042881 4291314280
-0.037579875 0.29179153 0.86141944 4291840368
-0.035875659 0.2917946 0.86140418 4292103796
-0.034171443 0.29179767 0.86138898 4292104310
-0.032467224 0.29180074 0.86137372 4292040058
-0.030763008 0.29180381 0.86135852 4291646071
-0.029025674 0.29212496 0.86234903 4290988654
-0.027284589 0.29244608 0.86333948 4290398056
-0.025502887 0.29308528 0.86533564 4289150299
-0.023713687 0.29372451 0.86733174 4287969105
-0.021916986 0.29436371 0.86932778 4286264390
-0.020027803 0.2956391 0.87333506 4283515457
-0.063229188 0.29952696 0.88079518 4279835156
-0.061476812 0.29793078 0.87574917 4279835156
-0.059744451 0.2969743 0.87271547 4280032022
-0.058020853 0.29665753 0.87169397 4280294936
-0.056297887 0.29666066 0.87167859 4280491544
-0.054584906 0.29602399 0.86965114 4280622102
-0.052879423 0.29538736 0.86762375 4280753175
-0.051181443 0.29475066 0.86559647 4280883735
-0.049480341 0.29443386 0.86457521 4281145365
-0.0477705 0.29443696 0.86455989 4281799958
-0.046060659 0.29444003 0.86454463 4282848795
-0.044350818 0.29444313 0.86452937 4283569182
-0.042659093 0.2941263 0.86350816 4284291364
-0.040971115 0.29380947 0.86248702 4284553766
-0.039265022 0.29381257 0.86247176 4285538866
-0.037535191 0.29413554 0.86346239 4285801012
-0.035827223 0.29413864 0.86344713 4285735732
-0.034091767 0.29446164 0.8644377 4285802809
-0.032381926 0.29446471 0.86442244 4285869629
-0.030672085 0.29446781 0.86440718 4285017915
-0.028962241 0.29447088 0.86439186 4284299069
-0.027182421 0.29511383 0.86638814 4284039747
-0.025395101 0.29575679 0.8683843 4283646530
-0.023600282 0.29639977 0.8703804 4283779143
-0.021797964 0.29704276 0.87237644 4283582790
-0.019903168 0.29832566 0.87638378 4283189059
-0.064965621 0.30094191 0.87983644 4281019688
-0.063214503 0.29997987 0.8768025 4280427551
-0.061472118 0.29869601 0.8727625 4280097815
-0.059746008 0.29805565 0.87073487 4279966742
-0.058027398 0.29741526 0.8687073 4280033048
-0.056310058 0.29741836 0.86869198 4280098328
-0.054602694 0.29677796 0.86666453 4280097815
-0.052895967 0.29645929 0.86564314 4280294680
-0.051184248 0.29646239 0.86562788 4280425753
-0.049472533 0.29646546 0.86561257 4280557337
-0.047760814 0.29646856 0.86559725 4280753946
-0.046049099 0.29647166 0.86558199 4281017631
-0.044353623 0.29615295 0.86456072 4281083681
-0.042661894 0.29583427 0.86353952 4281477923
-0.040973913 0.29551557 0.86251831 4282003241
-0.039267823 0.29551864 0.86250311 4282463279
-0.037537992 0.29584351 0.86349374 4282332719
-0.035804413 0.29616839 0.86448437 4282334002
-0.034094572 0.29617146 0.86446905 4282597431
-0.032355368 0.29649633 0.86545962 4283056700
-0.030643651 0.29649943 0.86544436 4282925885
-0.028898822 0.29682434 0.86643487 4282991936
-0.027115259 0.29747102 0.86843115 4283189059
-0.025361057 0.29779592 0.8694216 4283189315
-0.023525633 0.29876447 0.87242347 4283190087
-0.021760182 0.2990894 0.87341386 4283124807
-0.064955942 0.30203268 0.87785596 4280690978
-0.063208565 0.30106497 0.8748219 4280756771
-0.061472435 0.30009726 0.87178797 4281809459
-0.059748191 0.29945311 0.86976033 4280296220
-0.058031451 0.29880899 0.8677327 4280493599
-0.056319095 0.29848844 0.86671126 4279967255
-0.054615475 0.29784429 0.86468375 4279966742
-0.052919354 0.29720011 0.8626563 4280098071
-0.051213264 0.29720318 0.8626411 4280164121
-0.049507171 0.29720625 0.86262584 4280098328
-0.047801081 0.29720935 0.86261058 4280361500
-0.046109349 0.29688877 0.86158931 4280624672
-0.044421364 0.29656821 0.86056811 4280821794
-0.042737134 0.29624763 0.8595469 4281018917
-0.041036665 0.2962507 0.85953176 4281282343
-0.039336197 0.29625377 0.85951656 4281479466
-0.037611995 0.29658049 0.86050731 4281940273
-0.035884045 0.29690722 0.861498 4282072629
-0.034152344 0.29723397 0.86248863 4282401594
-0.03244625 0.29723704 0.86247343 4282335801
-0.030708926 0.29756379 0.86346406 4282533181
-0.02896785 0.29789054 0.86445463 4282664768
-0.027223025 0.29821733 0.8654452 4282467903
-0.025437592 0.29886776 0.86744148 4282730818
-0.023567194 0.30016562 0.87144935 4282796355
-0.021763014 0.30081612 0.87344551 4283124551
-0.064958788 0.30376688 0.87788779 4280362527
-0.063215792 0.30311903 0.87585986 4279507218
-0.061477777 0.30214569 0.8728258 4281480494
-0.059751652 0.30149782 0.87079805 4280888357
-0.05803303 0.30084994 0.8687703 4282138938
-0.05631569 0.30085301 0.86875498 4280888871
-0.054613296 0.29987961 0.86572123 4283059526
-0.052915294 0.29923171 0.86369371 4280756771
-0.05120733 0.29923478 0.86367846 4279967255
-0.049509969 0.29891235 0.86265713 4280296220
-0.047803879 0.29891542 0.86264187 4279966742
-0.046112143 0.29859298 0.8616206 4280427293
-0.044424158 0.29827052 0.86059934 4280690466
-0.04273992 0.29794809 0.85957813 4280953637
-0.041039452 0.29795116 0.85956293 4281151273
-0.039317131 0.29827976 0.86055374 4281348908
-0.037591055 0.29860836 0.86154449 4281612593
-0.035886839 0.29861143 0.86152923 4281679154
-0.034155142 0.29894003 0.86251998 4281743921
-0.032449048 0.29894313 0.86250472 4282138936
-0.030711725 0.29927176 0.86349535 4282073401
-0.028970653 0.29960039 0.86448598 4282599489
-0.027190851 0.30025458 0.86648244 4283322442
-0.02540355 0.30090877 0.86847883 4282861891
-0.02357002 0.30188859 0.87148094 4287994259
-0.021765845 0.30254281 0.87347716 4282927685
-0.063218631 0.30484948 0.87589163 4280888871
-0.061478086 0.30354315 0.87185121 4279967255
-0.059754476 0.3032189 0.87082958 4279770390
-0.058034614 0.30289462 0.86980802 4280954664
-0.056318503 0.30257037 0.86878651 4280888871
-0.054621082 0.30126396 0.86474651 4283717970
-0.05292495 0.30061227 0.86271894 4283322698
-0.05121886 0.30061534 0.86270368 4282006838
-0.049523372 0.30029103 0.8616823 4285625453
