# .PCD v0.7 - Point Cloud Data file format
VERSION 0.7
FIELDS x y z rgba
SIZE 4 4 4 4
TYPE F F F U
COUNT 1 1 1 1
WIDTH 1047
HEIGHT 1
VIEWPOINT 0 0 0 1 0 0 0
POINTS 1047
DATA ascii
-0.021416763 0.16493304 0.87395221 4293322469
-0.083544016 0.16495687 0.8655079 4287334530
-0.081679918 0.16389595 0.85947049 4286545272
-0.079884119 0.16318966 0.85544062 4288979870
-0.078145355 0.16283803 0.85341817 4289900972
-0.076433241 0.16266374 0.85239941 4289703593
-0.074690327 0.16213474 0.84937346 4290098608
-0.072974063 0.16178307 0.84735119 4290888380
-0.071278825 0.16160874 0.84633255 4291283138
-0.069587335 0.16143441 0.84531403 4291612104
-0.067899592 0.16126007 0.84429544 4291941069
-0.066223495 0.16126309 0.84428048 4292270034
-0.064547397 0.16126612 0.84426552 4292599256
-0.062871307 0.16126914 0.84425056 4292994014
-0.06119521 0.16127217 0.8442356 4293257188
-0.059518717 0.16109781 0.84321713 4293586153
-0.057844497 0.16110083 0.84320217 4293915118
-0.056170277 0.16110384 0.84318721 4294244083
-0.054501284 0.16092949 0.84216887 4294441462
-0.052828938 0.1609325 0.84215391 4294638841
-0.051156592 0.16093551 0.84213895 4294836220
-0.049484249 0.16093853 0.84212404 4294836220
-0.047811903 0.16094154 0.84210908 4294901502
-0.046139557 0.16094457 0.84209412 4294901502
-0.044450738 0.16112499 0.84308249 4294901502
-0.042758167 0.16130543 0.84407085 4294901502
-0.041061848 0.16148587 0.84505916 4294901502
-0.03933968 0.16184373 0.84705067 4294901502
-0.037586037 0.16237904 0.85004538 4294901502
-0.035872847 0.16255952 0.85103357 4294901502
-0.034128182 0.16291744 0.8530249 4294901502
-0.032376014 0.16327535 0.85501617 4294901502
-0.030679297 0.16327842 0.85500097 4294901502
-0.028882533 0.1638138 0.85799533 4294901502
-0.027039299 0.16452666 0.86199272 4294901502
-0.025181066 0.16523953 0.86598992 4294901502
-0.023346806 0.16577499 0.86898392 4294835710
-0.021419603 0.16666538 0.87398398 4290756284
-0.083546825 0.16667233 0.86553937 4287992717
-0.081657939 0.16542093 0.85849804 4287598217
-0.079886898 0.16488637 0.85547173 4288716698
-0.078148134 0.16453099 0.85344923 4288782491
-0.076436013 0.16435482 0.8524304 4285887599
-0.074693091 0.16382019 0.84940434 4287861645
-0.072976828 0.16346478 0.84738201 4290954173
-0.071281582 0.16328858 0.84636343 4291217346
-0.069590084 0.16311237 0.84534478 4291546568
-0.067902341 0.16293617 0.8443262 4291743947
-0.066218346 0.16275994 0.84330767 4292138705
-0.064544126 0.16276295 0.84329271 4292467670
-0.062869906 0.16276598 0.84327775 4292862428
-0.061195683 0.162769 0.84326279 4293257186
-0.059521463 0.16277201 0.84324783 4293586152
-0.057848718 0.16259578 0.84222943 4293915117
-0.056176372 0.1625988 0.84221447 4294309876
-0.054509249 0.16242255 0.84119606 4294573048
-0.05283878 0.16242556 0.84118116 4294704634
-0.051168308 0.16242857 0.84116626 4294836220
-0.049486991 0.16261086 0.84215468 4294836220
-0.047814645 0.16261388 0.84213978 4294901502
-0.046142299 0.16261689 0.84212482 4294901502
-0.044453483 0.16279919 0.84311324 4294901502
-0.042779263 0.16280222 0.84309828 4294901502
-0.041084822 0.16298454 0.84408665 4294901502
-0.039342437 0.16352545 0.84708154 4294901502
-0.037612777 0.16388708 0.84907305 4294901502
-0.035901461 0.16406943 0.8500613 4294901502
-0.034158677 0.16443108 0.85205269 4294901502
-0.032408394 0.16479275 0.85404408 4294901502
-0.030682079 0.16497512 0.85503215 4294901502
-0.028885325 0.16551614 0.85802656 4294901502
-0.027042104 0.16623649 0.86202407 4294901502
-0.025220977 0.16677754 0.86501825 4294901502
-0.023388602 0.16731861 0.86801237 4294901502
-0.021463288 0.16821837 0.87301266 4288585116
-0.083549641 0.16838779 0.86557084 4288387475
-0.081660733 0.16712327 0.85852927 4288782491
-0.079889677 0.16658308 0.85550284 4289045919
-0.078150906 0.16622394 0.85348028 4287796109
-0.076438785 0.1660459 0.85246146 4284243287
-0.074695855 0.16550566 0.84943527 4289046177
-0.072979584 0.16514648 0.84741288 4290625209
-0.071284331 0.16496842 0.84639424 4291217346
-0.069592834 0.16479033 0.8453756 4291546311
-0.067905091 0.16461225 0.84435695 4291809483
-0.066221088 0.16443415 0.84333837 4292138193
-0.064546868 0.16443717 0.84332341 4292467159
-0.062872648 0.1644402 0.84330845 4292993503
-0.061196148 0.16426209 0.84228998 4293191139
-0.059523802 0.1642651 0.84227502 4293651946
-0.05785146 0.16426812 0.84226006 4293915118
-0.056179114 0.16427113 0.84224516 4294244083
-0.054506768 0.16427416 0.8422302 4294507255
-0.052834425 0.16427717 0.84221524 4294638841
-0.051162079 0.16428019 0.84220034 4294770427
-0.049478889 0.16446435 0.84318882 4294901501
-0.047804669 0.16446738 0.84317386 4294901502
-0.046130449 0.16447039 0.8431589 4294901502
-0.044439759 0.16465457 0.84414732 4294901502
-0.042763665 0.16465759 0.84413236 4294901502
-0.041067351 0.16484179 0.84512073 4294901502
-0.039345197 0.16520716 0.84711242 4294901502
-0.037615541 0.16557254 0.84910399 4294901502
-0.035904229 0.16575676 0.85009223 4294901502
-0.034161448 0.16612217 0.85208374 4294901502
-0.032411173 0.16648759 0.85407513 4294901502
-0.030684862 0.16667183 0.85506326 4294901502
-0.028854774 0.16739966 0.859061 4294901502
-0.02700969 0.16812751 0.86305863 4294901502
-0.025149606 0.1688554 0.86705613 4294901502
-0.023352457 0.16922089 0.86904716 4294901502
-0.021425284 0.17013003 0.87404758 4286545532
-0.08355245 0.17010325 0.86560231 4288322195
-0.081663527 0.16882561 0.8585605 4288716698
-0.079892464 0.16827978 0.85553396 4289046176
-0.078153685 0.16791691 0.85351133 4289177762
-0.076422401 0.16755402 0.85148871 4288191123
-0.07469862 0.16719112 0.8494662 4289770413
-0.072982341 0.1668282 0.84744376 4290822845
-0.071287088 0.16664825 0.84642506 4290954431
-0.069607243 0.16665128 0.84641004 4289638571
-0.06790784 0.16628833 0.84438771 4289704364
-0.066223837 0.16610837 0.84336913 4291809484
-0.064543582 0.16592839 0.84235054 4292532952
-0.06287124 0.1659314 0.84233558 4292927710
-0.06119889 0.16593443 0.84232062 4293191139
-0.059526548 0.16593744 0.84230572 4293586153
-0.057854202 0.16594045 0.84229076 4293915118
-0.056181855 0.16594347 0.8422758 4294178290
-0.054504294 0.1661295 0.8432644 4294441462
-0.052830074 0.16613252 0.84324944 4294638841
-0.051164821 0.16595252 0.84223104 4294836220
-0.049481634 0.16613856 0.84321952 4294901501
-0.047807414 0.16614158 0.84320456 4294901502
-0.046118602 0.16632764 0.84419304 4294901502
-0.044426043 0.1665137 0.84518147 4294901502
-0.042748075 0.16651672 0.8451665 4294901502
-0.041029673 0.16688584 0.84715825 4294901502
-0.039325863 0.16707191 0.84814662 4294901502
-0.037618306 0.16725799 0.84913492 4294901502
-0.035906997 0.1674441 0.85012317 4294901502
-0.034164224 0.16781326 0.85211474 4294901502
-0.032384362 0.16836548 0.85510951 4294901502
-0.030656179 0.16855161 0.85609764 4294901502
-0.028790891 0.16947 0.86109883 4294901502
-0.026942069 0.17020535 0.86509657 4294901502
-0.025078248 0.17094074 0.86909413 4294901502
-0.02331632 0.17112693 0.87008196 4294572024
-0.083555266 0.1718187 0.86563379 4288387988
-0.081691101 0.17071278 0.85959554 4288585625
-0.079895243 0.16997649 0.85556513 4289046176
-0.078135423 0.16942503 0.85253859 4289572776
-0.076425172 0.16924323 0.8515197 4289638826
-0.074684098 0.16869172 0.84849334 4290164914
-0.073000506 0.16869476 0.84847832 4290822845
-0.071303375 0.16851294 0.84745955 4290296501
-0.06961 0.16833112 0.84644085 4285033061
-0.067920372 0.16814928 0.84542215 4285362026
-0.066234492 0.16796744 0.84440351 4291151554
-0.064546324 0.16760072 0.84238124 4292401365
-0.062873982 0.16760375 0.84236628 4292927710
-0.061199348 0.16742188 0.84134769 4293191138
-0.05952888 0.1674249 0.84133279 4293520360
-0.057858407 0.16742791 0.84131789 4293980911
-0.056184597 0.16761582 0.84230649 4294244083
-0.054507039 0.16780372 0.8432951 4294507255
-0.05283282 0.16780673 0.84328014 4294638841
-0.0511586 0.16780975 0.84326518 4294836220
-0.04948438 0.16781278 0.84325022 4294901501
-0.04781016 0.16781579 0.84323531 4294901502
-0.046121351 0.16800372 0.8442238 4294901502
-0.044428796 0.16819166 0.84521228 4294901502
-0.042732488 0.1683796 0.8462007 4294901502
-0.04103243 0.16856755 0.84718913 4294901502
-0.039306536 0.16894042 0.84918088 4294901502
-0.037597109 0.16912839 0.85016924 4294901502
-0.035909764 0.16913143 0.85015416 4294901502
-0.034166995 0.16950433 0.85214579 4294901502
-0.032357559 0.17024712 0.85614401 4294901502
-0.030596042 0.17062007 0.85813546 4294901502
-0.028760357 0.17136291 0.86213344 4294901502
-0.026909672 0.17210576 0.86613131 4294966782
-0.025043989 0.17284866 0.87012899 4294966782
-0.023202267 0.17340662 0.87312335 4294966782
-0.083531417 0.17334746 0.8646614 4288059281
-0.081718683 0.1726037 0.86063063 4288519832
-0.07992094 0.17185992 0.85660005 4288914590
-0.078159235 0.17130283 0.85357344 4289441190
-0.076427944 0.17093244 0.8515507 4289967791
-0.074704148 0.17056204 0.84952801 4290428343
-0.07300327 0.17037834 0.84850919 4290691259
-0.071319677 0.17038138 0.84849417 4288059539
-0.069624417 0.17019768 0.84747541 4283717201
-0.067932911 0.17001398 0.84645665 4288388504
-0.066245154 0.16983028 0.84543794 4291743947
-0.064555109 0.1694598 0.84341556 4292401621
-0.062880889 0.16946283 0.8434006 4292927710
-0.061202087 0.16909234 0.84137833 4293190882
-0.059531618 0.16909535 0.84136343 4293519847
-0.057859685 0.16928513 0.84235215 4293914861
-0.056187343 0.16928814 0.84233719 4294309876
-0.054509785 0.16947792 0.84332585 4294441462
-0.052835565 0.16948095 0.84331089 4294638841
-0.051161345 0.16948397 0.84329593 4294836220
-0.049487125 0.16948698 0.84328097 4294901501
-0.047800194 0.16967678 0.84426951 4294901502
-0.046124101 0.16967981 0.84425455 4294901502
-0.044415087 0.1700564 0.84624654 4294901502
-0.042735241 0.17005943 0.84623152 4294901502
-0.041014981 0.17043605 0.84822345 4294901502
-0.039287217 0.17081268 0.85021526 4294901502
-0.037599873 0.17081572 0.85020018 4294901502
-0.035886697 0.17100556 0.85118848 4294901502
-0.034114353 0.17156903 0.85418355 4294901502
-0.032330759 0.17213252 0.85717851 4294901502
-0.030567376 0.17250921 0.85917002 4294901502
-0.028729828 0.17325956 0.86316812 4294901502
-0.02687728 0.17400992 0.8671661 4294243574
-0.024972651 0.17494713 0.87216723 4294966527
-0.023088232 0.17569755 0.87616497 4294703355
-0.081746265 0.17449836 0.86166584 4288519832
-0.079946637 0.17374709 0.85763508 4289046176
-0.078183055 0.17318438 0.85460836 4289506727
-0.076449879 0.17281024 0.85258555 4289967278
-0.074724205 0.1724361 0.85056275 4290427829
-0.073006026 0.17206194 0.84854007 4290625466
-0.071308896 0.17187637 0.84752125 4289770157
-0.069627173 0.1718794 0.84750623 4289046434
-0.067935668 0.17169382 0.84648746 4290954431
-0.066255823 0.17169686 0.84647244 4292006864
-0.064563893 0.17132264 0.84445 4292467415
-0.06288363 0.17113703 0.84343135 4292796125
-0.061207119 0.17095143 0.84241271 4293125089
-0.059534356 0.17076582 0.84139407 4293717226
-0.057862427 0.17095746 0.84238279 4294046191
-0.056190085 0.17096049 0.84236789 4294112241
-0.054517739 0.1709635 0.84235293 4294441462
-0.052845392 0.17096652 0.84233797 4294704634
-0.05117305 0.17096953 0.84232306 4294836220
-0.049489871 0.1711612 0.84331167 4294901501
-0.047815651 0.17116421 0.84329671 4294901502
-0.04612685 0.1713559 0.84428531 4294901502
-0.044434298 0.17154758 0.84527385 4294901502
-0.042737998 0.17173927 0.84626234 4294901502
-0.041017741 0.17211963 0.84825432 4294901502
-0.039289985 0.17250001 0.85024619 4294901502
-0.037578687 0.17269173 0.85123456 4294901502
-0.035863638 0.17288345 0.85222292 4294901502
-0.034089427 0.17345254 0.85521805 4294901502
-0.03230397 0.17402166 0.85821313 4294901502
-0.030570172 0.17421342 0.85920131 4294901502
-0.028732635 0.17497125 0.86319953 4294769916
-0.0268801 0.17572913 0.86719763 4291808720
-0.024938406 0.17686442 0.87320232 4294966527
-0.023052124 0.17762233 0.87720013 4292202965
-0.081773862 0.17639679 0.86270112 4288453782
-0.079972349 0.17563802 0.85867018 4288848797
-0.078206874 0.17506969 0.85564333 4289375141
-0.07647182 0.1746918 0.85362041 4290098865
-0.074744262 0.1743139 0.85159761 4290493880
-0.073024206 0.17393599 0.8495748 4290625466
-0.071311653 0.17355807 0.84755212 4291020224
-0.06962993 0.17356111 0.8475371 4291414982
-0.067938417 0.17337365 0.84651828 4291678154
-0.066258572 0.17337668 0.84650326 4292007119
-0.064572684 0.17318922 0.8454845 4291875533
-0.062890545 0.17300175 0.84446579 4290822845
-0.061212156 0.17281426 0.84344709 4293059552
-0.059537515 0.17262679 0.84242845 4293651433
-0.057865173 0.1726298 0.84241349 4294046191
-0.056192826 0.17263281 0.84239852 4294178034
-0.05452048 0.17263584 0.84238362 4294375669
-0.052848134 0.17263885 0.84236866 4294704634
-0.051175792 0.17264187 0.8423537 4294836220
-0.049492616 0.17283541 0.84334236 4294836221
-0.047818396 0.17283843 0.8433274 4294836222
-0.046129599 0.17303199 0.84431607 4294901502
-0.044437051 0.17322554 0.84530461 4294901502
-0.042740751 0.1734191 0.84629315 4294901502
-0.041020501 0.17380323 0.8482852 4294901502
-0.039292753 0.17418735 0.85027719 4294901502
-0.037581455 0.17438094 0.85126555 4294901502
-0.035840582 0.1747651 0.85325742 4294901502
-0.034064509 0.17533982 0.85625267 4294901502
-0.032277182 0.17591456 0.8592478 4294901502
-0.030541513 0.1761082 0.86023599 4294835709
-0.028702116 0.17687353 0.86423433 4294769916
-0.026847718 0.1776389 0.86823261 4291940306
-0.024904169 0.17878544 0.87423742 4294966527
-0.023054974 0.17936029 0.87723202 4289242280
-0.081776664 0.17810662 0.86273247 4288519319
-0.079998061 0.17753269 0.85970539 4288848284
-0.078230701 0.17695874 0.85667837 4289572264
-0.07649377 0.17657711 0.85465539 4290164658
-0.074747033 0.17600311 0.8516286 4290493623
-0.073011555 0.17542911 0.84860188 4290757052
-0.071314409 0.17523979 0.847583 4291020224
-0.069632694 0.17524283 0.84756792 4291349189
-0.067941174 0.17505349 0.84654909 4291612361
-0.066261329 0.17505652 0.84653407 4291349189
-0.064575434 0.17486718 0.84551531 4289704364
-0.062897466 0.17487021 0.84550029 4288454297
-0.0612172 0.17468086 0.84448153 4290756797
-0.059541106 0.17468388 0.84446657 4292730587
-0.057866462 0.17449452 0.84344786 4293848812
-0.056192242 0.17449754 0.8434329 4294177777
-0.054518022 0.17450057 0.84341794 4294441205
-0.052843802 0.17450358 0.84340304 4294638841
-0.051169582 0.1745066 0.84338808 4294836221
-0.049495362 0.17450963 0.84337312 4294836222
-0.047808442 0.17470504 0.84436178 4294836222
-0.046117771 0.17490047 0.84535038 4294836222
-0.044423353 0.17509592 0.84633899 4294901502
-0.042743508 0.17509894 0.84632397 4294901502
-0.041043464 0.17529438 0.84731251 4294901502
-0.039317593 0.17568226 0.84930456 4294901502
-0.037584227 0.17607015 0.85129654 4294901502
-0.035843357 0.17645805 0.85328847 4294901502
-0.034067292 0.1770384 0.85628384 4294901502
-0.032250404 0.17781119 0.86028254 4294901502
-0.030512864 0.17800671 0.86127073 4294901502
-0.028671602 0.17877956 0.86526924 4294901502
-0.026815342 0.17955242 0.86926758 4294177524
-0.02490701 0.18051776 0.87426919 4294966527
-0.023057826 0.18109824 0.8772639 4286149752
-0.081779473 0.17981645 0.86276382 4288584853
-0.080000855 0.1792369 0.85973662 4288979613
-0.078233488 0.17865732 0.85670954 4289374628
-0.076496549 0.17827195 0.8546865 4290098351
-0.074732505 0.1774981 0.85065562 4290493623
-0.072998889 0.17691846 0.84762883 4290822588
-0.071303621 0.17672727 0.84660995 4291151553
-0.069623776 0.17673029 0.84659493 4291480775
-0.067943931 0.17673333 0.84657991 4291743947
-0.066256158 0.17654212 0.84556109 4291678154
-0.06457819 0.17654514 0.84554607 4290954432
-0.062900223 0.17654817 0.84553111 4289638572
-0.061219949 0.17635694 0.84451228 4288256920
-0.059543427 0.17616571 0.84349358 4290691004
-0.057869207 0.17616874 0.84347862 4293783019
-0.056194987 0.17617175 0.84346366 4294243570
-0.054520767 0.17617477 0.8434487 4294440949
-0.052853622 0.17598353 0.84243 4294704122
-0.051172327 0.17618081 0.84341878 4294901502
-0.049498107 0.17618383 0.84340382 4294836222
-0.047811192 0.17638113 0.84439254 4294836222
-0.046120524 0.17657843 0.8453812 4294901502
-0.044442553 0.17658146 0.84536618 4294901502
-0.042764585 0.1765845 0.84535122 4294901502
-0.041046221 0.1769761 0.84734339 4294901502
-0.039342429 0.17717344 0.84833193 4294901502
-0.037610941 0.17756507 0.85032398 4294901502
-0.035871956 0.17795672 0.85231602 4294901502
-0.034097776 0.17854267 0.85531145 4294901502
-0.032312345 0.17912866 0.85830683 4294901502
-0.03054711 0.17952035 0.86029857 4294901502
-0.028707735 0.1803007 0.86429721 4294901502
-0.026853362 0.18108106 0.86829573 4294967039
-0.024946921 0.18205577 0.87329751 4294966271
-0.02309962 0.18264188 0.87629235 4282728516
-0.081807077 0.18172237 0.86379921 4288583571
-0.080003649 0.1809411 0.85976791 4288979613
-0.078236274 0.18035591 0.85674071 4289440935
-0.076499328 0.17996678 0.85471755 4289967022
-0.074735276 0.17918544 0.85068661 4290558903
-0.073017076 0.17879628 0.84866363 4290888381
-0.07130637 0.1784071 0.84664077 4291151553
-0.069626525 0.17841013 0.84662575 4291414982
-0.067946687 0.17841317 0.84661072 4291678154
-0.066266842 0.17841619 0.8465957 4291875534
-0.064586997 0.17841922 0.84658074 4290888640
-0.062907152 0.17842226 0.84656572 4288980643
-0.061225001 0.17822915 0.8455469 4289638573
-0.059546601 0.17803605 0.84452808 4292401879
-0.057870507 0.17803907 0.84451312 4293783276
-0.056194413 0.1780421 0.84449816 4294243570
-0.054523513 0.17784898 0.84347939 4294375156
-0.052849293 0.177852 0.84346443 4294704122
-0.051175073 0.17785503 0.84344947 4294901502
-0.049500853 0.17785804 0.84343451 4294901502
-0.047813937 0.17805722 0.84442323 4294901502
-0.046123274 0.17825639 0.84541196 4294901502
-0.044428863 0.17845559 0.84640062 4294901502
-0.042749017 0.17845862 0.8463856 4294901502
-0.041048978 0.17865781 0.84737426 4294901502
-0.03934519 0.17885701 0.8483628 4294901502
-0.037613709 0.1792524 0.85035497 4294901502
-0.035900548 0.17945161 0.85134345 4294901502
-0.034128249 0.18004321 0.854339 4294901502
-0.032344703 0.18063481 0.85733449 4294901502
-0.03058135 0.18103026 0.85932636 4294901245
-0.028710546 0.18201427 0.86432868 4294901245
-0.026820993 0.18299834 0.86933076 4294901247
-0.024875624 0.18417862 0.87533623 4294966783
-0.081785075 0.18323612 0.86282659 4288714388
-0.080006443 0.18264532 0.85979915 4289110429
-0.078239061 0.18205449 0.85677183 4289440422
-0.076502107 0.18166161 0.85474867 4289967023
-0.074738041 0.18087277 0.85071754 4290493623
-0.073035263 0.18067785 0.84969848 4290756795
-0.071322687 0.18028492 0.8476755 4291151553
-0.069640964 0.18028796 0.84766048 4291414725
-0.067959242 0.18029098 0.84764546 4291612362
-0.066269591 0.18009603 0.84662652 4291941328
-0.064589746 0.18009906 0.84661156 4292072914
-0.062909909 0.1801021 0.84659654 4291612363
-0.061227754 0.17990711 0.84557766 4292467672
-0.05954935 0.17971215 0.84455884 4293322981
-0.057873257 0.17971517 0.84454387 4293849325
-0.056197163 0.17971818 0.84452885 4294178033
-0.054521065 0.17972121 0.84451389 4294506743
-0.052852038 0.17952622 0.84349513 4294704123
-0.051177818 0.17952923 0.84348017 4294901502
-0.049503598 0.17953226 0.84346527 4294836222
-0.047816686 0.17973331 0.84445399 4294901502
-0.046126027 0.17993435 0.84544271 4294901502
-0.044448055 0.17993739 0.84542775 4294901502
-0.04275177 0.18013845 0.84641641 4294901502
-0.041051738 0.18033952 0.84740508 4294901502
-0.039325885 0.18073864 0.84939736 4294901502
-0.037616476 0.18093973 0.8503859 4294901502
-0.035903316 0.18114083 0.85137445 4294966782
-0.034158718 0.18153998 0.85336655 4294966782
-0.032377057 0.18213722 0.8563621 4294901502
-0.030615585 0.18253639 0.85835403 4294966782
-0.02874667 0.18352979 0.86335653 4294966782
-0.026788628 0.18491936 0.87036592 4294901503
-0.024841404 0.1861109 0.87637156 4294834428
-0.081787884 0.18494596 0.86285794 4286609525
-0.079986304 0.18414968 0.85882634 4288584085
-0.078241847 0.18375307 0.856803 4287005310
-0.076504886 0.18335645 0.85477978 4288387220
-0.074758112 0.18275996 0.85175252 4289309349
-0.073053464 0.18256316 0.85073346 4290625210
-0.071352556 0.18236634 0.84971434 4291151299
-0.069655403 0.18216953 0.84869534 4291480264
-0.067971811 0.18217257 0.84868026 4291743436
-0.066280283 0.18197574 0.84766132 4292072658
-0.064592503 0.18177889 0.84664237 4292401879
-0.062912658 0.18178193 0.84662735 4292730844
-0.061230507 0.18158507 0.84560841 4293125602
-0.0595521 0.18138823 0.84458959 4293520360
-0.057876006 0.18139125 0.84457463 4293849325
-0.056199912 0.18139428 0.84455961 4294112241
-0.054523814 0.1813973 0.84454465 4294506744
-0.052854784 0.18120043 0.84352589 4294769916
-0.051180564 0.18120345 0.84351093 4294901502
-0.049506344 0.18120646 0.84349597 4294901502
-0.047832124 0.18120949 0.843481 4294901502
-0.046143342 0.18141241 0.84446979 4294901502
-0.044450808 0.18161535 0.84545851 4294901502
-0.042754527 0.18181829 0.84644723 4294901502
-0.041034307 0.18222114 0.84843963 4294901502
-0.039306588 0.18262403 0.85043192 4294901502
-0.037595306 0.182827 0.85142052 4294901502
-0.035880275 0.18302996 0.85240906 4294966782
-0.034161497 0.18323295 0.85339761 4294966782
-0.032409403 0.18363586 0.85538965 4294966782
-0.030649813 0.1840388 0.8573817 4294967039
-0.028749477 0.18524151 0.86338794 4294901502
-0.026791457 0.1866442 0.87039757 4294966526
-0.081815496 0.18685749 0.86389345 4285950825
-0.080012031 0.18605374 0.85986167 4288319630
-0.078265697 0.18565337 0.85783827 4285359715
-0.07652685 0.18525299 0.85581493 4283847759
-0.074795507 0.18485261 0.85379165 4286217078
-0.073071666 0.18445222 0.85176843 4290098866
-0.071382448 0.18445526 0.85175335 4288716958
-0.06968154 0.18425657 0.85073423 4290361783
-0.067984387 0.18405788 0.84971517 4291348678
-0.066290982 0.18385918 0.84869611 4291348678
-0.064601324 0.18366048 0.84767711 4292401366
-0.062919602 0.1836635 0.84766209 4292927710
-0.061235569 0.1834648 0.84664315 4293191138
-0.059555288 0.18326607 0.84562421 4293454566
-0.057877317 0.1832691 0.84560925 4293783532
-0.056199349 0.18327212 0.84559423 4294177777
-0.054521378 0.18327515 0.84557927 4294506743
-0.05285047 0.18307641 0.84456044 4294769916
-0.051174376 0.18307944 0.84454542 4294901502
-0.049498279 0.18308246 0.84453046 4294901502
-0.047822185 0.18308547 0.8445155 4294901502
-0.046131529 0.18329029 0.84550428 4294901502
-0.044437125 0.18349509 0.84649307 4294901502
-0.04273897 0.18369991 0.84748179 4294901502
-0.041016884 0.18410653 0.84947425 4294901502
-0.039287295 0.18451315 0.8514666 4294901502
-0.037574142 0.184718 0.8524552 4294901502
-0.035857242 0.18492284 0.85344374 4294901502
-0.03413659 0.18512771 0.85443228 4294966782
-0.03235307 0.18573619 0.85742807 4294966782
-0.030621167 0.18594107 0.8584165 4294901502
-0.028718976 0.18715502 0.86442298 4294966782
-0.026723919 0.18877266 0.8724364 4294965242
-0.081818305 0.1885692 0.8639248 4286806904
-0.080037765 0.18796153 0.86089712 4288123021
-0.078268483 0.18735383 0.85786945 4285491815
-0.076548822 0.18715331 0.85685015 4283979090
-0.074798286 0.18654558 0.85382271 4285690477
-0.073089875 0.18634503 0.85280347 4287664268
-0.07138522 0.18614447 0.85178435 4286216824
-0.069696002 0.18614753 0.85176921 4286874754
-0.067996964 0.18594696 0.85075009 4287532684
-0.066293739 0.18554276 0.84872699 4289506474
-0.064604081 0.18534219 0.84770799 4292335573
-0.062922359 0.18534522 0.84769297 4292796124
-0.061238326 0.18514463 0.84667397 4293191138
-0.059558481 0.18514766 0.84665895 4293520360
-0.057878636 0.18515068 0.84664392 4293849325
-0.056202099 0.18495008 0.84562504 4294178291
-0.054524131 0.18495311 0.84561002 4294375671
-0.05284616 0.18495613 0.84559506 4294638843
-0.051177122 0.18475552 0.84457618 4294836222
-0.049501028 0.18475854 0.84456122 4294836222
-0.047824934 0.18476157 0.84454626 4294901502
-0.046134282 0.18496825 0.8455351 4294901502
-0.044439878 0.18517493 0.84652388 4294901502
-0.042741731 0.18538162 0.84751266 4294901502
-0.041019648 0.18579198 0.84950519 4294901502
-0.039290067 0.18620236 0.85149759 4294901502
-0.037552986 0.18661276 0.85348994 4294901502
-0.035834212 0.18681949 0.85447854 4294901502
-0.034084007 0.1872299 0.85647076 4294901502
-0.032296747 0.18784401 0.85946661 4294901502
-0.030529669 0.18825446 0.86145872 4294901502
-0.028655175 0.18927599 0.86646169 4294901246
-0.026726754 0.19050124 0.87246811 4294965755
-0.081845924 0.19048637 0.86496043 4288255120
-0.080040567 0.18966761 0.86092842 4288321170
-0.07827127 0.1890543 0.85790068 4286281587
-0.076551609 0.18885189 0.85688132 4284637020
-0.074801065 0.18823853 0.85385376 4287006338
-0.073092654 0.18803611 0.85283452 4288848798
-0.071387991 0.18783368 0.85181534 4287532683
-0.069698773 0.18783672 0.8518002 4287795856
-0.067999735 0.18763429 0.85078108 4287532684
-0.066296503 0.18722636 0.84875792 4289440682
-0.064606838 0.18702389 0.8477388 4292598747
-0.062925115 0.18702693 0.84772378 4292796126
-0.061241079 0.18682447 0.84670478 4293059554
-0.059561234 0.1868275 0.84668976 4293454567
-0.057881389 0.18683052 0.8466748 4293849325
-0.056201547 0.18683356 0.84665978 4294178290
-0.054521702 0.18683659 0.84664476 4294375670
-0.052841857 0.18683961 0.84662974 4294836222
-0.051170941 0.18663712 0.84561086 4294836222
-0.049492974 0.18664016 0.84559584 4294836222
-0.047802325 0.1868487 0.84658474 4294901502
-0.04612248 0.18685174 0.84656972 4294901502
-0.044426206 0.1870603 0.84755856 4294901502
-0.042744488 0.18706334 0.84754354 4294901502
-0.041022412 0.18747744 0.84953606 4294901502
-0.039292835 0.18789157 0.85152858 4294901502
-0.037531834 0.18851127 0.85452479 4294901502
-0.035811186 0.18871987 0.85551339 4294901502
-0.034031436 0.18933959 0.85850942 4294901502
-0.032240435 0.18995933 0.86150533 4294901502
-0.030375334 0.19099022 0.86650854 4294901502
-0.028591387 0.19140445 0.86850053 4294966781
-0.081848741 0.19219996 0.86499184 4288650391
-0.080043361 0.19137369 0.86095971 4288913820
-0.078274056 0.19075476 0.85793185 4288979870
-0.076535203 0.19034313 0.85590827 4289374886
-0.074803837 0.1899315 0.85388482 4289375142
-0.073079981 0.18951984 0.85186142 4289309349
-0.071377188 0.18931554 0.85084218 4286875008
-0.06968984 0.18931858 0.8508271 4287598732
-0.06799268 0.18911426 0.84980792 4288585885
-0.06629926 0.18890993 0.8487888 4288980643
-0.064609595 0.18870561 0.84776968 4292467672
-0.062927879 0.18870865 0.84775466 4292730846
-0.061243836 0.18850429 0.8467356 4293125603
-0.059564438 0.18871471 0.84772462 4293454567
-0.057882719 0.18871774 0.8477096 4293783532
-0.056201 0.18872078 0.84769458 4294112497
-0.054519281 0.1887238 0.84767956 4294638841
-0.052837562 0.18872684 0.84766454 4294770428
-0.051164769 0.18852249 0.84664553 4294836222
-0.04947412 0.18873291 0.84763443 4294836221
-0.047792401 0.18873595 0.84761941 4294901501
-0.046110682 0.18873897 0.84760439 4294901502
-0.044412538 0.18894942 0.84859324 4294901502
-0.042710643 0.18915987 0.84958208 4294901502
-0.041005 0.18937032 0.8505708 4294901502
-0.039273556 0.18978821 0.85256338 4294901502
-0.037534613 0.1902061 0.85455585 4294901502
-0.035788171 0.19062401 0.85654825 4294836222
-0.034006555 0.19124936 0.8595444 4294836222
-0.032184139 0.19208217 0.86354417 4294836222
-0.0303153 0.19312243 0.8685475 4294835966
-0.028527612 0.19354041 0.87053955 4294901502
-0.081826724 0.19370432 0.86401904 4288453526
-0.080023214 0.19287057 0.85998672 4288716954
-0.078255773 0.19224599 0.85695881 4289111970
-0.076518781 0.19183062 0.85493523 4289901486
-0.074789293 0.19141524 0.85291165 4290230708
-0.0730673 0.19099984 0.85088819 4290493880
-0.071366377 0.19079365 0.84986895 4290559673
-0.069669209 0.19058745 0.84884977 4290559673
-0.067975789 0.19038126 0.84783059 4290757053
-0.066294074 0.19038428 0.84781557 4291086019
-0.064606279 0.19017808 0.84679645 4292467672
-0.062926434 0.19018111 0.84678143 4292796638
-0.061246589 0.19018413 0.84676641 4293191396
-0.059566744 0.19018717 0.84675139 4293520360
-0.057885475 0.19039945 0.84774041 4293849325
-0.056207057 0.19019322 0.84672141 4294178290
-0.054522038 0.19040552 0.84771037 4294704634
-0.052847367 0.19019929 0.84669137 4294836221
-0.051167522 0.19020231 0.84667635 4294836222
-0.049487676 0.19020535 0.84666139 4294836221
-0.047807835 0.19020838 0.84664637 4294901500
-0.046113443 0.19042069 0.84763527 4294901501
-0.044415299 0.190633 0.84862411 4294901502
-0.042713407 0.19084533 0.84961295 4294901502
-0.041007768 0.19105765 0.85060179 4294901502
-0.039298374 0.19126999 0.85159057 4294901502
-0.037561312 0.19169164 0.8535831 4294901502
-0.035816751 0.1921133 0.85557562 4294901502
-0.034009349 0.19295357 0.85957563 4294901502
-0.032157399 0.19400318 0.86457932 4294966782
-0.030318122 0.19484352 0.86857909 4294901246
-0.028530439 0.19526525 0.8705712 4294835709
-0.081854358 0.19562712 0.86505473 4288322198
-0.080026008 0.19457477 0.86001801 4288717212
-0.078258559 0.19394457 0.85698998 4289243813
-0.076540761 0.19373655 0.85597056 4289901743
-0.074792065 0.19310631 0.85294271 4290296501
-0.073070064 0.19268717 0.85091913 4290757052
-0.071355566 0.192268 0.84889567 4291151810
-0.069671974 0.19227104 0.84888065 4291349189
-0.067978553 0.19206296 0.84786141 4291678155
-0.066296831 0.192066 0.84784639 4291941328
-0.064615108 0.19206902 0.84783137 4292401879
-0.062933393 0.19207206 0.84781635 4292730844
-0.061249346 0.19186397 0.84679723 4293191395
-0.0595695 0.19186701 0.84678221 4293520360
-0.057888236 0.19208117 0.84777129 4293849325
-0.05620981 0.19187306 0.84675223 4294244083
-0.054524794 0.19208723 0.84774125 4294638843
-0.052843075 0.19209026 0.84772623 4294836222
-0.051170278 0.19188215 0.84670717 4294836222
-0.049479637 0.19209634 0.84769619 4294836222
-0.047797918 0.19209936 0.84768116 4294901502
-0.046101656 0.19231355 0.84867007 4294901502
-0.044401642 0.19252774 0.84965897 4294901502
-0.042697877 0.19274195 0.85064781 4294901502
-0.041010533 0.192745 0.85063273 4294901502
-0.039279103 0.19317037 0.85262543 4294901502
-0.037540171 0.19359577 0.85461807 4294901502
-0.03579374 0.19402118 0.8566106 4294901502
-0.033956807 0.19508013 0.86161458 4294901502
-0.032101121 0.19613913 0.86661839 4294901502
-0.030226691 0.19719815 0.87162203 4294901502
-0.02843339 0.19762364 0.87361419 4294901503
-0.081857167 0.1973407 0.86508614 4288321941
-0.080028802 0.19627899 0.86004925 4288716956
-0.078261346 0.19564316 0.85702115 4289375142
-0.076543547 0.19543326 0.85600168 4290033329
-0.074794836 0.1947974 0.8529737 4290428087
-0.073072836 0.1943745 0.85095012 4290691259
-0.071358331 0.19395159 0.84892654 4291151810
-0.06967473 0.19395462 0.84891152 4291349189
-0.06798131 0.19374467 0.84789228 4291743948
-0.066299587 0.19374771 0.84787726 4292007121
-0.064617872 0.19375074 0.84786224 4292401879
-0.06293615 0.19375378 0.84784722 4292862430
-0.061252099 0.19354381 0.84682804 4293257188
-0.059572253 0.19354683 0.84681302 4293586153
-0.057892408 0.19354987 0.84679806 4293980911
-0.056212567 0.1935529 0.84678304 4294309876
-0.054527555 0.19376895 0.84777206 4294704635
-0.052845836 0.19377197 0.84775704 4294836222
-0.051164113 0.19377501 0.84774202 4294836222
-0.049482394 0.19377804 0.847727 4294836222
-0.047800675 0.19378108 0.84771198 4294901502
-0.046104416 0.19399714 0.84870094 4294901502
-0.044404406 0.19421321 0.8496899 4294901502
-0.042700645 0.19442928 0.85067874 4294901502
-0.040993135 0.19464538 0.85166764 4294901502
-0.039281875 0.19486146 0.85265642 4294901502
-0.03754295 0.1952906 0.85464913 4294901502
-0.035796527 0.19571976 0.85664177 4294901502
-0.033959605 0.19678809 0.86164594 4294901502
-0.032074399 0.19806951 0.86765373 4294901502
-0.030198108 0.19913791 0.87265754 4294901502
-0.028402938 0.19956715 0.8746497 4294901247
-0.081859976 0.19905429 0.86511761 4288518805
-0.080031596 0.19798319 0.86008054 4288782748
-0.078264132 0.19734174 0.85705233 4289440935
-0.076546326 0.19712996 0.85603279 4290033329
-0.074797608 0.19648848 0.85300475 4290493623
-0.0730756 0.19606183 0.85098106 4290757052
-0.071361087 0.19563517 0.84895748 4291020224
-0.069665782 0.19542335 0.84793818 4291414982
-0.067984067 0.19542639 0.84792316 4291809741
-0.066302344 0.19542941 0.84790814 4292007121
-0.064620629 0.19543245 0.84789306 4292336086
-0.062938906 0.19543548 0.84787804 4292796637
-0.061257187 0.19543852 0.84786302 4293191138
-0.05957501 0.19522667 0.84684384 4293586153
-0.057895165 0.19522971 0.84682888 4294046704
-0.05621532 0.19523273 0.84681386 4294244083
-0.054535475 0.19523576 0.84679884 4294507256
-0.052855629 0.1952388 0.84678382 4294836222
-0.051175788 0.19524182 0.8467688 4294836222
-0.049495943 0.19524485 0.84675384 4294836222
-0.047816098 0.19524789 0.84673882 4294901502
-0.046121716 0.19546582 0.84772784 4294901502
-0.04440717 0.19589867 0.84972078 4294901502
-0.042703412 0.19611663 0.85070974 4294901502
-0.040995903 0.19633459 0.85169864 4294901502
-0.03928465 0.19655254 0.85268748 4294901502
-0.037545729 0.19698544 0.85468024 4294901502
-0.035799313 0.19741835 0.85667294 4294901502
-0.03399007 0.19828112 0.86067337 4294901502
-0.032106753 0.19957379 0.8666814 4294901502
-0.030200941 0.20086649 0.87268925 4294967295
-0.081862785 0.20076787 0.86514902 4288847257
-0.080057353 0.19990411 0.86111617 4288913820
-0.078288004 0.19925705 0.85808784 4289572008
-0.076549113 0.19882667 0.85606396 4289967279
-0.074817717 0.1983963 0.85404009 4290362293
-0.073093832 0.19796589 0.85201633 4290560185
-0.071391024 0.19775221 0.85099697 4291151810
-0.069691963 0.19753852 0.84997761 4291480005
-0.067996658 0.19732483 0.84895825 4291809228
-0.066313066 0.19732787 0.84894323 4292138451
-0.064629473 0.19733091 0.84892815 4292336599
-0.06294588 0.19733395 0.84891313 4292599772
-0.061262283 0.19733697 0.84889811 4293191908
-0.059578229 0.19712326 0.84787887 4293520360
-0.057897918 0.19690955 0.84685969 4293849582
-0.056218076 0.19691257 0.84684467 4294178805
-0.054533068 0.19713236 0.84783381 4294573307
-0.052851349 0.1971354 0.84781879 4294705150
-0.05116963 0.19713843 0.84780377 4294770686
-0.049487911 0.19714147 0.84778869 4294836222
-0.047806192 0.19714449 0.84777367 4294901502
-0.046109937 0.19736432 0.84876269 4294901502
-0.044393521 0.1978009 0.85075575 4294901502
-0.042687893 0.19802074 0.85174471 4294967295
-0.040978514 0.19824058 0.85273361 4294835965
-0.039265387 0.19846042 0.85372245 4294835966
-0.0375246 0.19889706 0.85571527 4294901502
-0.035776313 0.19933373 0.85770804 4294901502
-0.033965208 0.200204 0.86170858 4294901502
-0.03210957 0.20129111 0.86671293 4294966782
-0.030203776 0.20259507 0.87272096 4294966782
-0.081865601 0.20248145 0.86518049 4287658620
-0.080060154 0.20161019 0.86114746 4289240732
-0.07829079 0.20095751 0.85811901 4289637029
-0.076571107 0.20074198 0.85709947 4290358699
-0.074837834 0.20030785 0.85507554 4291083192
-0.073112063 0.1998737 0.85305166 4291018425
-0.071393788 0.19943956 0.85102791 4291545284
-0.069694728 0.19922398 0.85000849 4291546054
-0.06798958 0.19878981 0.84798485 4291743691
-0.066299893 0.19857423 0.84696555 4292138450
-0.064620055 0.19857726 0.84695053 4292467416
-0.06294021 0.19858028 0.84693551 4292796894
-0.061262704 0.19880193 0.84792477 4293322468
-0.059580985 0.19880497 0.84790969 4293651176
-0.057899266 0.198808 0.84789467 4294045935
-0.056217548 0.19881104 0.84787965 4294309365
-0.054535829 0.19881408 0.84786463 4294835709
-0.052861139 0.19859846 0.84684545 4294901502
-0.051181298 0.1986015 0.84683049 4294901502
-0.049501453 0.19860452 0.84681547 4294901502
-0.047821607 0.19860756 0.84680045 4294901502
-0.046112698 0.19904789 0.84879363 4294966782
-0.044412695 0.19926959 0.84978265 4294966782
-0.042708945 0.19949129 0.85077161 4294966783
-0.040981289 0.19993167 0.85276461 4294901503
-0.039268162 0.20015338 0.85375351 4294901503
-0.037503477 0.20081244 0.85675043 4294966783
-0.0357791 0.20103419 0.85773921 4294901247
-0.033968009 0.20191197 0.86173993 4294966783
-0.03214192 0.20278977 0.86574048 4294966527
-0.030206611 0.20432366 0.87275267 4294901503
-0.08189325 0.20441549 0.86621636 4284820025
-0.080085918 0.20353673 0.86218321 4286403932
-0.078314669 0.20287843 0.85915464 4285736504
-0.076593108 0.20266104 0.85813504 4286398540
-0.074840613 0.20200269 0.85510665 4288113265
-0.073114835 0.20156479 0.85308272 4289695634
-0.071382962 0.20090641 0.8500545 4291408049
-0.06968578 0.20068896 0.84903508 4291935935
-0.067982495 0.20025103 0.84701133 4292595662
-0.066294685 0.20003358 0.84599203 4292728275
-0.06461671 0.2000366 0.84597701 4293189596
-0.062942959 0.20026012 0.84696633 4293189853
-0.061265461 0.20048365 0.84795558 4293518306
-0.059583742 0.20048669 0.84794056 4293913321
-0.057902023 0.20048971 0.84792554 4294242799
-0.056220304 0.20049275 0.84791052 4294440436
-0.054538585 0.20049578 0.8478955 4294900989
-0.052863896 0.2002783 0.84687626 4294967038
-0.051184051 0.20028134 0.8468613 4294901502
-0.049504206 0.20028436 0.84684628 4294901502
-0.047811709 0.20050792 0.84783542 4294901502
-0.046115458 0.20073149 0.8488245 4294966783
-0.044415459 0.20095505 0.84981358 4294966783
-0.042711712 0.20117863 0.8508026 4294966783
-0.040984061 0.20162275 0.85279566 4294966527
-0.03924891 0.20206688 0.85478866 4294966271
-0.037482359 0.20273158 0.85778564 4294966526
-0.035756111 0.2029552 0.85877442 4294966271
-0.03397081 0.20361993 0.86177123 4294965244
-0.032144733 0.20450523 0.86577195 4294895600
-0.030209446 0.20605224 0.87278438 4293109436
-0.08011169 0.20546703 0.86321908 4286325304
-0.078317463 0.20458075 0.85918587 4286980922
-0.076595902 0.20436148 0.85816622 4287373626
-0.074860744 0.20391986 0.85614216 4287175735
-0.073117606 0.20325588 0.85311371 4287242555
-0.071399324 0.20281422 0.85108984 4287047743
-0.069700256 0.20259491 0.85007036 4287709781
-0.067985252 0.20193087 0.84704214 4288636018
-0.066297434 0.20171154 0.84602278 4289495177
-0.064625561 0.20193693 0.84701216 4290944676
-0.062945716 0.20193996 0.84699714 4292195001
-0.061268222 0.20216537 0.84798646 4293248459
-0.059586499 0.20216839 0.84797144 4293645784
-0.05790478 0.20217143 0.84795642 4294435557
-0.056223061 0.20217445 0.8479414 4294699244
-0.054541342 0.20217749 0.84792632 4294964986
-0.052859623 0.20218053 0.8479113 4294964987
-0.051177904 0.20218356 0.84789628 4294965243
-0.049506962 0.2019642 0.8468771 4294965243
-0.047814466 0.20218962 0.84786624 4294965244
-0.046118218 0.20241506 0.84885538 4294964988
-0.044418223 0.2026405 0.84984446 4294964988
-0.04271448 0.20286596 0.85083354 4294964475
-0.040986836 0.20331383 0.85282665 4294963706
-0.039229665 0.20398414 0.85582381 4294963191
-0.037461247 0.20465446 0.85882086 4293245896
-0.03573313 0.20487995 0.8598097 4292381604
-0.033945963 0.20555031 0.86280662 4291649923
-0.032118019 0.20644312 0.8668074 4291251316
-0.080137461 0.20740108 0.86425495 4283963429
-0.07834135 0.20650731 0.86022162 4285537583
-0.076598689 0.20606194 0.85819745 4286915386
-0.074863523 0.20561658 0.85617328 4287504956
-0.073120385 0.20494696 0.85314476 4287899201
-0.07138849 0.20427732 0.85011631 4288161090
-0.0696913 0.20405613 0.84909683 4288555077
-0.067988008 0.2036107 0.84707296 4288620101
-0.066300184 0.2033895 0.8460536 4288685639
-0.064622216 0.20339252 0.84603858 4288818509
-0.062944248 0.20339555 0.84602362 4288754514
-0.061268628 0.20362282 0.84701294 4289019482
-0.059589259 0.20385011 0.84800225 4289350244
-0.057908937 0.20362888 0.84698296 4289943921
-0.056225821 0.20385617 0.84797221 4290273913
-0.054549251 0.20363495 0.84695292 4290735748
-0.052869406 0.20363797 0.84693789 4291329682
-0.05118956 0.203641 0.84692293 4291724697
-0.049509715 0.20364404 0.84690791 4291724698
-0.04782987 0.20364706 0.84689289 4291920795
-0.046135504 0.20387438 0.84788209 4291656598
-0.044437386 0.20410168 0.84887123 4291523473
-0.042735521 0.20432901 0.84986031 4291390090
-0.040989608 0.20500492 0.85285771 4291849101
-0.039254468 0.20545655 0.85485083 4292044168
-0.037487935 0.2061325 0.85784799 4292502151
-0.035761695 0.20635986 0.85883689 4292632453
-0.033948764 0.20726015 0.86283797 4292895368
-0.032120835 0.20816045 0.86683893 4292369282
-0.08014027 0.20911279 0.86428636 4281343005
-0.078365251 0.20843761 0.86125743 4281996313
-0.076639928 0.2082146 0.86023766 4283306013
-0.074866302 0.20731328 0.85620439 4284946730
-0.073138632 0.20686415 0.85418028 4286324532
-0.071418464 0.206415 0.85215622 4287242811
-0.069729239 0.20641804 0.85214108 4288095810
-0.068020321 0.20596887 0.85011715 4288949065
-0.066318892 0.20551968 0.84809321 4289145932
-0.064637177 0.20552272 0.84807819 4289474897
-0.062955454 0.20552576 0.84806317 4289606228
-0.061273735 0.20552878 0.84804815 4290066009
-0.059592016 0.20553182 0.84803313 4290657119
-0.057910297 0.20553485 0.84801811 4290854241
-0.056228578 0.20553789 0.84800309 4291248486
-0.054546859 0.20554091 0.84798807 4291971954
-0.05286514 0.20554395 0.84797305 4292235384
-0.051174525 0.20577313 0.84896225 4292301690
-0.049490929 0.20577617 0.84894723 4292696961
-0.047807336 0.20577919 0.84893221 4292697218
-0.046109222 0.20600839 0.84992135 4292697219
-0.044390962 0.20646374 0.8519147 4292763525
-0.042701744 0.20646679 0.85189962 4292697989
-0.040972237 0.20692217 0.85389286 4292961161
-0.03921321 0.20760372 0.85689026 4293093260
-0.037466828 0.20805913 0.85888332 4293093517
-0.03571295 0.20851454 0.86087638 4292698758
-0.033868637 0.2096485 0.86588168 4291581560
-0.032064617 0.21033014 0.8688786 4289413985
-0.07843136 0.21082759 0.86430246 4280622362
-0.076681182 0.21037474 0.86227804 4280818458
-0.074903801 0.20946594 0.8582446 4281473819
-0.073156893 0.20878507 0.85521585 4282456094
-0.071448438 0.20856015 0.85419619 4283373089
-0.069743745 0.20833524 0.85317659 4284487205
-0.068042792 0.2081103 0.852157 4285799472
-0.066345595 0.20788535 0.85113746 4286718263
-0.064652145 0.20766041 0.85011792 4287703105
-0.062962443 0.20743546 0.84909844 4288359752
-0.06127885 0.2074385 0.84908342 4289344594
-0.059594773 0.20721352 0.84806395 4290067033
-0.057913054 0.20721656 0.84804893 4290526558
-0.056231335 0.2072196 0.84803391 4290920802
-0.054549616 0.20722263 0.84801888 4291710320
-0.052860878 0.20745368 0.8490082 4291710065
-0.051168393 0.20768473 0.84999746 4291973495
-0.049482923 0.20768777 0.84998238 4292237693
-0.047784813 0.20791884 0.85097164 4292501636
-0.046082951 0.20814991 0.85196084 4292435842
-0.044360951 0.20860901 0.8539542 4292370050
-0.042667981 0.20861207 0.85393906 4292106621
-0.04093473 0.2090712 0.85593235 4291844732
-0.03919398 0.20953035 0.85792559 4291319928
-0.037445731 0.2099895 0.85991877 4289217116
-0.03568998 0.21044868 0.86191183 4288101202
-0.033788528 0.21204811 0.86892557 4286396232
-0.078455277 0.21276914 0.86533844 4280229402
-0.076703221 0.21231253 0.86331397 4280491547
-0.074923947 0.21139623 0.85928041 4280622362
-0.073175155 0.21070977 0.85625148 4280819484
-0.071464829 0.21048297 0.85523182 4281213215
-0.069758251 0.21025617 0.85421211 4281344287
-0.068065278 0.21025923 0.85419703 4281737761
-0.066364326 0.21003242 0.85317737 4282392610
-0.064661019 0.20957574 0.85115331 4283113509
-0.062973671 0.20957878 0.85113823 4283637030
-0.061283968 0.20935196 0.85011876 4284423722
-0.059598502 0.209355 0.85010368 4285079085
-0.057914421 0.20912816 0.8490842 4285603376
-0.056230828 0.20913118 0.84906918 4286654781
-0.054542094 0.20936412 0.8500585 4287180355
-0.052849609 0.20959704 0.85104781 4287114821
-0.051153377 0.20982997 0.85203707 4287377994
-0.049453396 0.21006292 0.85302633 4287641936
-0.047749661 0.21029587 0.85401553 4287707217
-0.046042182 0.21052882 0.85500467 4287708500
-0.04431456 0.2109917 0.85699809 4287314512
-0.042615965 0.21099477 0.85698289 4287381587
-0.040897235 0.21122774 0.85797197 4286857809
-0.039174754 0.21146072 0.85896099 4286268495
-0.037424635 0.21192363 0.86095423 4284893002
-0.035667017 0.21238656 0.86294734 4284238408
-0.078436978 0.214251 0.86436528 4280426782
-0.076686785 0.21379066 0.86234069 4280229402
-0.074926734 0.21309857 0.85931164 4280426524
-0.073193423 0.2126382 0.85728723 4280557597
-0.071494825 0.21264125 0.85727203 4280755488
-0.0697845 0.2124126 0.85625231 4280821281
-0.068077922 0.21218392 0.8552326 4280952611
-0.066375092 0.21195523 0.85421294 4281083939
-0.064682119 0.21195829 0.8541978 4281412133
-0.062989153 0.21196134 0.85418266 4281543206
-0.06129146 0.2115009 0.85215861 4281937193
-0.059602242 0.21150395 0.85214353 4282199593
-0.057913024 0.21150699 0.85212845 4282594351
-0.056223802 0.21151005 0.85211331 4283054646
-0.054534584 0.21151309 0.85209823 4283252025
-0.052831344 0.21197967 0.85409194 4283252283
-0.051120602 0.21244626 0.85608554 4283449920
-0.049413122 0.21268108 0.8570748 4283712836
-0.047701895 0.21291593 0.85806394 4284107594
-0.046001427 0.212919 0.85804874 4284173644
-0.044284575 0.21315384 0.85903788 4284305229
-0.042582233 0.21315691 0.85902268 4284437071
-0.040859755 0.21339178 0.8600117 4284371278
-0.039133526 0.21362664 0.86100078 4284108106
-0.037379663 0.21409331 0.86299402 4283846218
-0.035644062 0.21432818 0.86398298 4283584587
-0.080243453 0.21689396 0.86843073 4281545521
-0.078397557 0.21549553 0.8623873 4281545521
-0.076651111 0.21503143 0.86036271 4280887846
-0.074894801 0.21433371 0.85733354 4280756003
-0.07318072 0.21410318 0.85631377 4280427038
-0.071470387 0.21387264 0.85529399 4280690210
-0.069775544 0.2138757 0.85527885 4280756002
-0.068070836 0.21364515 0.85425913 4280887588
-0.066377863 0.2136482 0.85424399 4280887331
-0.064678781 0.21341763 0.85322434 4281216039
-0.062991932 0.21365431 0.85421377 4281281832
-0.061296593 0.21342374 0.85319412 4281610282
-0.05960501 0.21319316 0.85217452 4281807405
-0.057917178 0.21296258 0.85115492 4282202163
-0.056229834 0.21296562 0.85113984 4282531127
-0.054537356 0.2132023 0.85212922 4282662971
-0.05283412 0.21367262 0.854123 4282860607
-0.051114503 0.21437661 0.85712111 4282926914
-0.04940515 0.21461332 0.85811031 4283189572
-0.047692049 0.21485004 0.85909951 4283584074
-0.045989707 0.21485311 0.85908431 4283912782
-0.044303749 0.21462253 0.85806477 4284044368
-0.042621538 0.21439193 0.85704523 4283913039
-0.040902812 0.21462865 0.85803437 4283912782
-0.039158329 0.21509905 0.86002779 4283781453
-0.037382469 0.21580315 0.86302537 4283321929
-0.035621114 0.21627358 0.86501861 4283256649
-0.080223285 0.21837771 0.86745757 4281348397
-0.078379236 0.21696803 0.86141396 4282006326
-0.07663466 0.21650016 0.85938931 4282466877
-0.074897587 0.2160323 0.85736471 4282137656
-0.07316801 0.21556441 0.85534024 4282992965
-0.071459547 0.215332 0.85432041 4283124550
-0.069766581 0.21533506 0.85430533 4281019431
-0.068063743 0.21510263 0.85328555 4281809204
-0.066372648 0.21510567 0.85327047 4280953895
-0.064675435 0.21487322 0.85225075 4281348395
-0.062990464 0.21511178 0.85324025 4281545518
-0.061296999 0.21487932 0.85222059 4281479724
-0.059607781 0.21488237 0.85220551 4281807919
-0.057919942 0.21464992 0.85118592 4282070835
-0.056232601 0.21465296 0.85117084 4282334007
-0.054540124 0.21489151 0.85216022 4282662972
-0.052843902 0.21513008 0.85314959 4282991936
-0.051126167 0.21583968 0.85614783 4283123779
-0.04942945 0.21584274 0.85613269 4283453001
-0.047720101 0.21608132 0.85712194 4283716173
-0.04602151 0.21608439 0.85710675 4283716430
-0.044339295 0.21585192 0.85608721 4283716430
-0.042642578 0.21585497 0.85607201 4283781966
-0.040945861 0.21585804 0.85605687 4283913551
-0.039183129 0.21656772 0.85905468 4283848016
-0.037361395 0.21774852 0.86406106 4283453771
-0.03559817 0.21822269 0.86605436 4283256392
-0.080203101 0.21985771 0.86648428 4280887845
-0.078382038 0.21867411 0.86144525 4280032536
-0.076637454 0.2182025 0.85942054 4281085224
-0.074882999 0.21749353 0.85639119 4281545775
-0.073155291 0.2170219 0.8543666 4283256393
-0.071462326 0.21702495 0.85435146 4284309081
-0.069769353 0.21702801 0.85433638 4282598720
-0.068066515 0.2167937 0.85331661 4284441181
-0.066367425 0.2165594 0.85229683 4282138425
-0.064678207 0.21656244 0.85228175 4284243800
-0.062988989 0.21656549 0.85226667 4285822575
-0.061299771 0.21656853 0.85225159 4281874996
-0.059610549 0.21657158 0.85223651 4281611567
-0.05792271 0.21633725 0.85121685 4281874739
-0.056232113 0.21657768 0.85220629 4282203448
-0.054542895 0.21658072 0.85219121 4282466876
