# .PCD v0.7 - Point Cloud Data file format
VERSION 0.7
FIELDS x y z rgba
SIZE 4 4 4 4
TYPE F F F U
COUNT 1 1 1 1
WIDTH 1046
HEIGHT 1
VIEWPOINT 0 0 0 1 0 0 0
POINTS 1046
DATA ascii
-0.030860851 0.15066171 0.90478176 4291809219
-0.02907039 0.15066494 0.90476578 4291743426
-0.027346702 0.15035827 0.90274429 4291611841
-0.025595251 0.15020655 0.90172559 4291546051
-0.023847552 0.15005483 0.90070695 4291414465
-0.022064593 0.15005805 0.90069097 4291151550
-0.059510767 0.15224373 0.90406746 4294901500
-0.057722185 0.15224695 0.90405148 4294901499
-0.055933598 0.15225019 0.90403551 4294901755
-0.054139756 0.15241018 0.90502256 4294835961
-0.052342162 0.15257017 0.90600955 4294572789
-0.050549828 0.15257341 0.90599358 4294309360
-0.048746608 0.15273342 0.90698051 4294111724
-0.0469524 0.15273666 0.90696454 4293782759
-0.045158193 0.1527399 0.90694851 4293585378
-0.043397002 0.15242955 0.9049266 4293387485
-0.041606542 0.15243278 0.90491056 4293124312
-0.03983634 0.15227921 0.90389168 4292926932
-0.038047757 0.15228245 0.90387571 4292532687
-0.036259171 0.15228567 0.90385973 4292335050
-0.034470588 0.1522889 0.90384376 4292269256
-0.032709759 0.15213531 0.90282494 4291940291
-0.030982316 0.15182491 0.90080333 4291940291
-0.029199356 0.15182813 0.90078741 4291874244
-0.027449777 0.15167452 0.89976871 4291677124
-0.02570395 0.15152092 0.89875001 4291480259
-0.078369483 0.14781158 0.86514723 4294045421
-0.076615788 0.14749748 0.86312532 4294045421
-0.081778482 0.14936039 0.86420596 4288781464
-0.079996288 0.14888208 0.8611806 4288913307
-0.078267328 0.14872469 0.86016196 4289571237
-0.076542117 0.14856729 0.85914344 4290163375
-0.074837901 0.14857036 0.85912818 4291018684
-0.073149048 0.14873391 0.86011624 4291808202
-0.071456455 0.14889748 0.86110431 4293388004
-0.069748484 0.14890055 0.86108905 4293848812
-0.026591055 0.15106502 0.87374443 4294901497
-0.024747338 0.15154988 0.87673742 4294901755
-0.022970373 0.15171358 0.87772465 4294901500
-0.021107908 0.15219846 0.88071746 4294901500
-0.019276945 0.15252279 0.88270742 4294572535
-0.081756547 0.15091163 0.86323398 4288913304
-0.079976216 0.1504277 0.86020851 4289044636
-0.078228131 0.15010607 0.85818654 4289110686
-0.076506667 0.14994679 0.85716796 4289505700
-0.07478895 0.14978752 0.85614944 4289702823
-0.073074982 0.14962822 0.85513097 4290031789
-0.071364768 0.14946893 0.85411251 4290624182
-0.069658302 0.14930962 0.85309404 4291019198
-0.067965336 0.14931267 0.8530789 4291480263
-0.066272363 0.14931573 0.85306382 4291743179
-0.064579397 0.14931878 0.85304868 4292532952
-0.062886432 0.14932184 0.85303354 4293388261
-0.061195709 0.14948727 0.85402161 4293651433
-0.059500866 0.14949033 0.85400647 4293914605
-0.057804525 0.14965577 0.85499454 4294046190
-0.056107804 0.14965883 0.85497934 4294112239
-0.054405838 0.14982428 0.85596734 4294178031
-0.040715851 0.15066089 0.86086094 4294901240
-0.039007884 0.15066397 0.86084569 4294967033
-0.037275918 0.15082948 0.86183339 4294967290
-0.035566077 0.15083256 0.86181813 4294967290
-0.033856235 0.15083565 0.86180288 4294967291
-0.032116771 0.15100117 0.86279052 4294901754
-0.030373555 0.15116669 0.86377811 4294901755
-0.028626591 0.15133223 0.8647657 4294901498
-0.026840629 0.15166022 0.86675608 4294901500
-0.025010046 0.15215068 0.86974931 4294901500
-0.023168214 0.15264115 0.87274241 4294901501
-0.021274259 0.1532941 0.87673825 4294901502
-0.019365307 0.15394707 0.88073391 4294111986
-0.017530601 0.15427515 0.88272387 4291085508
-0.081759356 0.15262334 0.8632654 4289110681
-0.079979017 0.15213378 0.8602398 4289242012
-0.078209922 0.15164419 0.85721439 4289308063
-0.076490328 0.15148303 0.85619581 4289703078
-0.074757233 0.15115765 0.85417384 4290097836
-0.073047012 0.15099648 0.85315537 4290426546
-0.071327046 0.15067106 0.85113358 4290558388
-0.069637828 0.1506741 0.85111845 4290756025
-0.067938857 0.15051292 0.85010004 4291085247
-0.066251516 0.15051596 0.85008502 4291217089
-0.064564168 0.150519 0.85006994 4291546054
-0.062876828 0.15052204 0.85005486 4291875276
-0.061189484 0.15052509 0.85003978 4292203986
-0.05950214 0.15052813 0.8500247 4292467159
-0.057814796 0.15053117 0.85000962 4293191138
-0.056127451 0.15053421 0.84999454 4293454567
-0.054434858 0.15070152 0.85098267 4293783532
-0.052738518 0.15086885 0.85197073 4294178290
-0.051038429 0.15103617 0.85295874 4294375669
-0.049334589 0.1512035 0.85394675 4294572791
-0.047639746 0.15120657 0.85393161 4294770170
-0.045930281 0.15137391 0.85491955 4294835963
-0.044233564 0.15137696 0.85490435 4294901500
-0.042536844 0.15138002 0.85488921 4294901500
-0.04081988 0.15154737 0.8558771 4294901499
-0.039121289 0.15155044 0.8558619 4294901755
-0.037422694 0.15155351 0.85584676 4294901500
-0.035698231 0.15172088 0.85683459 4294901500
-0.033970021 0.15188825 0.85782236 4294901500
-0.032238055 0.15205564 0.85881007 4294901500
-0.030502345 0.15222302 0.85979778 4294901500
-0.028729513 0.15255474 0.86178839 4294901501
-0.026913937 0.15305078 0.86478186 4294901502
-0.025049994 0.15371118 0.86877805 4294901502
-0.023249039 0.15404294 0.87076843 4294901502
-0.021317979 0.15486772 0.87576723 4294901502
-0.019325426 0.15585686 0.88176876 4293783021
-0.01753347 0.15602435 0.88275599 4291217094
-0.081811666 0.15466723 0.86530375 4289044887
-0.080004692 0.15400594 0.8612746 4289242267
-0.078212708 0.15334465 0.85724556 4289637282
-0.076493114 0.15318163 0.85622692 4289900712
-0.074760012 0.15285248 0.85420495 4290361265
-0.073034413 0.15252332 0.85218304 4290755767
-0.071329817 0.15236028 0.85116452 4291084732
-0.069628969 0.1521972 0.85014611 4291216576
-0.067941621 0.15220025 0.85013103 4291480005
-0.066246398 0.15203717 0.84911263 4291743177
-0.06455493 0.1518741 0.84809428 4291940812
-0.062871337 0.15187714 0.8480792 4292006862
-0.061185483 0.15171404 0.84706092 4292335572
-0.059503764 0.15171707 0.8470459 4292598745
-0.057823539 0.15155397 0.84602761 4292730331
-0.056143697 0.151557 0.84601259 4292927967
-0.054458607 0.15172617 0.84700078 4293586153
-0.052769769 0.15189534 0.84798896 4293980911
-0.051086176 0.15189838 0.84797394 4294178290
-0.049391713 0.15206757 0.84896207 4294375669
-0.047706243 0.15207061 0.84894699 4294638841
-0.046020772 0.15207365 0.84893191 4294770172
-0.044335306 0.15207669 0.84891689 4294901502
-0.042631466 0.15224591 0.84990489 4294901502
-0.040944126 0.15224895 0.84988981 4294901503
-0.039234664 0.15241817 0.85087782 4294901503
-0.037521452 0.15258738 0.85186577 4294901503
-0.035804491 0.15275662 0.85285366 4294901502
-0.03408378 0.15292585 0.85384154 4294901502
-0.032300085 0.15342747 0.85683537 4294901502
-0.030568127 0.15359673 0.85782313 4294901502
-0.028765684 0.15409838 0.86081684 4294901502
-0.02691675 0.15476625 0.86481333 4294901502
-0.025052819 0.15543413 0.8688097 4294835709
-0.023251871 0.15576965 0.87080008 4294901502
-0.021320825 0.1566038 0.87579912 4294901502
-0.019328292 0.15760419 0.88180083 4293125089
-0.081814483 0.15638268 0.86533523 4288913557
-0.080007493 0.15571392 0.86130589 4289111450
-0.078215495 0.15504511 0.85727674 4289374880
-0.076476768 0.15471223 0.85525465 4289835432
-0.07472828 0.15421136 0.85222918 4290230191
-0.073021807 0.15404643 0.85121065 4290624949
-0.071319081 0.15388149 0.85019213 4290953659
-0.069631733 0.15388454 0.85017705 4291282625
-0.067944393 0.15388758 0.85016197 4291545797
-0.066249162 0.15372263 0.84914356 4291874763
-0.064557686 0.15355767 0.84812516 4292137935
-0.062874094 0.15356071 0.84811008 4292401620
-0.061188243 0.15339574 0.84709173 4292730585
-0.059506141 0.15323077 0.84607345 4292993757
-0.057827786 0.15306579 0.84505516 4293256931
-0.056149818 0.15306883 0.84504014 4293519847
-0.054466605 0.15323986 0.84602839 4293783276
-0.052779645 0.15341091 0.84701663 4294507255
-0.051097926 0.15341395 0.84700161 4294704634
-0.049416207 0.15341698 0.84698659 4294770684
-0.047721747 0.15358804 0.84797472 4294836220
-0.046038155 0.15359108 0.8479597 4294836221
-0.044354558 0.15359412 0.84794468 4294901502
-0.042670965 0.15359716 0.8479296 4294901502
-0.040967129 0.15376824 0.84891766 4294901502
-0.039281663 0.15377128 0.84890264 4294901502
-0.037548214 0.15411042 0.85089374 4294901502
-0.035858996 0.15411347 0.8508786 4294901502
-0.034114297 0.15445262 0.85286963 4294901502
-0.032332487 0.15495987 0.85586357 4294901502
-0.030602407 0.155131 0.8568514 4294901502
-0.028768485 0.15580633 0.86084813 4294901502
-0.026884325 0.15664977 0.86584777 4294901502
-0.024981419 0.15749325 0.87084717 4294901502
-0.023215715 0.15766443 0.8718347 4294835709
-0.021282811 0.15850796 0.87683386 4294901502
-0.019288419 0.1595196 0.88283581 4292072403
-0.081817292 0.15809813 0.8653667 4288979094
-0.080010295 0.15742187 0.86133724 4289045402
-0.078197278 0.15657572 0.85630447 4289243295
-0.076460414 0.15623909 0.85428226 4289835433
-0.074731052 0.15590245 0.85226017 4290295985
-0.073009193 0.15556578 0.85023814 4290624694
-0.071321845 0.15556884 0.85022306 4290953660
-0.069622867 0.15540202 0.8492046 4291216832
-0.067937396 0.15540506 0.84918952 4291545797
-0.066244043 0.15523823 0.84817106 4291874762
-0.064560451 0.15524127 0.84815603 4292137935
-0.062876858 0.15524431 0.84814101 4292467157
-0.061188739 0.15490758 0.84611928 4292730586
-0.05950851 0.15474072 0.84510094 4293059552
-0.057832029 0.15457387 0.84408265 4293256675
-0.056152567 0.15474679 0.84507096 4293585896
-0.054469362 0.1549197 0.84605926 4293915118
-0.052782405 0.15509263 0.84704751 4294507255
-0.051091697 0.15526555 0.84803569 4294770427
-0.049408101 0.15526859 0.84802067 4294836220
-0.047737245 0.15510173 0.84700239 4294836220
-0.046055526 0.15510476 0.84698737 4294836221
-0.044373807 0.1551078 0.84697235 4294901502
-0.042673726 0.15528074 0.84796047 4294901502
-0.040990133 0.15528378 0.84794545 4294901502
-0.039284427 0.15545674 0.84893352 4294901502
-0.037574969 0.15562971 0.84992158 4294901502
-0.035887625 0.15563275 0.8499065 4294901502
-0.034144811 0.15597565 0.8518976 4294901502
-0.032364886 0.15648851 0.85489166 4294901502
-0.030605195 0.15683146 0.85688257 4294901502
-0.028771285 0.15751429 0.86087948 4294901502
-0.026851906 0.15853705 0.86688226 4294901502
-0.024947139 0.1593899 0.87188184 4294901502
-0.023179565 0.15956298 0.87286937 4294901502
-0.0212448 0.16041587 0.87786871 4294835709
-0.081820108 0.1598136 0.86539817 4288979095
-0.080013089 0.15912983 0.8613686 4289176987
-0.078221075 0.15844603 0.85733914 4289243295
-0.076482333 0.15810566 0.85531688 4289638054
-0.074733824 0.15759353 0.85229123 4290032814
-0.073027343 0.15742485 0.85127258 4290624695
-0.071324617 0.15725617 0.85025406 4291019453
-0.069637269 0.15725921 0.85023898 4291216832
-0.067949928 0.15726225 0.8502239 4291546054
-0.06625469 0.15709355 0.84920537 4291875020
-0.064563207 0.15692484 0.84818691 4292138448
-0.062879615 0.15692788 0.84817189 4292401620
-0.061193757 0.15675917 0.84715348 4292730587
-0.05951165 0.15659045 0.84613508 4293125089
-0.057833292 0.15642172 0.84511673 4293322724
-0.05615532 0.15642475 0.84510171 4293586153
-0.054466881 0.1567713 0.84709334 4294244083
-0.05277805 0.15694611 0.84808165 4294507255
-0.051085472 0.15712091 0.84906989 4294770427
-0.049400005 0.15712395 0.84905481 4294836221
-0.047727268 0.15695521 0.84803653 4294836221
-0.046043675 0.15695825 0.84802145 4294901502
-0.044360083 0.15696129 0.84800643 4294901502
-0.042658128 0.15713611 0.84899455 4294901502
-0.040972658 0.15713915 0.84897953 4294901502
-0.039265081 0.157314 0.8499676 4294901502
-0.037553754 0.15748884 0.85095567 4294901502
-0.035864536 0.15749189 0.85094059 4294901502
-0.034119852 0.15783855 0.85293174 4294901502
-0.032308452 0.15852885 0.85692894 4294901502
-0.030545019 0.15887554 0.85891992 4294901502
-0.028707372 0.15956588 0.86291695 4294901502
-0.026819494 0.16042808 0.86791682 4294901502
-0.024912868 0.1612903 0.87291658 4294835709
-0.02314342 0.16146526 0.87390417 4294901502
-0.021206796 0.16232753 0.87890363 4294966782
-0.081847683 0.16170265 0.86643326 4288847766
-0.080038786 0.16101137 0.86240351 4288848280
-0.07824488 0.16032009 0.85837394 4289045917
-0.076504253 0.15997596 0.85635161 4289572261
-0.074753866 0.15945822 0.85332578 4290098606
-0.073030114 0.15911406 0.85130358 4290427829
-0.071327381 0.1589435 0.85028499 4290888380
-0.069640033 0.15894654 0.85026991 4291217345
-0.067942925 0.15877597 0.84925139 4291480518
-0.066257454 0.15877901 0.84923631 4291743691
-0.064571992 0.15878205 0.84922123 4291809229
-0.062882379 0.15861148 0.84820276 4291875022
-0.061196517 0.15844087 0.8471843 4292598745
-0.059514403 0.15827028 0.8461659 4292927710
-0.057836041 0.15809968 0.84514749 4293257188
-0.056154717 0.15827633 0.84613585 4293586153
-0.054469638 0.15845302 0.84712422 4294178290
-0.052773707 0.15880334 0.84911585 4294507255
-0.051079255 0.15898003 0.85010409 4294770427
-0.049402766 0.15880942 0.84908575 4294836221
-0.047730029 0.15863881 0.8480674 4294836222
-0.046061043 0.15846819 0.84704912 4294901502
-0.044379324 0.15847121 0.84703404 4294901502
-0.042679247 0.15864791 0.84802228 4294901502
-0.040975422 0.15882462 0.84901041 4294901502
-0.039267849 0.15900134 0.84999859 4294901502
-0.037556525 0.15917805 0.85098666 4294901502
-0.03584145 0.15935478 0.85197473 4294901502
-0.034094896 0.15970519 0.85396594 4294901502
-0.032281633 0.16040298 0.85796326 4294901502
-0.030516334 0.16075344 0.8599543 4294901502
-0.028676825 0.16145128 0.86395144 4294901502
-0.026787087 0.16232285 0.8689515 4294901502
-0.024952808 0.16284706 0.87194526 4294901502
-0.02318524 0.16302387 0.87293285 4294901502
-0.021250507 0.16389553 0.87793255 4294835710
-0.081875272 0.16359544 0.86746842 4288781717
-0.080064483 0.16289668 0.86343849 4288913561
-0.078268692 0.16219789 0.85940874 4289242784
-0.076545328 0.16202548 0.85838991 4289572007
-0.074791178 0.16150212 0.85536397 4289966765
-0.073048279 0.16097875 0.85233814 4289901229
-0.071330145 0.16063084 0.85031593 4290690744
-0.069642805 0.16063388 0.85030085 4291085759
-0.067955457 0.16063693 0.85028577 4291480518
-0.066268116 0.16063997 0.85027075 4291085760
-0.064580776 0.16064301 0.85025567 4289506728
-0.062889285 0.16047056 0.84923708 4288651419
-0.061199274 0.16012259 0.84721518 4292138450
-0.05951716 0.15995012 0.84619671 4292927710
-0.057837315 0.15995315 0.84618169 4293256931
-0.056154117 0.16013169 0.84717011 4293520360
-0.054472398 0.16013472 0.84715503 4294112497
-0.052776471 0.1604888 0.84914678 4294178290
-0.051082022 0.16066736 0.85013503 4294375669
-0.04940553 0.16049488 0.84911662 4294836222
-0.047732793 0.16032238 0.84809828 4294836222
-0.046049196 0.16032542 0.84808326 4294836222
-0.044365603 0.16032846 0.84806818 4294901502
-0.042663656 0.16050704 0.84905642 4294901502
-0.040937733 0.16086116 0.85104787 4294901502
-0.039226409 0.16103975 0.852036 4294901502
-0.037511341 0.16121836 0.85302407 4294901502
-0.035818372 0.16122141 0.85300899 4294901502
-0.034069952 0.16157559 0.8550002 4294901502
-0.032254826 0.16228089 0.8589977 4294901502
-0.030487655 0.16263509 0.86098874 4294901502
-0.028646283 0.16334043 0.864986 4294901502
-0.026789911 0.16404581 0.86898309 4294901502
-0.024955643 0.16457564 0.87197697 4294901502
-0.023227053 0.16457877 0.87196153 4294901502
-0.021335062 0.1652842 0.87595832 4294638330
-0.019428071 0.16598967 0.87995499 4288453275
-0.081902862 0.16549198 0.86850363 4288848024
-0.080090187 0.16478573 0.86447358 4288848024
-0.078313529 0.16425678 0.86144733 4289177504
-0.076586418 0.16408251 0.86042845 4289638313
-0.074828506 0.16355354 0.85740232 4289309348
-0.073081844 0.16302454 0.85437638 4287730316
-0.071346439 0.16249552 0.85135049 4289441191
-0.069657221 0.16249858 0.85133541 4290691258
-0.067958228 0.16232426 0.85031676 4291151810
-0.066278778 0.16250467 0.85130519 4290099122
-0.06458354 0.16233034 0.8502866 4287401609
-0.062896192 0.16233338 0.85027152 4287006594
-0.061206579 0.16215906 0.849253 4292138706
-0.05952071 0.16198471 0.84823447 4292994016
-0.057838593 0.16181037 0.84721595 4293257188
-0.056156874 0.16181341 0.84720093 4293586153
-0.054475155 0.16181643 0.84718591 4293586153
-0.052786335 0.16199686 0.84817427 4291875536
-0.051093765 0.16217729 0.84916264 4293257189
-0.049408294 0.16218033 0.84914756 4294309621
-0.047735553 0.16200598 0.84812915 4294901502
-0.046051957 0.16200902 0.84811413 4294901502
-0.044351887 0.16218945 0.84910238 4294901502
-0.042629719 0.16254734 0.85109395 4294901502
-0.040900052 0.16290522 0.8530854 4294901502
-0.039184984 0.16308568 0.85407352 4294901502
-0.037490141 0.16308874 0.85405838 4294901502
-0.035769451 0.16326924 0.85504645 4294901502
-0.034017283 0.16362716 0.85703772 4294901502
-0.032228023 0.16416253 0.86003214 4294901502
-0.030490456 0.16434304 0.86102009 4294901502
-0.028649095 0.16505589 0.86501747 4294901502
-0.026827961 0.16559133 0.86801159 4294901502
-0.025032675 0.16594933 0.87000245 4294901502
-0.023268862 0.16612989 0.87099016 4294901502
-0.021337908 0.16702028 0.87599021 4294375158
-0.019473651 0.16755579 0.87898391 4287466380
-0.081905685 0.16721307 0.86853516 4288650648
-0.080092996 0.1664993 0.86450499 4288650648
-0.078316331 0.16596474 0.86147863 4288651162
-0.076589212 0.16578859 0.86045974 4289572520
-0.074831292 0.165254 0.85743356 4289178018
-0.07308463 0.16471937 0.85440743 4286283383
-0.071349204 0.16418473 0.85138148 4287599243
-0.069659986 0.16418779 0.8513664 4288651932
-0.067960992 0.1640116 0.8503477 4291151810
-0.066273652 0.16401464 0.85033262 4290559673
-0.064592332 0.16419692 0.8513211 4288059539
-0.062898964 0.16402073 0.85030246 4286612093
-0.06121162 0.16402377 0.85028738 4291743949
-0.059523873 0.16384755 0.84926885 4293125602
-0.057841349 0.16349208 0.84724683 4293125602
-0.05615963 0.16349511 0.84723181 4293586152
-0.054483134 0.16331887 0.84621334 4293783532
-0.052796192 0.16350117 0.84720176 4292204501
-0.051105499 0.16368349 0.84819013 4292533467
-0.049421906 0.16368653 0.84817511 4292270039
-0.047738314 0.16368955 0.84816003 4294506744
-0.046054717 0.16369259 0.84814501 4294901502
-0.044371124 0.16369563 0.84812999 4294375158
-0.042650837 0.16405725 0.85012156 4291611852
-0.040923052 0.16441888 0.85211313 4291414473
-0.039187767 0.16478053 0.85410464 4294835709
-0.037492923 0.16478358 0.8540895 4294901502
-0.035772234 0.16496594 0.85507762 4294901502
-0.034020074 0.16532761 0.85706896 4294901502
-0.032260414 0.1656893 0.85906023 4294901502
-0.030524727 0.16587169 0.86004817 4294901502
-0.028685255 0.16659203 0.86404574 4294901502
-0.026866002 0.16713309 0.86703998 4294901502
-0.025072597 0.16749483 0.86903095 4294901502
-0.023310663 0.16767727 0.87001866 4294901502
-0.0213816 0.16857703 0.87501889 4293125091
-0.019476507 0.1692975 0.87901586 4286676864
-0.081908509 0.16893414 0.86856675 4288387476
-0.080095805 0.16821289 0.86453646 4288387476
-0.078340158 0.16785379 0.86251372 4287401094
-0.076592013 0.16749468 0.86049104 4288783261
-0.074851364 0.16713555 0.85846841 4289243811
-0.07311821 0.16677642 0.85644591 4286809727
-0.071379036 0.16623616 0.85341978 4286941057
-0.069686063 0.16623922 0.85340464 4289178020
-0.067973539 0.16588004 0.85138226 4291283396
-0.066284321 0.16588309 0.85136718 4291546568
-0.064595103 0.16588613 0.8513521 4291612361
-0.062905885 0.16588919 0.85133702 4291546568
-0.061214387 0.1657111 0.85031837 4291743946
-0.059526637 0.16553302 0.84929973 4292665305
-0.057842638 0.16535492 0.8482812 4293191393
-0.056159046 0.16535796 0.84826612 4293784302
-0.054480668 0.16517986 0.8472476 4293520873
-0.052798949 0.16518289 0.84723258 4293717995
-0.051108263 0.16536707 0.848221 4294244083
-0.049424667 0.16537011 0.84820598 4294112498
-0.047741074 0.16537315 0.8481909 4294638843
-0.046057481 0.16537619 0.84817588 4294901502
-0.04434095 0.16574155 0.85016763 4292993505
-0.042635262 0.16592576 0.85115588 4290098613
-0.040905606 0.16629113 0.85314751 4293256677
-0.039168451 0.16665652 0.85513902 4294835709
-0.037447765 0.16684076 0.8561272 4294901502
-0.035749171 0.16684383 0.856112 4294769916
-0.033995144 0.16720925 0.85810339 4294901502
-0.032233618 0.16757469 0.86009473 4294901502
-0.030496057 0.16775896 0.86108273 4294901502
-0.028721407 0.16812442 0.86307395 4294901502
-0.026904039 0.1686711 0.8660683 4294901502
-0.025075423 0.1692178 0.86906254 4294901502
-0.023274524 0.16958331 0.87105352 4294901502
-0.02130276 0.17067365 0.87705708 4291217094
-0.081936106 0.17083819 0.86960208 4288453269
-0.080098614 0.16992646 0.86456788 4288453269
-0.078321934 0.16938065 0.86154133 4287269252
-0.076594807 0.16920076 0.86052233 4286677628
-0.07485415 0.16883789 0.85849965 4287927952
-0.073120996 0.168475 0.85647702 4290099121
-0.071395345 0.1681121 0.85445452 4290559928
-0.069700502 0.16811517 0.85443938 4290954430
-0.067986093 0.16775224 0.85241693 4291217603
-0.066287093 0.1675723 0.85139817 4291678154
-0.064597875 0.16757534 0.85138309 4292007119
-0.062904499 0.1673954 0.85036439 4292401877
-0.061217152 0.16739844 0.85034931 4292599256
-0.059529401 0.16721848 0.84933066 4292928221
-0.057845399 0.16703852 0.84831208 4293257186
-0.056161806 0.16704154 0.848297 4293915118
-0.054478209 0.16704458 0.84828198 4294112497
-0.052794617 0.16704762 0.84826696 4294441462
-0.051102057 0.16723368 0.84925538 4294704634
-0.049416587 0.16723672 0.8492403 4294835965
-0.047743835 0.16705672 0.84822184 4294901502
-0.04604565 0.1672428 0.8492102 4294769916
-0.044343714 0.16742888 0.85019857 4293190884
-0.042656373 0.16743192 0.85018349 4291480266
-0.040928598 0.16780105 0.85217518 4294769916
-0.039193325 0.1681702 0.85416681 4294835709
-0.037450552 0.16853935 0.85615838 4294901502
-0.035726119 0.16872546 0.8571465 4291677645
-0.033970222 0.16909465 0.85913795 4294243572
-0.032206826 0.16946384 0.86112934 4294901502
-0.030467395 0.16964999 0.86211735 4294901502
-0.028690875 0.17001919 0.86410862 4294901502
-0.026906855 0.17038843 0.86609977 4294901502
-0.02500407 0.17130689 0.8711006 4294835709
-0.02319943 0.17167616 0.87309158 4294901502
-0.021183096 0.17296085 0.88009852 4288782240
-0.081938937 0.17256114 0.86963373 4287861389
-0.080101423 0.17164005 0.86459935 4287861389
-0.078303695 0.17090377 0.86056888 4288322197
-0.076578446 0.17072201 0.85954988 4289309348
-0.074839659 0.17035538 0.85752714 4289769899
-0.073108375 0.16998874 0.85550445 4290230450
-0.071398124 0.16980694 0.85448557 4290691001
-0.069703281 0.16981 0.85447043 4291020222
-0.067988865 0.16944332 0.85244793 4291283395
-0.066289864 0.16926152 0.85142916 4291678154
-0.064594604 0.16907969 0.8504104 4292007119
-0.062907264 0.16908273 0.85039532 4292467670
-0.061217636 0.16890089 0.84937668 4292665049
-0.059531756 0.16871905 0.84835798 4292994016
-0.057848159 0.16872209 0.84834296 4293322980
-0.056164566 0.16872513 0.84832793 4293849325
-0.054475758 0.16891307 0.84931642 4294112497
-0.052790288 0.16891611 0.84930134 4294441462
-0.051104821 0.16891915 0.84928632 4294704634
-0.049419351 0.16892219 0.84927124 4294836222
-0.047746595 0.16874032 0.84825271 4294901758
-0.046048414 0.16892827 0.84924114 4294901502
-0.044362944 0.16893131 0.84922606 4294769916
-0.042659137 0.16911925 0.85021442 4294309365
-0.040951584 0.16930722 0.85120279 4294769916
-0.039218191 0.1696801 0.85319448 4294901502
-0.037453335 0.17023793 0.85618955 4294901502
-0.03570307 0.17061085 0.85818106 4291809231
-0.033945303 0.17098379 0.86017257 4294835709
-0.032180041 0.17135674 0.86216402 4294901502
-0.030438738 0.17154476 0.86315203 4294901502
-0.02866035 0.17191772 0.86514336 4294901502
-0.026839251 0.17247565 0.86813784 4294901502
-0.024932731 0.1734035 0.87313879 4294966782
-0.023085386 0.17396148 0.87613308 4294835709
-0.080104232 0.17335364 0.86463076 4286348150
-0.078327529 0.17279658 0.86160398 4288716955
-0.07658124 0.17242621 0.85958111 4289375141
-0.074842446 0.17205584 0.85755831 4289901229
-0.073126569 0.17187217 0.85653937 4290295986
-0.071414441 0.17168851 0.85552043 4290625208
-0.06970606 0.17150483 0.85450155 4291019966
-0.068001427 0.17132115 0.85348266 4291480773
-0.066292629 0.17095073 0.85146016 4291678410
-0.064597376 0.17076702 0.8504414 4292007119
-0.062910028 0.17077006 0.85042632 4292401877
-0.0612204 0.17058636 0.84940755 4292599257
-0.05953493 0.1705894 0.84939253 4292994016
-0.057849459 0.17059244 0.84937745 4293257188
-0.056163993 0.17059548 0.84936237 4293849325
-0.054473311 0.17078528 0.85035092 4294112498
-0.052785967 0.17078833 0.85033584 4294375671
-0.051107585 0.1706046 0.84931725 4294704636
-0.049422115 0.17060764 0.84930217 4294770686
-0.047723938 0.17079747 0.85029066 4294770429
-0.046036594 0.17080051 0.85027558 4294835966
-0.044332791 0.17099033 0.85126394 4294901502
-0.042643569 0.17099337 0.85124886 4294901502
-0.040934142 0.17118321 0.85223722 4294901502
-0.039198883 0.17155986 0.85422897 4294901502
-0.037432164 0.17212331 0.85722411 4291875024
-0.03568003 0.17249998 0.85921574 4294046193
-0.033920392 0.17287667 0.86120725 4294901758
-0.03215326 0.17325337 0.8631987 4294835965
-0.030410087 0.17344327 0.86418676 4294901502
-0.028596496 0.17400682 0.86718148 4294901502
-0.026771657 0.17457037 0.87017608 4294966782
-0.024861405 0.17550761 0.87517715 4294966782
-0.023010317 0.17607121 0.8781715 4294900989
-0.080129959 0.17525581 0.86566603 4287927182
-0.078330331 0.17450453 0.86163533 4288848541
-0.076603204 0.17431901 0.86061621 4289375141
-0.074862525 0.17394489 0.85859334 4289901485
-0.073129356 0.17357075 0.85657054 4290362036
-0.071403682 0.17319661 0.8545478 4290625208
-0.069697171 0.17301106 0.85352886 4290954174
-0.067984618 0.17263688 0.85150623 4291283139
-0.066287488 0.17245132 0.85048741 4291678154
-0.06460014 0.17245436 0.85047233 4291941326
-0.062912799 0.1724574 0.85045725 4292336084
-0.06122316 0.17227182 0.84943849 4292665051
-0.059537277 0.17208622 0.84841979 4293059809
-0.057852224 0.1722779 0.84940839 4293388774
-0.056166757 0.17228094 0.84939331 4293915118
-0.054481287 0.17228398 0.84937829 4294178290
-0.052795816 0.17228702 0.84936321 4294507256
-0.05111035 0.17229006 0.84934813 4294704636
-0.049424879 0.1722931 0.84933311 4294836222
-0.047739409 0.17229614 0.84931803 4294836222
-0.046039362 0.17248784 0.85030651 4294836222
-0.044335559 0.17267954 0.85129493 4294901502
-0.042646341 0.17268258 0.85127985 4294901502
-0.040957123 0.17268564 0.85126477 4294901502
-0.039223742 0.17306602 0.85325658 4294901502
-0.037458908 0.1736351 0.85625184 4294901502
-0.035708655 0.17401552 0.85824353 4294901502
-0.033923194 0.17458463 0.8612386 4294901502
-0.032156069 0.17496508 0.86323011 4294440951
-0.030412896 0.17515686 0.86421824 4294243572
-0.028599316 0.17572603 0.86721301 4294901502
-0.026739281 0.1764839 0.87121105 4294901502
-0.024827169 0.1774305 0.8762123 4294900989
-0.022974215 0.17799973 0.87920678 4294966782
-0.080132775 0.17697127 0.8656975 4288585112
-0.07835418 0.17640296 0.86267054 4289045663
-0.076625168 0.17621557 0.86165142 4289375141
-0.074882612 0.1758377 0.85962844 4289769899
-0.073132142 0.17526934 0.85660172 4290164657
-0.071406461 0.17489144 0.85457885 4290559672
-0.069699951 0.17470402 0.85355991 4290888893
-0.06798739 0.17432609 0.85153723 4291283396
-0.066298172 0.17432915 0.85152215 4291743947
-0.064608954 0.17433219 0.85150701 4292007119
-0.062915564 0.17414474 0.85048819 4292270291
-0.061228219 0.17414778 0.85047311 4292730843
-0.059540458 0.17396031 0.84945434 4293125602
-0.057854988 0.17396335 0.84943932 4293322981
-0.056169521 0.17396641 0.84942424 4293915118
-0.054484051 0.17396945 0.84940916 4294244083
-0.05279858 0.17397249 0.84939414 4294507255
-0.051113114 0.17397553 0.84937906 4294704634
-0.049427643 0.17397857 0.84936398 4294770685
-0.04772947 0.17417213 0.85035253 4294770686
-0.046042126 0.17417517 0.85033745 4294836222
-0.044338331 0.17436875 0.85132593 4294836222
-0.042649113 0.17437179 0.85131085 4294901502
-0.040959895 0.17437485 0.85129577 4294901502
-0.039226517 0.17475899 0.8532877 4294901502
-0.037461694 0.17533368 0.85628301 4294901502
-0.035711445 0.17571786 0.85827476 4294901502
-0.033925995 0.17629258 0.86126989 4294901502
-0.032129299 0.17686735 0.86426497 4293980400
-0.030384254 0.17706101 0.86525309 4292796126
-0.028568808 0.17763579 0.86824799 4294506744
-0.026706912 0.17840117 0.87224615 4294901502
-0.024792939 0.17935716 0.87724751 4294901246
-0.022977073 0.17974144 0.87923872 4294637817
-0.021153707 0.18012574 0.88122982 4280887080
-0.080135584 0.17868672 0.86572897 4288716441
-0.078356981 0.17811279 0.86270189 4288979870
-0.07662797 0.17792353 0.86168271 4289440421
-0.074902706 0.17773426 0.86066359 4289835435
-0.073165767 0.17735264 0.85864061 4290230450
-0.071422786 0.17677863 0.85561383 4290625208
-0.069714397 0.17658934 0.85459483 4290888894
-0.068009757 0.17640004 0.85357583 4291349189
-0.066316791 0.17640309 0.85356075 4291678154
-0.064623818 0.17640615 0.85354561 4292007119
-0.06292668 0.17621683 0.85252672 4292204498
-0.061233286 0.17602749 0.85150784 4292599257
-0.059544068 0.17603055 0.85149276 4293322981
-0.057856299 0.1758412 0.85047394 4293586153
-0.056168959 0.17584425 0.85045886 4293915118
-0.054481614 0.17584729 0.85044378 4294244083
-0.052801345 0.17565794 0.84942502 4294441462
-0.051106926 0.17585337 0.85041362 4294638841
-0.049419582 0.17585643 0.85039854 4294770684
-0.047732238 0.17585947 0.85038346 4294836220
-0.04603032 0.17605491 0.851372 4294836221
-0.044341099 0.17605796 0.85135692 4294836222
-0.042651881 0.176061 0.85134184 4294901502
-0.040942464 0.17625648 0.85233033 4294901502
-0.039229296 0.17645195 0.85331875 4294901502
-0.037464477 0.17703226 0.85631418 4294901502
-0.035714235 0.17742018 0.85830599 4294901502
-0.033928797 0.17800055 0.86130124 4294835709
-0.032132108 0.17858092 0.86429638 4294243572
-0.030355619 0.17896889 0.86628801 4294046193
-0.028538307 0.17954932 0.86928296 4294769917
-0.026674548 0.1803222 0.87328124 4294966783
-0.024795789 0.18109511 0.8772794 4294966782
-0.022979928 0.18148315 0.87927067 4292729820
-0.021238215 0.18148629 0.87925512 4279637013
-0.080115475 0.18020797 0.86475652 4288715927
-0.078359783 0.17982262 0.8627333 4288979356
-0.076630771 0.17963149 0.86171407 4289505700
-0.0749055 0.17944035 0.86069489 4289900972
-0.073168561 0.17905496 0.85867184 4290295986
-0.071425572 0.17847535 0.85564494 4290625208
-0.069717176 0.17828417 0.85462588 4290888381
-0.068012528 0.17809299 0.85360694 4291283396
-0.066319562 0.17809604 0.8535918 4291678155
-0.064620547 0.17790486 0.85257286 4292072914
-0.062929451 0.1779079 0.85255772 4292336086
-0.061236057 0.1777167 0.85153884 4292665051
-0.059546411 0.17752549 0.85051996 4292862430
-0.057859067 0.17752855 0.85050488 4293651946
-0.056171723 0.17753159 0.8504898 4293849325
-0.054489579 0.17734036 0.84947103 4294112497
-0.052804109 0.1773434 0.84945595 4294375669
-0.051118642 0.17734644 0.84944093 4294704634
-0.049433172 0.17734948 0.84942585 4294836219
-0.047735006 0.1775468 0.85041445 4294836219
-0.046047661 0.17754984 0.85039937 4294836220
-0.044360317 0.17755289 0.85038429 4294836221
-0.042672973 0.17755593 0.85036922 4294901502
-0.040965434 0.17775327 0.85135776 4294901502
-0.039232071 0.1781449 0.8533498 4294901502
-0.03749121 0.17853655 0.85534179 4294901502
-0.035717029 0.17912252 0.85833722 4294901502
-0.033931598 0.17970851 0.8613326 4294901502
-0.032164488 0.1801002 0.86332434 4294704123
-0.030389881 0.18049192 0.86531603 4294835709
-0.028541133 0.18127227 0.86931455 4294966782
-0.026677385 0.18205266 0.87331301 4294966527
-0.024761569 0.18302739 0.87831473 4294900989
-0.022943839 0.18341918 0.88030601 4289769135
-0.021241071 0.18322799 0.87928706 4278847497
-0.080118284 0.18192156 0.86478794 4288650134
-0.078341536 0.18133636 0.86176068 4289110429
-0.076633573 0.18133944 0.86174542 4289440164
-0.074908301 0.18114643 0.86072618 4289901742
-0.073171355 0.1807573 0.85870308 4290296243
-0.071455456 0.18056427 0.8576839 4290362293
-0.069743313 0.18037122 0.85666484 4290888894
-0.068034917 0.18017818 0.85564578 4291217603
-0.066330269 0.17998512 0.85462672 4291546568
-0.064629368 0.17979206 0.85360771 4292007121
-0.062936403 0.17979512 0.85359257 4292270806
-0.061241131 0.17960204 0.85257363 4292928223
-0.059549607 0.17940897 0.85155475 4293257444
-0.057861835 0.17921588 0.85053587 4293520360
-0.056174491 0.17921892 0.85052079 4293849325
-0.054487146 0.17922196 0.85050571 4294112240
-0.052799802 0.17922501 0.85049063 4294375669
-0.051112458 0.17922805 0.85047555 4294704634
-0.049414296 0.17942724 0.85146415 4294770427
-0.047737774 0.17923413 0.85044539 4294836220
-0.04603586 0.17943333 0.85143399 4294901758
-0.044346642 0.17943639 0.85141891 4294901502
-0.042657424 0.17943943 0.85140383 4294901502
-0.040948011 0.17963864 0.85239232 4294901502
-0.039212778 0.18003404 0.85438442 4294901502
-0.037446104 0.18062562 0.85738009 4294835966
-0.035694003 0.18102103 0.85937202 4294770429
-0.033906706 0.18161264 0.86236745 4294836222
-0.032108162 0.18220428 0.86536282 4294836222
-0.030361252 0.18240356 0.86635101 4294901502
-0.028510639 0.18319142 0.87034971 4294901502
-0.026645031 0.1839793 0.87434822 4294966783
-0.024727356 0.18496342 0.87935013 4294966783
-0.022907758 0.18535896 0.88134146 4287334796
-0.080121092 0.18363513 0.86481935 4288648595
-0.078344338 0.18304433 0.86179197 4287464834
-0.076617189 0.18284944 0.86077273 4288189584
-0.074893795 0.18265453 0.85975349 4289572007
-0.073174141 0.18245964 0.85873431 4290164657
-0.07144469 0.18206674 0.85671115 4290625208
-0.069746099 0.18206981 0.85669595 4290953917
-0.068027891 0.18167689 0.85467297 4291414212
-0.066325113 0.18148196 0.85365391 4291677385
-0.06462609 0.18128702 0.85263491 4292072144
-0.062934995 0.18129008 0.85261977 4292335573
-0.061241597 0.18109512 0.85160083 4292664795
-0.059551947 0.18090017 0.85058188 4292928223
-0.057864603 0.18090321 0.8505668 4293520360
-0.056177258 0.18090625 0.85055172 4293915118
-0.054489914 0.18090929 0.85053664 4294178290
-0.05280257 0.18091235 0.85052156 4294441462
-0.051115226 0.18091539 0.85050648 4294770427
-0.049417067 0.18111645 0.85149515 4294836221
-0.047727849 0.1811195 0.85148007 4294836222
-0.046038628 0.18112254 0.85146499 4294835965
-0.04433297 0.18132363 0.85245359 4294901502
-0.042641878 0.18132667 0.85243845 4294901502
-0.040930592 0.18152776 0.85342705 4294901502
-0.039193492 0.18192691 0.85541916 4294901502
-0.037424956 0.18252411 0.85841489 4294901502
-0.035670981 0.18292329 0.86040688 4294901502
-0.033881821 0.18352054 0.86340243 4294901502
-0.03208141 0.18411779 0.86639786 4294967295
-0.030332629 0.18431896 0.86738604 4294901502
-0.028513469 0.18491626 0.87038136 4294901503
-0.026647871 0.18571164 0.87437999 4294966783
-0.024767276 0.18650705 0.87837857 4294966783
-0.022910619 0.1871044 0.88137347 4284702560
-0.080169775 0.1857484 0.86685896 4288648592
-0.078368194 0.18495212 0.86282736 4286869358
-0.076639175 0.18475536 0.86180806 4287987326
-0.074896589 0.18435875 0.85978472 4289304983
-0.073176935 0.18416196 0.85876548 4290096041
-0.071447477 0.18376532 0.85674232 4291215035
-0.069737196 0.18356854 0.85572314 4291282111
-0.068020858 0.18317187 0.8537001 4291414211
-0.066319957 0.18297505 0.85268104 4291808971
-0.064622805 0.18277824 0.85166198 4292006607
-0.062933587 0.18278128 0.8516469 4292466902
-0.061242055 0.18258446 0.8506279 4292664538
-0.059554711 0.1825875 0.85061282 4292928223
-0.057867371 0.18259054 0.85059774 4293585640
-0.056180026 0.18259358 0.85058266 4293980398
-0.054492682 0.18259664 0.85056758 4294309363
-0.052805338 0.18259968 0.85055256 4294638072
-0.051117994 0.18260272 0.85053748 4294900989
-0.049419835 0.18280566 0.85152614 4294967038
-0.047717929 0.18300861 0.8525148 4294901502
-0.046012275 0.18321157 0.85350347 4294901502
-0.044319306 0.18321462 0.85348833 4294901502
-0.042608023 0.18341759 0.85447693 4294901502
-0.040892992 0.18362056 0.85546547 4294835711
-0.039174214 0.18382354 0.85645396 4294901502
-0.037379872 0.1846263 0.86045343 4294967295
-0.035647966 0.18482929 0.86144185 4294901502
-0.033884626 0.18523224 0.86343384 4294901502
-0.032084227 0.18583512 0.86642939 4294901502
-0.030335447 0.18603817 0.86741763 4294901502
-0.028516298 0.18664108 0.87041295 4294901502
-0.026685899 0.18724403 0.87340826 4294966783
-0.024807189 0.18804693 0.87740695 4294966782
-0.022952419 0.18864992 0.88040197 4281873975
-0.080195524 0.18766743 0.86789459 4288249727
-0.078392066 0.18686368 0.86386281 4288249727
-0.076680347 0.18686676 0.86384755 4287982450
-0.074916691 0.18626468 0.86082006 4288178803
-0.073195167 0.18606603 0.85980076 4288048245
-0.071463823 0.18566564 0.85777748 4289366414
-0.069739982 0.18526524 0.85575432 4289369751
-0.068023637 0.18486483 0.85373116 4290227627
-0.066322729 0.18466614 0.85271204 4291215806
-0.064625576 0.18446745 0.85169297 4291216063
-0.062936358 0.18447049 0.85167789 4292268752
-0.061247136 0.18447354 0.85166281 4292795354
-0.059557479 0.18427484 0.85064381 4293058013
-0.057870135 0.18427788 0.85062873 4292860377
-0.056182791 0.18428092 0.85061365 4293584100
-0.054490265 0.18448573 0.85160244 4294702839
-0.052801043 0.18448877 0.85158736 4294571768
-0.051111825 0.18449183 0.85157222 4294835454
-0.049411796 0.18469664 0.85256094 4294967039
-0.04770802 0.18490148 0.85354966 4294177266
-0.046000488 0.18510631 0.85453832 4293256164
-0.044289213 0.18531115 0.85552692 4293782766
-0.042574182 0.185516 0.85651547 4293783023
-0.040875591 0.18551907 0.85650033 4294638332
-0.039132878 0.18592572 0.85849255 4293125093
-0.037358735 0.18653418 0.86148846 4293848815
-0.035624959 0.18673906 0.86247683 4294309365
-0.033832066 0.18734756 0.86547256 4294901502
-0.032057483 0.18775427 0.86746448 4294901502
-0.030306833 0.18795918 0.86845279 4294901502
-0.028485818 0.18856773 0.87144822 4294901502
-0.026653552 0.18917629 0.87444359 4294901502
-0.024735924 0.19018853 0.87944597 4294835709
-0.080221288 0.18959023 0.86893028 4288052606
-0.078437001 0.18898256 0.86590248 4287324775
-0.076702341 0.18878207 0.86488307 4287586152
-0.074936807 0.18817435 0.86185545 4287586152
-0.073182516 0.18756664 0.85882795 4288639098
-0.071453042 0.18716249 0.85680461 4289428614
-0.069731072 0.18675834 0.85478139 4288244854
-0.068006784 0.18615057 0.85175413 4289166470
-0.066309623 0.18595 0.85073507 4289693585
-0.064616211 0.18574943 0.84971595 4289959837
-0.062934935 0.18595609 0.85070491 4290224293
-0.061247591 0.18595913 0.85068983 4289827995
-0.059560247 0.18596217 0.85067475 4291012013
-0.057872903 0.18596521 0.85065967 4291933372
-0.056185558 0.18596826 0.85064459 4291868350
-0.054493032 0.18617494 0.85163343 4292265932
-0.052803814 0.18617798 0.85161829 4292662230
-0.051114596 0.18618104 0.85160321 4294176753
-0.049414571 0.18638773 0.85259199 4294966527
-0.047710795 0.18659444 0.85358071 4291478728
-0.045988712 0.1870048 0.85557318 4288847265
-0.044275563 0.18721151 0.85656184 4290229944
-0.042576969 0.18721458 0.85654664 4291282632
-0.040878378 0.18721765 0.8565315 4293980145
-0.039135672 0.18762805 0.85852379 4292993507
-0.037385467 0.18803847 0.86051601 4292993251
-0.035653569 0.18824522 0.8615045 4293914609
-0.033862561 0.18885934 0.86450034 4294901503
-0.032089856 0.1892698 0.86649239 4294901502
-0.030341085 0.18947658 0.8674807 4294901502
-0.028521955 0.19009075 0.87047625 4294901502
-0.026621213 0.19111232 0.87547898 4294901502
-0.024738779 0.19193023 0.87947792 4294375158
-0.080247052 0.19151677 0.86996603 4288912023
-0.07846088 0.19090348 0.86693811 4289502108
-0.076724343 0.19070111 0.86591864 4289763996
-0.074956924 0.1900878 0.8628909 4289763996
-0.073200755 0.18947445 0.85986334 4289170319
-0.071455829 0.18886109 0.85683578 4290023061
-0.069733851 0.18845318 0.85481244 4288902527
-0.068019368 0.18804526 0.85278922 4290285207
-0.06632033 0.18784282 0.85177004 4290089626
-0.064625047 0.18764038 0.85075092 4291209390
-0.062937699 0.18764342 0.85073584 4291008933
-0.061250359 0.18764646 0.85072076 4289558920
-0.059562568 0.187444 0.8497017 4292125617
-0.05787567 0.18765256 0.8506906 4290875807
-0.056188326 0.1876556 0.85067552 4291139750
-0.054495804 0.18786415 0.85166442 4292130496
-0.05279953 0.18807271 0.85265321 4292593613
-0.051108435 0.18807577 0.85263813 4293252827
-0.049417343 0.18807882 0.85262299 4294966527
-0.04771357 0.18828739 0.85361177 4291610314
-0.04600605 0.18849598 0.85460049 4288255128
-0.044294778 0.18870457 0.85558915 4290887875
-0.042598058 0.18870763 0.85557401 4292335064
-0.040881161 0.18891624 0.85656261 4294703869
-0.039138462 0.18933038 0.85855502 4293125350
-0.037388265 0.18974455 0.86054736 4293717230
-0.03565637 0.18995318 0.86153585 4294177781
-0.033893049 0.19036737 0.86352801 4294901502
-0.032092672 0.19098713 0.86652386 4294967295
-0.03028105 0.19160691 0.86951959 4294901502
-0.02849148 0.19202115 0.87151158 4294901502
-0.026624057 0.19284652 0.87551081 4294901502
-0.080272824 0.19344707 0.87100184 4288782234
-0.078463696 0.19262081 0.86696965 4289308321
-0.076727159 0.19241658 0.86595011 4289965481
-0.074959733 0.19179763 0.86292231 4289965481
-0.073203549 0.19117865 0.85989457 4290359726
-0.071458615 0.19055967 0.85686696 4290951863
-0.069748327 0.19035538 0.85584766 4291081653
-0.068031967 0.1899437 0.85382432 4291278005
-0.066331051 0.18973939 0.85280514 4291475641
-0.064639956 0.18974245 0.85279 4291870143
-0.06294886 0.1897455 0.85277492 4292327101
-0.061253127 0.1893338 0.8507517 4289889938
-0.059565783 0.18933684 0.85073668 4290942114
-0.057878438 0.18933989 0.8507216 4292520119
-0.056191094 0.18934293 0.85070652 4291797167
-0.054493397 0.18976074 0.85269934 4293314514
-0.05279525 0.18997119 0.85368818 4293252314
-0.05111121 0.18976685 0.85266912 4293319904
-0.049409315 0.1899773 0.85365796 4294966527
-0.047716346 0.18998036 0.85364282 4292400344
-0.04602338 0.18998341 0.85362768 4289966516
-0.044313986 0.19019388 0.8546164 4293190886
-0.04260084 0.19040434 0.85560513 4294045939
-0.040863771 0.19082223 0.85759765 4294769661
-0.039119206 0.19124013 0.85959005 4293914609
-0.037367139 0.19165805 0.86158246 4294769917
-0.035659172 0.19166113 0.8615672 4294901502
-0.033895854 0.19207907 0.86355942 4294901502
-0.032095488 0.19270445 0.86655539 4294835709
-0.030221028 0.19374473 0.87155867 4294901502
-0.028427714 0.19416273 0.87355065 4294901502
-0.0802527 0.1949627 0.87002921 4288650905
-0.078445442 0.19412893 0.8659969 4289177249
-0.076691575 0.19371359 0.86397314 4289177249
-0.074945211 0.19329824 0.86194944 4289703593
-0.073190898 0.19267364 0.85892165 4290098864
-0.071447827 0.19204903 0.85589397 4290558902
-0.069739409 0.19184285 0.85487467 4290953403
-0.068024918 0.19142744 0.85285121 4291282882
-0.066333823 0.19143048 0.85283613 4291742920
-0.064636655 0.19122429 0.85181695 4292136908
-0.062947437 0.19122733 0.85180181 4292596946
-0.061255891 0.19102113 0.85078269 4292003270
-0.059568096 0.19081493 0.84976357 4292594638
-0.057881203 0.19102722 0.85075253 4293978345
-0.056193862 0.19103026 0.85073745 4294109675
-0.054501344 0.19124258 0.85172635 4294373618
-0.052812126 0.19124562 0.85171127 4294572024
-0.051122908 0.19124867 0.85169619 4294703866
-0.049433686 0.19125171 0.85168111 4294901245
-0.047731794 0.19146404 0.85266995 4294901245
-0.046040703 0.19146709 0.85265481 4294769916
-0.044333186 0.19167942 0.8536436 4294836222
-0.042621922 0.19189176 0.85463238 4294835965
-0.040886734 0.1923134 0.85662496 4294901502
-0.039144047 0.19273505 0.85861748 4294901759
-0.037393861 0.19315672 0.86060995 4294836222
-0.035687767 0.19315979 0.86059469 4294836222
-0.033926334 0.19358148 0.86258703 4294901502
-0.032127853 0.19421248 0.86558312 4294901502
-0.03025528 0.19526213 0.87058657 4294901502
-0.028463848 0.19568387 0.87257868 4294836222
-0.080255523 0.19668564 0.87006086 4288651419
-0.078427173 0.19563331 0.86502409 4288651419
-0.076675177 0.19521421 0.86300033 4289111712
-0.074930683 0.1947951 0.86097658 4289637800
-0.073193684 0.19437598 0.85895288 4290164401
-0.071464188 0.19395684 0.8569293 4290624952
-0.069753893 0.19374879 0.85590994 4290888124
-0.068047345 0.19354074 0.85489058 4291348419
-0.066344552 0.19333269 0.85387129 4291677641
-0.064651579 0.19333574 0.85385621 4291941069
-0.062954411 0.19312766 0.85283697 4292270034
-0.061260987 0.1929196 0.85181773 4292599000
-0.059571769 0.19292264 0.85180265 4293454054
-0.057882551 0.19292569 0.85178757 4293783019
-0.056193333 0.19292873 0.85177249 4294046191
-0.054498944 0.19314292 0.85276139 4294375157
-0.052807849 0.19314598 0.85274631 4294638330
-0.051125675 0.19293788 0.85172719 4294901502
-0.049436457 0.19294092 0.85171211 4294901502
-0.047747239 0.19294398 0.85169703 4294901502
-0.046043474 0.19315818 0.85268587 4294836222
-0.044335961 0.19337238 0.85367465 4294836222
-0.042624701 0.1935866 0.85466349 4294836222
-0.040869351 0.19422315 0.85766 4294836222
-0.039124794 0.19464855 0.85965258 4294901502
-0.037372738 0.19507398 0.8616451 4294901502
-0.035664771 0.19507705 0.86162984 4294901502
-0.033901468 0.19550249 0.86362225 4294901502
-0.032101121 0.19613913 0.86661839 4294901502
-0.030195273 0.19740933 0.87262583 4294967295
-0.028400097 0.19783483 0.87461793 4294835967
-0.080235399 0.19819564 0.86908811 4288584856
-0.078387827 0.19692096 0.86304694 4288584856
-0.076658778 0.19671106 0.86202741 4289111713
-0.074916154 0.19628821 0.86000359 4289506727
-0.073196478 0.1960783 0.85898411 4290164401
-0.071466975 0.19565542 0.85696042 4290558903
-0.069768384 0.19565848 0.85694528 4290888381
-0.068050124 0.19523558 0.8549217 4291283396
-0.066347323 0.19502564 0.85390234 4291612105
-0.064654358 0.19502869 0.85388726 4292006608
-0.062961392 0.19503175 0.85387212 4292270036
-0.061266091 0.1948218 0.85285288 4293059296
-0.059574995 0.19482486 0.85283774 4293454054
-0.057882484 0.19504091 0.85382676 4293783019
-0.056189518 0.19504397 0.85381162 4294112241
-0.054496549 0.19504702 0.85379648 4294375670
-0.052810624 0.19483705 0.8527773 4294638843
-0.051128447 0.19462709 0.85175818 4294836222
-0.049439229 0.19463013 0.8517431 4294836222
-0.047737341 0.19484621 0.852732 4294836222
-0.04604625 0.19484925 0.85271686 4294836222
-0.04433874 0.19506533 0.85370576 4294836222
-0.04262748 0.19528143 0.85469455 4294836222
-0.040892303 0.19571057 0.85668731 4294901502
-0.039127588 0.19635276 0.85968387 4294901502
-0.03737554 0.19678193 0.86167645 4294901502
-0.035667572 0.196785 0.8616612 4294901502
-0.033876609 0.19742724 0.86465752 4294901502
-0.032074399 0.19806951 0.86765373 4294901502
-0.030166693 0.19935097 0.8736614 4294835709
-0.028336357 0.19999328 0.87665737 4294901503
-0.08021526 0.19970189 0.86811537 4288913308
-0.078390628 0.19863078 0.8630783 4288913308
-0.076642372 0.19820419 0.86105442 4289045920
-0.074901611 0.19777757 0.85903054 4289638056
-0.073183812 0.19756579 0.85801107 4290098607
-0.071469761 0.197354 0.85699159 4290493366
-0.069759458 0.19714221 0.85597217 4290888382
-0.068052903 0.19693041 0.85495275 4291151812
-0.066342145 0.19650374 0.85292917 4291612363
-0.06465105 0.19650678 0.85291409 4291941071
-0.062959954 0.19650984 0.85289901 4292270037
-0.061268862 0.19651289 0.85288388 4293059809
-0.059578229 0.19673082 0.8538729 4293454567
-0.057883848 0.19694875 0.85486192 4293651946
-0.056189004 0.19695181 0.85484678 4294112497
-0.054499324 0.19673997 0.85382754 4294375670
-0.052813396 0.19652814 0.85280836 4294573050
-0.051131215 0.1963163 0.85178918 4294770173
-0.049431209 0.19653425 0.85277814 4294836222
-0.047727451 0.19675219 0.85376704 4294836222
-0.046034485 0.19675525 0.8537519 4294901502
-0.044341516 0.1967583 0.85373682 4294901502
-0.042630259 0.19697626 0.85472566 4294901502
-0.04089509 0.19740915 0.85671842 4294901502
-0.039152421 0.19784205 0.85871118 4294901502
-0.037402254 0.19827497 0.86070383 4294901502
-0.035670374 0.19849297 0.86169249 4294901502
-0.033879422 0.19914083 0.86468893 4294901502
-0.032047682 0.20000365 0.86868918 4294901502
-0.03016953 0.20108142 0.87369311 4294966782
-0.028339205 0.20172937 0.8766892 4294966783
-0.080218077 0.2014211 0.8681469 4289175452
-0.07839343 0.20034061 0.86310971 4289175452
-0.076664381 0.20012699 0.86209005 4289307808
-0.074921742 0.19969663 0.86006612 4289768616
-0.073202059 0.19948298 0.85904658 4290164144
-0.07148613 0.19926931 0.85802704 4290493623
-0.06977395 0.19905564 0.85700756 4290822845
-0.068055682 0.19862524 0.85498387 4291151554
