# .PCD v0.7 - Point Cloud Data file format
VERSION 0.7
FIELDS x y z rgba
SIZE 4 4 4 4
TYPE F F F U
COUNT 1 1 1 1
WIDTH 1046
HEIGHT 1
VIEWPOINT 0 0 0 1 0 0 0
POINTS 1046
DATA ascii
-0.051064067 0.1610184 0.85214174 4294769916
-0.049362119 0.16119698 0.85312998 4294309365
-0.04766915 0.16120003 0.85311484 4292269782
-0.045976181 0.16120309 0.8530997 4293717228
-0.044283215 0.16120614 0.85308456 4294901502
-0.042590246 0.1612092 0.85306948 4294901502
-0.040877048 0.1613878 0.85405755 4294901502
-0.039160103 0.16156641 0.85504568 4294901502
-0.03741543 0.16192056 0.85703695 4294704123
-0.035689112 0.16209918 0.85802495 4294704123
-0.03387586 0.16280448 0.86202246 4294901502
-0.032077216 0.16333425 0.86501664 4294901502
-0.030298796 0.16368847 0.86700761 4294901502
-0.028446175 0.16439384 0.87100476 4294835709
-0.026578555 0.16509923 0.87500179 4294966782
-0.024658836 0.16598023 0.88000172 4294966783
-0.02279832 0.16651011 0.88299537 4294966783
-0.085459128 0.16619509 0.87254924 4288518545
-0.083677247 0.16584355 0.87052637 4288781462
-0.081878088 0.16531464 0.86749995 4288781462
-0.080067292 0.16460837 0.8634699 4289439648
-0.078292504 0.16407944 0.86044365 4290032043
-0.076548122 0.16372782 0.85842115 4290361009
-0.074811235 0.16337618 0.85639876 4290624438
-0.073112644 0.16337925 0.85638356 4290756281
-0.071400523 0.16320495 0.8553648 4291151040
-0.06970381 0.16320802 0.85534966 4291480261
-0.068007089 0.16321108 0.85533446 4291612104
-0.066302478 0.16303678 0.85431582 4292072655
-0.064601608 0.16286246 0.85329711 4292335572
-0.062908642 0.16286552 0.85328203 4292927710
-0.0612134 0.16269119 0.85226339 4293256675
-0.059521906 0.16251686 0.85124487 4292993503
-0.057832688 0.1625199 0.85122973 4293454055
-0.05614347 0.16252296 0.85121465 4293980400
-0.054454252 0.162526 0.85119957 4294440951
-0.05275793 0.16270643 0.85218787 4294704123
-0.051066838 0.16270949 0.85217279 4294440951
-0.049364895 0.16288994 0.85316104 4292730333
-0.0476592 0.1630704 0.85414922 4289835441
-0.045964357 0.16307347 0.85413408 4293059298
-0.04425304 0.16325393 0.85512227 4294901502
-0.042556323 0.16325699 0.85510713 4294901502
-0.040839378 0.16343747 0.85609525 4294901502
-0.039118689 0.16361795 0.85708332 4294901502
-0.03741822 0.16362102 0.85706812 4294309365
-0.035691902 0.16380152 0.85805619 4294506744
-0.033906389 0.16433689 0.86105061 4294835709
-0.032080028 0.1650497 0.86504811 4294901502
-0.030301616 0.16540767 0.86703914 4294835709
-0.028415658 0.16629799 0.87203962 4293190885
-0.026510952 0.16718833 0.87703985 4294966783
-0.024587499 0.16807871 0.88203996 4294966783
-0.022723243 0.16861422 0.88503373 4294769405
-0.020929432 0.16879484 0.88602114 4279768601
-0.085433438 0.16774447 0.8715772 4288518290
-0.08365342 0.16738917 0.86955428 4288847255
-0.081831358 0.16667542 0.86552405 4288847255
-0.080047198 0.16614087 0.86249763 4289308063
-0.07827428 0.16560631 0.85947132 4289966250
-0.076550916 0.16543016 0.85845238 4290361009
-0.074814022 0.16507478 0.85642987 4290690231
-0.07310003 0.1648986 0.85541111 4290822074
-0.071389787 0.16472244 0.85439229 4291151040
-0.069694944 0.1647255 0.85437715 4291545798
-0.068000101 0.16472855 0.85436201 4291743434
-0.066305257 0.16473161 0.85434687 4292006862
-0.064604387 0.16455542 0.85332823 4292401365
-0.062911414 0.16455847 0.85331309 4292993503
-0.061213896 0.16420302 0.85129094 4292993503
-0.059524678 0.16420607 0.8512758 4289835440
-0.05783546 0.16420911 0.85126072 4291875024
-0.056146238 0.16421217 0.85124564 4292532954
-0.05445702 0.16421521 0.85123056 4293717228
-0.052760705 0.16439752 0.85221887 4294638330
-0.05106961 0.16440058 0.85220379 4294046449
-0.049378518 0.16440363 0.85218871 4292927712
-0.047674701 0.16458596 0.85317695 4290295992
-0.045967136 0.16476829 0.8541652 4292006610
-0.044255823 0.16495064 0.85515338 4294901502
-0.042559106 0.16495369 0.85513824 4294901502
-0.040842164 0.16513605 0.85612637 4294901502
-0.039143573 0.16513911 0.85611123 4294901502
-0.037421007 0.16532148 0.85709929 4294309365
-0.035694696 0.16550384 0.85808736 4294440951
-0.03393691 0.16586554 0.86007869 4294704123
-0.032112438 0.16658585 0.86407638 4294901502
-0.030335905 0.16694757 0.86606747 4293848814
-0.028451838 0.16784725 0.87106812 4292730334
-0.026549023 0.16874696 0.87606859 4294703868
-0.02462746 0.16964671 0.88106889 4294835198
-0.022765087 0.17018785 0.88406271 4293387752
-0.020932309 0.17054966 0.88605332 4279044877
-0.08543627 0.16947117 0.87160885 4288518547
-0.083656251 0.16911212 0.86958587 4288913561
-0.081834175 0.16839088 0.86555552 4288913561
-0.080049999 0.1678507 0.86252898 4289242783
-0.078298099 0.1674916 0.8605063 4289835178
-0.076572858 0.16731359 0.85948735 4290229937
-0.074834086 0.16695446 0.85746473 4290427316
-0.073102809 0.16659532 0.85544223 4290756281
-0.071392566 0.16641727 0.8544234 4291085247
-0.069697723 0.16642033 0.85440826 4291545798
-0.06800288 0.16642338 0.85439312 4291743177
-0.066308036 0.16642645 0.85437799 4291875019
-0.064613193 0.1664295 0.85436285 4292006606
-0.062914193 0.16625144 0.85334414 4292861917
-0.061218943 0.16607337 0.85232544 4293125089
-0.059527446 0.16589528 0.8513068 4290427577
-0.057838228 0.16589832 0.85129172 4289374890
-0.05614901 0.16590138 0.85127664 4292335575
-0.054454572 0.16608556 0.852265 4293914863
-0.052763477 0.16608861 0.85224992 4294573050
-0.051063415 0.1662728 0.85323828 4294835966
-0.049370445 0.16627586 0.85322315 4294638843
-0.04767748 0.16627891 0.85320801 4294704636
-0.045969915 0.16646312 0.85419625 4294704636
-0.044258606 0.16664734 0.8551845 4294835966
-0.042543542 0.16683157 0.85617274 4294901502
-0.040824734 0.16701581 0.85716093 4294901502
-0.039124265 0.16701888 0.85714573 4294901502
-0.037399828 0.16720311 0.85813385 4294901502
-0.035697486 0.16720618 0.85811859 4294901502
-0.033911992 0.1677528 0.86111325 4294901502
-0.032085653 0.16848062 0.86511105 4294901502
-0.030307254 0.16884609 0.86710221 4293059298
-0.028421327 0.16975515 0.87210304 4294046193
-0.026516654 0.17066424 0.87710363 4293519338
-0.02459323 0.17157337 0.8821041 4294637819
-0.022728993 0.17212012 0.88509804 4291019204
-0.020853505 0.17266691 0.88809186 4278584070
-0.085496157 0.17156379 0.87364817 4288518546
-0.083685733 0.17101803 0.87062132 4288781976
-0.081861764 0.17028931 0.86659074 4288781976
-0.080075711 0.16974351 0.86356413 4289308578
-0.078321934 0.16938065 0.86154133 4289835179
-0.076575652 0.16901779 0.85951859 4290361523
-0.074836873 0.16865492 0.85749596 4290558902
-0.073120996 0.168475 0.85647702 4290756282
-0.071408875 0.16829509 0.8554582 4290953661
-0.069712155 0.16829816 0.855443 4291348676
-0.068015441 0.16830121 0.85542786 4291677897
-0.066310816 0.16812128 0.8544091 4291283139
-0.064609937 0.16794133 0.85339034 4289309349
-0.062916972 0.16794439 0.8533752 4290098867
-0.061219435 0.16758144 0.85135287 4290098867
-0.059529807 0.16740148 0.85033423 4291809485
-0.057840999 0.16758753 0.85132271 4292599003
-0.056155123 0.16740757 0.85030407 4293915120
-0.05446256 0.16759363 0.85129255 4294441464
-0.052766252 0.1677797 0.85228091 4294770429
-0.051075157 0.16778275 0.85226583 4294836222
-0.049384065 0.16778579 0.8522507 4294836222
-0.047680255 0.16797188 0.85323906 4294836222
-0.045972697 0.16815796 0.85422736 4294836222
-0.044277854 0.16816102 0.85421222 4294836222
-0.042564668 0.16834712 0.85520047 4294836222
-0.04082752 0.16871627 0.8571921 4294901502
-0.039104965 0.16890238 0.85818028 4294901502
-0.037378658 0.1690885 0.85916841 4294901502
-0.035648599 0.16927463 0.86015654 4294901502
-0.033887077 0.16964382 0.86214793 4294901502
-0.03202929 0.17056219 0.86714911 4294901502
-0.030247144 0.17093143 0.86914033 4294572537
-0.028357483 0.17184986 0.87414128 4294835710
-0.026484288 0.17258526 0.87813878 4293387752
-0.024559006 0.17350377 0.88313937 4294769405
-0.022692904 0.17405616 0.88613337 4288321947
-0.020897226 0.17424241 0.8871209 4278321155
-0.083715215 0.17292771 0.87165678 4288584855
-0.081889369 0.17219147 0.86762607 4288584855
-0.080101423 0.17164005 0.86459935 4289111456
-0.078303695 0.17090377 0.86056888 4289572007
-0.07655929 0.17053716 0.85854608 4290229937
-0.074856944 0.17054023 0.85853088 4290361523
-0.073139191 0.17035845 0.85751194 4289506215
-0.071425192 0.17017666 0.85649306 4288716955
-0.069726601 0.17017972 0.85647786 4290493623
-0.06801822 0.16999792 0.85545897 4291546311
-0.066313595 0.16981611 0.85444015 4291414725
-0.064606681 0.16944943 0.85241771 4290428088
-0.062915586 0.16945247 0.85240263 4291941328
-0.061219919 0.16908577 0.85038024 4291612363
-0.059532575 0.16908883 0.85036522 4292665051
-0.057845231 0.16909187 0.85035014 4293717739
-0.056157887 0.16909491 0.85033506 4294178291
-0.054470547 0.16909795 0.85031998 4294441464
-0.052776113 0.16928589 0.85130841 4294704636
-0.051077932 0.16947383 0.85229683 4294836222
-0.049386837 0.16947688 0.85228175 4294836222
-0.04768303 0.16966483 0.85327011 4294836222
-0.045990065 0.16966788 0.85325497 4294836222
-0.044297095 0.16967094 0.85323989 4294836222
-0.04258579 0.16985892 0.8542282 4294836222
-0.04085052 0.1702318 0.85621989 4294901502
-0.039107755 0.17060471 0.85821152 4294901502
-0.037357491 0.17097764 0.86020303 4294901502
-0.035625558 0.17116563 0.86119115 4294901502
-0.03386217 0.17153858 0.8631826 4294901502
-0.032002524 0.17246634 0.86818397 4294901502
-0.03021851 0.17283931 0.87017524 4294836222
-0.028326988 0.17376713 0.87517631 4294835710
-0.026416721 0.17469499 0.88017726 4294374647
-0.024487704 0.17562287 0.88517803 4294966783
-0.02261786 0.17618088 0.88817209 4284769381
-0.020940943 0.17581415 0.88614994 4278321409
-0.08377137 0.17502782 0.87369621 4288585112
-0.081916973 0.17409739 0.86866146 4288979870
-0.080104232 0.17335364 0.86463076 4288914077
-0.078327529 0.17279658 0.86160398 4289703593
-0.07658124 0.17242621 0.85958111 4290164144
-0.074859738 0.17224257 0.85856211 4290295987
-0.073157392 0.17224564 0.85854691 4287467145
-0.071441516 0.17206196 0.85752791 4285361769
-0.069741048 0.17206503 0.85751277 4287401352
-0.068020999 0.17169462 0.85549015 4290888381
-0.066316374 0.17151095 0.85447127 4291283139
-0.064615488 0.17132726 0.85345244 4291414727
-0.062922522 0.17133032 0.8534373 4292467673
-0.061224975 0.17095986 0.85141486 4292730845
-0.059535343 0.17077616 0.85039616 4293059809
-0.057847999 0.1707792 0.85038108 4293783532
-0.056160655 0.17078224 0.850366 4294112497
-0.054468103 0.17097205 0.85135454 4294375671
-0.052771799 0.17116186 0.85234296 4294638843
-0.051080704 0.17116491 0.85232788 4294836222
-0.049389612 0.17116797 0.85231274 4294836222
-0.047685806 0.1713578 0.85330117 4294836222
-0.045978256 0.17154764 0.85428953 4294836222
-0.04426695 0.17173748 0.8552779 4294836222
-0.042570233 0.17174053 0.85526276 4294901502
-0.040833097 0.17211719 0.85725451 4294901502
-0.039088462 0.17249385 0.85924613 4294901502
-0.037360288 0.17268372 0.86023438 4294901502
-0.03562836 0.17287359 0.86122251 4294901502
-0.03383727 0.17343709 0.8642174 4294901502
-0.032005344 0.17418742 0.86821556 4294836222
-0.030158421 0.17493777 0.8722136 4294836222
-0.028263167 0.17587498 0.87721479 4294901503
-0.026384372 0.17662539 0.88121253 4294901247
-0.024416413 0.17774947 0.88721675 4294177266
-0.020821324 0.17812946 0.88919193 4278386946
-0.083774209 0.17675827 0.87372792 4288453526
-0.081919797 0.17581847 0.86869305 4289045663
-0.080107048 0.17506722 0.86466217 4289045663
-0.07830929 0.17431594 0.86063147 4289703593
-0.076584034 0.17413042 0.85961241 4290098351
-0.074862525 0.17394489 0.85859334 4290361780
-0.073160186 0.17394796 0.85857815 4288848798
-0.071444303 0.17376243 0.85755914 4284835168
-0.069732167 0.17357689 0.8565402 4285098341
-0.068023786 0.17339134 0.85552126 4288717212
-0.066319153 0.17320578 0.85450232 4291085760
-0.06462431 0.17320883 0.85448718 4292072913
-0.062925301 0.17302327 0.85346836 4292401879
-0.061230037 0.1728377 0.85244954 4293191395
-0.059538528 0.17265213 0.85143077 4293454567
-0.05784931 0.17265517 0.85141569 4293783532
-0.056160089 0.17265822 0.85140061 4294046704
-0.054470871 0.17266126 0.85138547 4294375670
-0.052781653 0.17266431 0.85137039 4294573050
-0.051083479 0.172856 0.85235888 4294836222
-0.049392384 0.17285906 0.8523438 4294836222
-0.047688585 0.17305076 0.85333222 4294836222
-0.045995615 0.17305382 0.85331714 4294836222
-0.044286191 0.17324552 0.85430551 4294901502
-0.042573016 0.17343725 0.85529387 4294901502
-0.040835887 0.17381763 0.85728568 4294901502
-0.039091256 0.17419805 0.85927743 4294901502
-0.037363086 0.17438979 0.86026567 4294901502
-0.03560533 0.17477024 0.8622573 4294901502
-0.033812374 0.17533936 0.86525226 4294901502
-0.031978589 0.17609718 0.86925054 4294901502
-0.03019271 0.17647767 0.87124193 4294901502
-0.028299347 0.17742424 0.87624335 4294966782
-0.026387235 0.17837085 0.8812446 4294966782
-0.024382215 0.17969488 0.88825232 4294308595
-0.083777048 0.17848873 0.87375969 4288519062
-0.081897825 0.17734909 0.86772072 4288519062
-0.080109857 0.1767808 0.86469364 4289111456
-0.078333132 0.17621249 0.86166668 4289637800
-0.076605998 0.17602509 0.8606475 4290098351
-0.074865319 0.17564723 0.85862458 4290361780
-0.073147558 0.17545982 0.85760552 4290559416
-0.071433544 0.17527241 0.85658652 4287072387
-0.069734953 0.17527547 0.85657132 4286217078
-0.068026565 0.17508805 0.85555238 4291283139
-0.066321932 0.17490062 0.85453343 4291875021
-0.064627089 0.17490368 0.85451829 4292204243
-0.062932245 0.17490673 0.85450315 4292730844
-0.061235107 0.17471929 0.85348427 4293125602
-0.059541717 0.17453183 0.85246545 4293388774
-0.057850625 0.17453489 0.85245037 4293783532
-0.05615953 0.17453794 0.85243523 4294046705
-0.054468438 0.17454098 0.85242015 4294441463
-0.052777342 0.17454404 0.85240501 4294638843
-0.051077295 0.1747376 0.85339355 4294836222
-0.049384329 0.17474066 0.85337842 4294836222
-0.047678657 0.17493424 0.8543669 4294836222
-0.045983814 0.17493731 0.85435176 4294836222
-0.044272516 0.17513089 0.85534012 4294901502
-0.042557471 0.1753245 0.85632855 4294901502
-0.040818471 0.17570864 0.85832042 4294901502
-0.039094053 0.17590226 0.85930866 4294901502
-0.03734193 0.17628643 0.86130041 4294901502
-0.035608135 0.17648005 0.86228865 4294901502
-0.033815186 0.17705481 0.86528373 4294901502
-0.031981412 0.17782015 0.86928213 4294901502
-0.030195544 0.17820437 0.87127358 4294901502
-0.028302195 0.17916031 0.87627518 4294901502
-0.026390096 0.1801163 0.88127661 4294966782
-0.024385098 0.18145345 0.88828456 4294506231
-0.083779886 0.18021919 0.87379146 4288584855
-0.081900641 0.1790683 0.86775225 4288584855
-0.080112666 0.17849438 0.86472505 4288979870
-0.078356981 0.17811279 0.86270189 4289572007
-0.07664714 0.17811587 0.86268663 4289966765
-0.074902706 0.17773426 0.86066359 4290295987
-0.073165767 0.17735264 0.85864061 4290625209
-0.071436331 0.17697099 0.85661769 4290098865
-0.06973774 0.17697406 0.85660249 4290033072
-0.068029352 0.17678475 0.85558349 4291348932
-0.066324711 0.17659545 0.85456455 4291875277
-0.064623818 0.17640615 0.85354561 4292072914
-0.062930852 0.17640918 0.85353047 4292401879
-0.061235584 0.17621987 0.85251158 4293125602
-0.059544493 0.17622292 0.8524965 4293454567
-0.057851944 0.17641835 0.85348511 4293783533
-0.056158978 0.1764214 0.85346997 4294112499
-0.054466009 0.17642446 0.85345483 4294441464
-0.05277304 0.17642751 0.85343975 4294704636
-0.051071122 0.17662297 0.85442823 4294770429
-0.049365453 0.17681842 0.85541677 4294836221
-0.047656033 0.17701389 0.8564052 4294836221
-0.045957442 0.17701694 0.85639006 4294901502
-0.044242401 0.17721242 0.85737848 4294901502
-0.042541932 0.17721549 0.85736328 4294901502
-0.040821265 0.17741098 0.85835165 4294901502
-0.039074771 0.17779888 0.86034352 4294901502
-0.037344731 0.17799439 0.86133176 4294901502
-0.035585117 0.17838232 0.86332351 4294901502
-0.033790302 0.17896271 0.8663187 4294901502
-0.031984236 0.17954309 0.86931378 4294901502
-0.030198375 0.17993109 0.87130529 4294901502
-0.028305041 0.1808964 0.87630701 4294901502
-0.026392959 0.18186174 0.88130862 4294901502
-0.024387982 0.18321203 0.88831687 4292598490
-0.083756052 0.18175544 0.87281919 4288387476
-0.081903465 0.1807875 0.86778378 4288387476
-0.080115475 0.18020797 0.86475652 4289045663
-0.078359783 0.17982262 0.8627333 4289506470
-0.076630771 0.17963149 0.86171407 4289835692
-0.0749055 0.17944035 0.86069489 4290230450
-0.073168561 0.17905496 0.85867184 4290493623
-0.071439117 0.17866957 0.8566488 4290954174
-0.069740526 0.17867264 0.85663366 4291085760
-0.068032131 0.17848146 0.8556146 4291480775
-0.06632749 0.17829028 0.8545956 4291875534
-0.064620547 0.17790486 0.85257286 4292204500
-0.062929451 0.1779079 0.85255772 4292533465
-0.061236057 0.1777167 0.85153884 4292796637
-0.059546839 0.17771976 0.85152376 4293454568
-0.057856172 0.17791705 0.85251242 4293717741
-0.056165077 0.1779201 0.85249728 4294112499
-0.054473985 0.17792316 0.8524822 4294375671
-0.052775819 0.17812048 0.8534708 4294638843
-0.051073901 0.1783178 0.85445935 4294836221
-0.049379058 0.17832085 0.85444421 4294836220
-0.04765882 0.17871247 0.85643637 4294836220
-0.045960229 0.17871553 0.85642117 4294901501
-0.044261634 0.1787186 0.85640603 4294901502
-0.042563044 0.17872167 0.85639083 4294901502
-0.040844254 0.17891902 0.85737926 4294901502
-0.039099641 0.17931068 0.85937124 4294901502
-0.037347533 0.17970234 0.86136311 4294901502
-0.035613742 0.17989972 0.86235136 4294901502
-0.033793118 0.18068004 0.86635017 4294901502
-0.031987064 0.18126605 0.86934537 4294901502
-0.030201206 0.18165779 0.87133694 4294901502
-0.028307889 0.18263248 0.8763389 4294966782
-0.026395822 0.18360721 0.88134062 4294966782
-0.024427937 0.18477629 0.88734567 4290295479
-0.083812237 0.18387619 0.87485898 4288519062
-0.081955887 0.18289888 0.8698234 4288979870
-0.080164142 0.18231373 0.86679596 4288979870
-0.078404695 0.18192464 0.86477262 4289572007
-0.076671928 0.18173164 0.86375332 4289835692
-0.074925601 0.18134253 0.86173016 4290295730
-0.073186778 0.1809534 0.859707 4290559158
-0.071455456 0.18056427 0.8576839 4290757308
-0.069743313 0.18037122 0.85666484 4291151552
-0.068034917 0.18017818 0.85564578 4291546054
-0.066330269 0.17998512 0.85462672 4291940300
-0.064629368 0.17979206 0.85360771 4292269780
-0.062932223 0.17959899 0.85258877 4292532952
-0.061238825 0.17940591 0.85156983 4292861917
-0.059550036 0.1796051 0.85255855 4293454567
-0.057857499 0.17980427 0.85354722 4293717739
-0.056164529 0.17980732 0.85353208 4294178290
-0.054466367 0.18000652 0.85452074 4294441719
-0.052771524 0.18000957 0.8545056 4294508025
-0.051067736 0.18020879 0.85549414 4294770684
-0.049371019 0.18021184 0.855479 4294770684
-0.04764891 0.1806072 0.85747123 4294770685
-0.045933876 0.18080643 0.85845971 4294836222
-0.04423153 0.1808095 0.85844451 4294836222
-0.042529188 0.18081257 0.85842931 4294836222
-0.040826846 0.18081564 0.85841405 4294836222
-0.039080366 0.18121105 0.8604061 4294901502
-0.037326388 0.18160647 0.86239803 4294901502
-0.035590731 0.18180574 0.86338633 4294835709
-0.03376824 0.18259354 0.86738527 4294901502
-0.031930752 0.18338138 0.87138402 4294901502
-0.030141152 0.18377687 0.87337565 4294967295
-0.028277418 0.18456475 0.87737423 4294572537
-0.026363492 0.18554886 0.88237613 4294901502
-0.024430817 0.18653299 0.88737792 4288453275
-0.022596221 0.18692856 0.88936913 4278386946
-0.081983522 0.1848198 0.87085903 4288848284
-0.080166958 0.18403105 0.86682743 4288848284
-0.078407504 0.18363823 0.86480409 4289440678
-0.07667473 0.18344334 0.86378473 4289901485
-0.074928403 0.18305048 0.86176145 4290296243
-0.073189579 0.18265761 0.85973823 4290624951
-0.071458243 0.18226473 0.85771513 4290888637
-0.069746099 0.18206981 0.85669595 4291086786
-0.068037696 0.18187489 0.85567689 4291481031
-0.066340983 0.18187794 0.85566169 4291809740
-0.064638205 0.181683 0.85464269 4292204499
-0.062939182 0.18148807 0.85362363 4292467928
-0.061246213 0.18149112 0.85360855 4293256418
-0.059553243 0.18149418 0.85359341 4293519590
-0.05785739 0.18189324 0.85558593 4293848812
-0.056160673 0.18189631 0.85557079 4294243570
-0.054463953 0.18189937 0.85555559 4294572280
-0.052767236 0.18190242 0.85554045 4294835452
-0.051070519 0.18190549 0.85552531 4294901502
-0.049373802 0.18190855 0.85551012 4294901502
-0.047651701 0.18230766 0.8575024 4294901502
-0.045936666 0.18250877 0.85849094 4294901502
-0.044217881 0.18270987 0.85947943 4294966782
-0.042513665 0.18271294 0.85946417 4294900989
-0.040809449 0.18271601 0.85944897 4294966782
-0.039083164 0.18291713 0.86043739 4294966782
-0.037329193 0.18331631 0.86242938 4294901246
-0.035567719 0.18371549 0.86442131 4294901502
-0.03377106 0.18431275 0.8674168 4294835709
-0.031904019 0.18530615 0.8724193 4294572537
-0.030112552 0.18570539 0.87441099 4294638330
-0.028246954 0.18650077 0.87840962 4292664540
-0.026331168 0.18749425 0.88341171 4294835709
-0.024470763 0.18809162 0.8864066 4286282619
-0.022754865 0.18789671 0.88538742 4278452993
-0.082011156 0.18674447 0.87189478 4288783004
-0.080169775 0.1857484 0.86685896 4288783004
-0.078389257 0.18515196 0.86383146 4289440934
-0.076658353 0.18495521 0.8628121 4289901485
-0.074913897 0.1845586 0.86078876 4290099377
-0.073176935 0.18416196 0.85876548 4290559158
-0.071447477 0.18376532 0.85674232 4290953403
-0.069737196 0.18356854 0.85572314 4291217089
-0.068040483 0.18357159 0.855708 4291611078
-0.066351697 0.18377452 0.85669678 4291347649
-0.064647041 0.18357772 0.85567766 4291808457
-0.062950328 0.18358077 0.85566252 4292795096
-0.061251298 0.18338396 0.85464346 4293256674
-0.059556454 0.18338701 0.85462832 4293651176
-0.057860173 0.18358995 0.85561705 4293980655
-0.056163456 0.18359302 0.85560191 4294178290
-0.054466736 0.18359607 0.85558671 4294572793
-0.052777082 0.18339925 0.85456777 4294769916
-0.051082239 0.1834023 0.85455263 4294901502
-0.049387395 0.18340535 0.85453749 4294967295
-0.047667176 0.18380822 0.85652983 4294835967
-0.045954023 0.18401119 0.85751843 4294835967
-0.044237114 0.18421417 0.85850698 4294967295
-0.042516459 0.18441716 0.85949546 4294966783
-0.040812243 0.18442023 0.85948026 4294966271
-0.039085962 0.18462323 0.86046869 4294901502
-0.037331998 0.18502614 0.86246073 4294967038
-0.035570532 0.18542908 0.86445278 4294967039
-0.03374619 0.1862319 0.86845195 4292861919
-0.031906854 0.18703473 0.87245101 4290427578
-0.030083954 0.18763766 0.87544632 4292664540
-0.028216494 0.18844055 0.87944514 4293125091
-0.026334036 0.18924345 0.88344383 4294835709
-0.024510702 0.1896465 0.88543528 4283190348
-0.022874545 0.18904981 0.88240904 4278255873
-0.082038797 0.18867289 0.87293059 4288783004
-0.080195524 0.18766743 0.86789459 4289506727
-0.078413121 0.18706539 0.86486691 4289506727
-0.076680347 0.18686676 0.86384755 4289901485
-0.074934006 0.1864664 0.86182415 4290164657
-0.073195167 0.18606603 0.85980076 4290493622
-0.071463823 0.18566564 0.85777748 4290888381
-0.069751665 0.18546697 0.8567583 4291085760
-0.068053074 0.18547004 0.8567431 4291412158
-0.066354483 0.1854731 0.85672796 4289368469
-0.064655893 0.18547617 0.85671276 4290817968
-0.062957294 0.18547924 0.85669762 4292529101
-0.06125639 0.18528055 0.8556785 4292859607
-0.059560113 0.18548536 0.85666722 4293123806
-0.057861518 0.18548842 0.85665208 4294045164
-0.056159616 0.18569325 0.8576408 4294110958
-0.054464333 0.18549456 0.85662174 4294308595
-0.052772801 0.18529585 0.85560268 4294703611
-0.051076084 0.1852989 0.85558754 4294768892
-0.049379364 0.18530197 0.8555724 4294702842
-0.047669962 0.18550681 0.85656101 4294966270
-0.045942251 0.18591343 0.85855341 4294900477
-0.044223472 0.18611829 0.85954195 4294702585
-0.042519256 0.18612136 0.85952675 4294833915
-0.040794853 0.18632622 0.86051524 4294372594
-0.039066702 0.1865311 0.86150372 4294439156
-0.037286934 0.18713957 0.86449951 4294703098
-0.035521723 0.18754627 0.86649156 4294901246
-0.033693645 0.18835658 0.87049085 4291413960
-0.031850573 0.18916692 0.87449002 4290427578
-0.030023932 0.18977548 0.87748539 4293322470
-0.028186044 0.19038406 0.88048071 4293783023
-0.026301721 0.19119447 0.88447952 4294835711
-0.024513576 0.19139946 0.88546741 4281216815
-0.022916345 0.19059531 0.88143754 4278453252
-0.082041636 0.19040146 0.8729623 4288651418
-0.080198348 0.18938665 0.86792612 4289375141
-0.078415938 0.18877897 0.86489838 4289375141
-0.076683156 0.18857847 0.86387897 4289835692
-0.074919492 0.18797076 0.86085135 4290164657
-0.073182516 0.18756664 0.85882795 4290493622
-0.07146661 0.1873661 0.85780871 4290757052
-0.069766141 0.18736917 0.85779351 4291216832
-0.068055861 0.18716863 0.85677427 4291937219
-0.06635727 0.18717168 0.85675913 4290614686
-0.064658672 0.18717475 0.85674393 4290813861
-0.062955894 0.1869742 0.85572475 4291405229
-0.061259173 0.18697725 0.85570961 4290745248
-0.059562456 0.18698032 0.85569447 4291732399
-0.057865739 0.18698338 0.85567933 4292588221
-0.05616571 0.18719007 0.85666806 4291930293
-0.054472301 0.1869895 0.85564899 4292523201
-0.05278264 0.18678892 0.85462993 4293117393
-0.051087797 0.18679197 0.85461479 4292527566
-0.049392954 0.18679503 0.85459965 4293778146
-0.047685429 0.18700173 0.85558838 4293119448
-0.045959599 0.18741211 0.85758084 4293185242
-0.044242699 0.18761884 0.85856944 4293974244
-0.042540357 0.18762191 0.85855418 4293905628
-0.040797651 0.18803231 0.86054653 4293514718
-0.039047446 0.18844272 0.86253875 4294570743
-0.037265811 0.18905683 0.86553466 4294505720
-0.035498735 0.18946727 0.86752677 4294900990
-0.033668794 0.19028509 0.87152618 4291611595
-0.031823859 0.19110294 0.87552547 4292861919
-0.030026782 0.19151343 0.87751728 4294507001
-0.028155597 0.19233133 0.88151634 4294769916
-0.026304593 0.19294555 0.88451165 4294967295
-0.024553506 0.19294871 0.88449597 4280558371
-0.022880277 0.19254448 0.88247317 4278781959
-0.082069285 0.1923355 0.87399822 4288519833
-0.080224104 0.19131131 0.86896181 4289309349
-0.078418747 0.19049256 0.8649298 4289309349
-0.076685958 0.19029017 0.86391038 4289835693
-0.074922286 0.18967685 0.86088264 4290361781
-0.07318531 0.18926896 0.85885918 4290559160
-0.071469396 0.18906656 0.85783988 4290888381
-0.069768935 0.18906963 0.85782468 4291151553
-0.068068467 0.1890727 0.85780948 4291013038
-0.066360056 0.18887027 0.85679024 4290877601
-0.064655393 0.18866785 0.85577106 4289955216
-0.062958673 0.1886709 0.85575593 4290153108
-0.061261956 0.18867396 0.85574073 4290416025
-0.059565239 0.18867703 0.85572559 4292521145
-0.057868518 0.18868008 0.85571045 4293113539
-0.056171801 0.18868315 0.85569525 4291271849
-0.054480262 0.18848069 0.85467619 4292983240
-0.052785419 0.18848374 0.85466105 4293708504
-0.051090576 0.1884868 0.85464591 4292394184
-0.049395733 0.18848987 0.85463077 4294895859
-0.047688212 0.18869844 0.85561949 4292984782
-0.045976941 0.18890704 0.85660815 4293048779
-0.044261917 0.18911564 0.85759681 4294759140
-0.042543147 0.18932424 0.85858542 4294100954
-0.040800449 0.18973839 0.86057782 4294171879
-0.039028198 0.1903581 0.86357391 4294966014
-0.037244696 0.19097783 0.86656988 4294834940
-0.035501555 0.19118649 0.8675583 4294901246
-0.033671625 0.1920118 0.87155783 4294769659
-0.031826701 0.19283715 0.8755573 4294835709
-0.029966777 0.19366251 0.87955654 4294901502
-0.02815846 0.19407679 0.88154835 4294901501
-0.026307466 0.19469664 0.88454372 4294177777
-0.024482274 0.19511093 0.88653541 4279768854
-0.022844216 0.19449738 0.8835088 4279045130
-0.082096942 0.19427329 0.87503415 4288585628
-0.080249876 0.19323973 0.86999762 4289309349
-0.078463696 0.19262081 0.86696965 4289901486
-0.076707967 0.19220923 0.86494595 4290164658
-0.07494241 0.19159028 0.86191815 4290164658
-0.073188104 0.1909713 0.85889041 4290559160
-0.07147219 0.19076702 0.85787112 4290757052
-0.069783419 0.19097744 0.85886002 4291151296
-0.068061434 0.19056579 0.85683662 4291478978
-0.066354893 0.19036148 0.85581738 4291609537
-0.064658172 0.19036455 0.85580218 4292592583
-0.062961459 0.19036761 0.85578704 4293446609
-0.061267059 0.19057804 0.85677588 4292524739
-0.059568468 0.19058111 0.85676074 4292985803
-0.057871301 0.19037679 0.85574156 4293907675
-0.056174584 0.19037986 0.85572642 4293117647
-0.054483045 0.19017553 0.8547073 4293512662
-0.052788202 0.19017859 0.85469216 4294435562
-0.051084429 0.19038904 0.85568094 4294238441
-0.049387712 0.19039209 0.85566574 4294964222
-0.047678318 0.19060256 0.85665452 4294762477
-0.045965176 0.19081303 0.85764319 4292853453
-0.044248283 0.1910235 0.85863185 4294633203
-0.042545941 0.19102657 0.85861665 4294899454
-0.040803246 0.19144447 0.86060911 4294966270
-0.039031003 0.19206981 0.86360532 4294966782
-0.037247512 0.19269517 0.86660141 4294901246
-0.035478573 0.19311312 0.86859363 4294901502
-0.033674456 0.19373851 0.87158954 4294901502
-0.031829543 0.19457135 0.87558907 4294901502
-0.029969634 0.19540422 0.87958848 4294901501
-0.028194621 0.1956148 0.88057667 4294901499
-0.026275164 0.19665515 0.88557959 4292137935
-0.082074963 0.19579642 0.8740617 4288585628
-0.080229752 0.19475348 0.86902499 4289177763
-0.078445442 0.19412893 0.8659969 4289835693
-0.076691575 0.19371359 0.86397314 4289835693
-0.074927889 0.19308901 0.86094528 4290164658
-0.073190898 0.19267364 0.85892165 4290493880
-0.071474977 0.19246748 0.85790229 4290888381
-0.069774508 0.19247055 0.85788709 4291019967
-0.06806422 0.19226438 0.85686779 4291546054
-0.066349722 0.19184896 0.85484439 4291874507
-0.064654879 0.19185202 0.85482919 4292268753
-0.062960036 0.19185507 0.85481405 4292926683
-0.061267521 0.19206738 0.85580301 4293321184
-0.059571255 0.1922797 0.85679191 4293584356
-0.05787551 0.19186425 0.85476863 4294110958
-0.056180667 0.19186731 0.85475349 4294243315
-0.054490995 0.1916611 0.85373437 4294505974
-0.052798029 0.19166416 0.85371923 4294900732
-0.051096138 0.19187647 0.85470808 4294900989
-0.049401294 0.19187953 0.85469294 4294901503
-0.047706451 0.1918826 0.8546778 4294966783
-0.04598251 0.19230421 0.8566705 4294833914
-0.044267498 0.19251655 0.85765922 4294966527
-0.042548731 0.19272891 0.85864788 4294966527
-0.040806044 0.19315057 0.86064041 4294901503
-0.039055858 0.19357222 0.86263287 4294835965
-0.037274253 0.1942032 0.86562908 4294835965
-0.035532989 0.1944156 0.86661756 4294901502
-0.033704963 0.19525591 0.87061739 4294901502
-0.031861935 0.19609624 0.8746171 4294901502
-0.030003911 0.19693661 0.87861669 4294967037
-0.02819748 0.19735838 0.88060868 4294966522
-0.026242867 0.19861743 0.88661546 4291808712
-0.082077801 0.19752687 0.87409341 4288519579
-0.080255523 0.19668564 0.87006086 4289177509
-0.078469329 0.19605549 0.86703265 4289638572
-0.076713584 0.19563639 0.86500883 4290230451
-0.074965335 0.1952173 0.86298501 4290230451
-0.073209137 0.19458707 0.8599571 4290625209
-0.071491346 0.19437905 0.85893768 4290888381
-0.069789 0.19438212 0.85892248 4291019967
-0.068076834 0.19417407 0.85790312 4291414470
-0.066360459 0.19375491 0.8558796 4291677643
-0.064663738 0.19375797 0.85586447 4292401366
-0.062967017 0.19376104 0.85584927 4292796381
-0.061272632 0.19397521 0.85683823 4293059809
-0.059573583 0.19376715 0.85581899 4293388774
-0.057878289 0.19355908 0.85479975 4293915118
-0.056183446 0.19356214 0.85478461 4294178290
-0.054488603 0.19356519 0.85476947 4294507000
-0.05279376 0.19356826 0.85475433 4294769916
-0.051098917 0.19357131 0.85473919 4294966782
-0.049404074 0.19357437 0.85472405 4294901502
-0.047696561 0.19378857 0.85571283 4294901502
-0.045985296 0.19400279 0.85670167 4294901502
-0.044253867 0.19442818 0.85869431 4294901502
-0.042551521 0.19443125 0.85867912 4294901502
-0.040808842 0.19485664 0.8606717 4294901502
-0.039058663 0.19528206 0.86266422 4294901502
-0.037277065 0.19591866 0.86566055 4294966782
-0.035510011 0.19634411 0.86765295 4294901502
-0.033680122 0.19719192 0.8716529 4294770686
-0.031835232 0.19803976 0.87565273 4294835966
-0.029975345 0.19888763 0.87965244 4294901501
-0.028167047 0.19931315 0.88164443 4294967291
-0.026280912 0.20016107 0.8856439 4291808455
-0.082080632 0.19925733 0.87412518 4288847517
-0.080258355 0.1984086 0.87009245 4289308324
-0.078493223 0.19798578 0.86806846 4289835180
-0.076735601 0.19756295 0.86604452 4290033072
-0.074985474 0.1971401 0.86402065 4290493624
-0.073227391 0.19650425 0.86099261 4290493624
-0.071494132 0.19608137 0.85896891 4290888127
-0.069791794 0.19608444 0.85895371 4291085762
-0.068079621 0.19587453 0.8579343 4291414984
-0.066371195 0.19566461 0.85691494 4292072914
-0.064666525 0.19545469 0.85589558 4292336086
-0.062969804 0.19545774 0.85588044 4292730844
-0.061273087 0.1954608 0.85586524 4293257188
-0.059576366 0.19546387 0.8558501 4293520360
-0.057881068 0.19525392 0.85483086 4293849325
-0.056186225 0.19525698 0.85481572 4294309877
-0.054491382 0.19526003 0.85480058 4294507257
-0.052796539 0.19526309 0.85478538 4294770173
-0.051101696 0.19526614 0.85477024 4294901502
-0.049406853 0.1952692 0.8547551 4294836222
-0.047712009 0.19527225 0.85473996 4294901502
-0.045988083 0.19570138 0.85673279 4294901502
-0.044256657 0.1961305 0.85872555 4294901502
-0.042536024 0.19634661 0.85971433 4294901502
-0.040791474 0.19677576 0.86170697 4294901502
-0.039039426 0.19720493 0.8636995 4294901502
-0.037255961 0.19784716 0.86669594 4294966782
-0.035512831 0.19806331 0.86768448 4294901502
-0.033682954 0.19891863 0.87168455 4294901502
-0.031838078 0.19977397 0.87568456 4294901502
-0.029978203 0.20062934 0.87968439 4294835708
-0.028136618 0.20127167 0.88268024 4294967035
-0.080261178 0.20013157 0.87012404 4289308836
-0.078496046 0.19970499 0.86809999 4289769643
-0.07673841 0.1992784 0.86607599 4290164401
-0.074988276 0.19885181 0.86405206 4290427831
-0.073230185 0.19821034 0.8610239 4290427831
-0.071496926 0.19778371 0.85900015 4290888127
-0.069794588 0.19778678 0.85898495 4291085762
-0.068082407 0.19757499 0.85796547 4291546570
-0.066373982 0.1973632 0.85694605 4292072914
-0.064669304 0.19715139 0.85592669 4292401879
-0.062968373 0.19693957 0.85490733 4292862430
-0.061271198 0.19672777 0.85388803 4293191395
-0.059578691 0.1969457 0.85487705 4293586154
-0.057883848 0.19694875 0.85486192 4293849327
-0.056189004 0.19695181 0.85484678 4294244085
-0.054494161 0.19695486 0.85483164 4294507257
-0.052792277 0.19717282 0.8558206 4294770429
-0.051104475 0.19696099 0.85480136 4294836222
-0.04942042 0.19674914 0.85378218 4294836222
-0.047714788 0.1969671 0.85477108 4294836222
-0.046005405 0.19718505 0.85575998 4294901502
-0.044275861 0.19761793 0.8577528 4294901502
-0.042538818 0.19805083 0.85974556 4294901502
-0.040794276 0.19848372 0.86173826 4294901502
-0.039042231 0.19891664 0.86373091 4294901502
-0.037258778 0.19956449 0.86672741 4294770686
-0.035489861 0.19999744 0.86871994 4294770686
-0.033658121 0.20086026 0.87272012 4294901502
-0.03184092 0.20150816 0.87571633 4294901502
-0.029949646 0.20258598 0.8807202 4294966781
-0.028139485 0.20301899 0.8827123 4294702838
-0.080286965 0.20207123 0.87116003 4289570468
-0.078519948 0.2016409 0.86913592 4289834923
-0.076760434 0.20121057 0.8671118 4290164145
-0.075008422 0.20078023 0.86508781 4290493367
-0.073248446 0.20013314 0.86205953 4290822332
-0.071513303 0.19970277 0.86003566 4290822332
-0.069809087 0.19970584 0.86002046 4291349191
-0.068095036 0.19949219 0.85900092 4291743949
-0.066384725 0.19927852 0.8579815 4292007121
-0.064678177 0.19906484 0.85696208 4292270293
-0.062975369 0.19885115 0.85594267 4292796638
-0.061276313 0.19863747 0.85492331 4293388517
-0.05958147 0.19864053 0.85490817 4293651178
-0.057885215 0.19886035 0.85589719 4294045680
-0.056188498 0.1988634 0.85588205 4294374645
-0.054491777 0.19886646 0.85586685 4294637560
-0.052788023 0.19908629 0.85685581 4294835196
-0.051098343 0.19887258 0.85583657 4294966525
-0.049401626 0.19887565 0.85582137 4294966782
-0.047704905 0.19887871 0.85580623 4294901502
-0.045993652 0.19909854 0.85679513 4294967295
-0.044262242 0.19953518 0.85878801 4294966782
-0.042541612 0.19975503 0.85977685 4294966782
-0.040776916 0.20040847 0.8627736 4294901502
-0.039000969 0.20106193 0.86577028 4294901502
-0.037213776 0.20171542 0.86876684 4294836222
-0.035441115 0.20215212 0.87075937 4294901502
-0.033633299 0.20280564 0.87375581 4294966782
-0.031814232 0.20345919 0.87675208 4294966526
-0.029952506 0.20432955 0.88075215 4294965502
-0.080266826 0.20357747 0.87018728 4287656567
-0.078480594 0.20292482 0.86715865 4289436058
-0.076744042 0.20270932 0.86613894 4290294190
-0.074993894 0.20227522 0.86411488 4290886583
-0.073251247 0.2018411 0.86209089 4291084219
-0.071516097 0.20140699 0.86006695 4291084219
-0.069811881 0.20141006 0.86005169 4291414726
-0.068097822 0.20119452 0.85903215 4292595662
-0.066387519 0.20097898 0.85801268 4292990933
-0.064674869 0.2005448 0.85598898 4293254620
-0.062973931 0.20032924 0.85496956 4293715172
-0.061279092 0.2003323 0.85495442 4293847271
-0.059584249 0.20033537 0.85493928 4293913064
-0.057889406 0.20033842 0.85492414 4294242287
-0.056194562 0.20034148 0.85490894 4294637046
-0.05449456 0.20056318 0.85589802 4294703353
-0.052797843 0.20056623 0.85588282 4294769403
-0.051101126 0.20056929 0.85586768 4294966525
-0.049404409 0.20057236 0.85585254 4294966782
-0.047707688 0.20057541 0.85583735 4294966270
-0.045996439 0.20079713 0.85682631 4294966527
-0.044265032 0.20123751 0.85881925 4294966271
-0.042544406 0.20145924 0.85980809 4294966527
-0.040779721 0.20211831 0.86280501 4294966526
-0.039003782 0.2027774 0.86580175 4294965500
-0.037216596 0.20343649 0.86879843 4294966782
-0.035443943 0.20387696 0.87079102 4294966782
-0.033663791 0.20431742 0.87278354 4294966271
-0.031846609 0.20497659 0.87577999 4294963705
-0.029955365 0.20607314 0.88078415 4291197329
-0.08029262 0.2055209 0.87122333 4286063932
-0.07848341 0.20464215 0.86719018 4285935682
-0.076746851 0.20442477 0.86617041 4286598745
-0.074996702 0.20398693 0.86414629 4288378236
-0.073269516 0.20376953 0.86312658 4287113536
-0.071532488 0.20333166 0.86110258 4287115590
-0.069826394 0.20333475 0.86108732 4286987084
-0.068110459 0.20311734 0.86006773 4288239718
-0.066390306 0.20267944 0.85804385 4289032572
-0.064683743 0.202462 0.85702437 4289758606
-0.062980935 0.20224458 0.85600489 4290878114
-0.061281871 0.20202714 0.85498548 4291996852
-0.059587028 0.2020302 0.85497034 4292919237
-0.057892185 0.20203325 0.8549552 4293182922
-0.056197342 0.20203631 0.85494006 4293709010
-0.054497343 0.20225988 0.85592914 4294103256
-0.052793596 0.20248346 0.85691816 4294432736
-0.051095001 0.20248652 0.85690296 4294564322
-0.049396411 0.20248958 0.85688782 4294432223
-0.047697816 0.20249265 0.85687262 4294365916
-0.045984697 0.20271625 0.85786158 4294102745
-0.04425142 0.20316038 0.85985458 4293641938
-0.042528924 0.20338398 0.86084348 4292784063
-0.040782522 0.20382814 0.86283636 4292118430
-0.039006595 0.20449285 0.86583322 4291653260
-0.03721942 0.20515758 0.86883003 4291583360
-0.035472549 0.20538123 0.86981869 4291974525
-0.033666626 0.206046 0.87281525 4292910258
-0.031819925 0.20693134 0.8768158 4291913096
-0.080364361 0.20791273 0.87426847 4286654013
-0.078528419 0.20680416 0.86923063 4287178560
-0.076768883 0.20636258 0.86720634 4287178301
-0.075016856 0.20592098 0.8651821 4287702849
-0.073287793 0.20570172 0.86416239 4287833921
-0.071562476 0.20548245 0.86314267 4288227653
-0.069852635 0.20548554 0.86312741 4288883529
-0.068123102 0.20504391 0.86110336 4289080138
-0.066401064 0.20460226 0.85907942 4288685638
-0.064692624 0.20438296 0.85805988 4288817226
-0.062987939 0.20416366 0.85704035 4288949068
-0.061286997 0.20394436 0.85602087 4289147218
-0.059589807 0.20372503 0.85500145 4289476441
-0.057894964 0.20372809 0.85498631 4289871199
-0.056200121 0.20373115 0.85497117 4290331236
-0.054494973 0.20417897 0.85696447 4290659945
-0.052789353 0.20440443 0.85795355 4290791019
-0.051088888 0.2044075 0.85793835 4290988654
-0.04938842 0.20441057 0.85792315 4291317362
-0.0476753 0.20463604 0.85891211 4291317363
-0.045972958 0.20463911 0.85889691 4291580535
-0.044237815 0.20508699 0.86088997 4291974780
-0.042513445 0.20531248 0.86187887 4292698503
-0.040765177 0.20576039 0.86387181 4292764809
-0.039009411 0.2062083 0.86586469 4292895624
-0.037198342 0.20710109 0.86986566 4293026184
-0.035449602 0.20732662 0.87085432 4292960647
-0.033641811 0.20799701 0.873851 4292106108
-0.031734198 0.20933472 0.87985969 4291976576
-0.0803672 0.20964319 0.87430018 4284816172
-0.078531243 0.20852524 0.86926222 4282980128
-0.076771699 0.2080799 0.86723787 4284027939
-0.075019665 0.20763457 0.86521357 4285208362
-0.073290601 0.20741343 0.8641938 4286061874
-0.071565285 0.20719229 0.86317402 4287112252
-0.069855444 0.20719537 0.86315876 4287964994
-0.068125896 0.20674999 0.86113471 4288358213
-0.066403858 0.20630459 0.85911065 4288884556
-0.064689316 0.20585918 0.85708672 4289475667
-0.062986501 0.20563799 0.85606718 4289803863
-0.061287429 0.20541681 0.8550477 4290132829
-0.059592113 0.20519562 0.85402822 4290527331
-0.057899144 0.20519868 0.85401309 4290789991
-0.0562029 0.20542598 0.85500222 4291249772
-0.054502908 0.20565329 0.85599136 4291249772
-0.052792143 0.20610489 0.85798472 4291447151
-0.051091675 0.20610796 0.85796952 4292039287
-0.049391206 0.20611103 0.85795432 4292368509
-0.047678091 0.20633836 0.85894334 4292500352
-0.045975748 0.20634145 0.85892814 4292697988
-0.044257008 0.20656879 0.8599171 4292632965
-0.042516246 0.20702043 0.86191022 4293094286
-0.040767983 0.2074721 0.86390322 4292633735
-0.039012223 0.20792377 0.86589617 4291778426
-0.037225064 0.20859975 0.86889315 4290660971
-0.035452429 0.20905145 0.87088597 4288821078
-0.03364465 0.20972747 0.87388277 4287311432
-0.078597367 0.21092458 0.87230742 4280884764
-0.07687065 0.21092771 0.87229198 4281212445
-0.075109236 0.21047862 0.87026751 4281539355
-0.073339835 0.20980343 0.86723864 4281932059
-0.071595289 0.20935433 0.86521435 4282651674
-0.069869973 0.20913132 0.86419457 4283634206
-0.068148404 0.20890829 0.86317486 4284486948
-0.066430584 0.20868526 0.86215514 4285143082
-0.06471651 0.20846222 0.86113548 4286127153
-0.063006192 0.20823918 0.86011589 4286980923
-0.061297268 0.20779002 0.85809189 4287638339
-0.059596322 0.20756695 0.85707235 4288426316
-0.057897732 0.20757002 0.85705715 4288820048
-0.056195866 0.20779921 0.85804629 4288951635
-0.054490253 0.20802842 0.85903543 4289346136
-0.052780889 0.20825763 0.86002451 4289477466
-0.051076673 0.2082607 0.86000931 4289937761
-0.049361683 0.20848992 0.86099833 4289610079
-0.047655594 0.20849299 0.86098307 4289347676
-0.045934983 0.20872223 0.86197203 4289282397
-0.044194225 0.20917763 0.86396521 4288758108
-0.042464238 0.20940687 0.86495411 4288233047
-0.040710356 0.20986229 0.86694711 4287511634
-0.038948979 0.21031773 0.86894011 4286396747
-0.037156206 0.21099934 0.87193716 4285546057
-0.035403721 0.21122862 0.87292588 4284301637
-0.033619843 0.21168409 0.87491864 4283647300
-0.076950401 0.21356627 0.87634188 4280492573
-0.075146772 0.21265753 0.87230819 4280557596
-0.073358133 0.21174875 0.86827469 4280754204
-0.071598098 0.21106791 0.86524582 4280753690
-0.069884509 0.211071 0.8652305 4281016092
-0.068151206 0.21061812 0.86320621 4281278493
-0.066433385 0.21039322 0.86218649 4281475102
-0.064719312 0.21016832 0.86116678 4282064414
-0.063008986 0.2099434 0.86014712 4282522913
-0.061302416 0.20971847 0.85912752 4283047975
-0.059599109 0.20926555 0.85710353 4283506986
-0.057900514 0.2092686 0.85708833 4283900973
-0.056198657 0.20949967 0.85807753 4283900717
-0.054493044 0.20973076 0.85906667 4284164145
-0.052783683 0.20996183 0.86005574 4284163889
-0.051070575 0.21019293 0.86104488 4284624441
-0.049353715 0.21042404 0.8620339 4284690234
-0.047633108 0.21065514 0.86302292 4284824129
-0.045908749 0.21088624 0.86401188 4284431937
-0.044164248 0.2113454 0.86600506 4284435789
-0.042430516 0.21157652 0.86699396 4284436045
-0.040652748 0.21226373 0.86999124 4284239180
-0.03888575 0.21272293 0.87198424 4284041801
-0.037111253 0.21318214 0.87397718 4283844680
-0.035355024 0.21341331 0.87496591 4283451976
-0.078708567 0.21552719 0.87739378 4280296221
-0.076934017 0.21507064 0.87536913 4280427550
-0.075132243 0.21415438 0.87133533 4280361243
-0.073345467 0.21323811 0.86730164 4280426779
-0.071587302 0.21255164 0.86427271 4280492829
-0.069875583 0.21255472 0.8642574 4280558366
-0.06814415 0.21209809 0.8622331 4280754974
-0.066428199 0.21187131 0.86121333 4280886817
-0.064709894 0.21141466 0.85918915 4280886559
-0.063003317 0.21118787 0.8581695 4281214754
-0.061300486 0.21096106 0.85714984 4281411878
-0.059601411 0.21073425 0.85613024 4281740329
-0.057904691 0.2107373 0.8561151 4282002732
-0.05620471 0.21097025 0.8571043 4282134575
-0.054506116 0.21097331 0.85708916 4282332723
-0.05280051 0.21120627 0.8580783 4282464310
-0.051073372 0.21189901 0.86107618 4282595382
-0.049356516 0.21213199 0.86206526 4282858040
-0.047623273 0.21259487 0.86405861 4282924859
-0.045897041 0.21282786 0.86504757 4283518281
-0.04416706 0.21306086 0.86603653 4283650123
-0.042433333 0.21329387 0.86702549 4283715916
-0.040655576 0.21398669 0.87002289 4283584074
-0.038888581 0.21444964 0.87201595 4283452745
-0.037090205 0.21514252 0.87501311 4283190087
-0.035306338 0.21560548 0.87700605 4282664000
-0.078732528 0.21749499 0.87843031 4280427293
-0.076936856 0.21680297 0.8754009 4280427293
-0.075135075 0.21587922 0.87136698 4280361500
-0.073348284 0.21495543 0.86733317 4280361500
-0.071576498 0.21403162 0.86329949 4280295707
-0.069866657 0.21403471 0.86328423 4280427293
-0.068137094 0.21357432 0.86125988 4280493086
-0.066431001 0.2135774 0.86124462 4280624672
-0.064718798 0.21334873 0.8602249 4280690465
-0.063010342 0.21312007 0.85920519 4280953637
-0.061303273 0.21265964 0.85718101 4281150759
-0.059604678 0.21266271 0.85716581 4281479468
-0.057906087 0.21266577 0.85715067 4281479211
-0.056207493 0.21266884 0.85713547 4281610540
-0.054503765 0.21290366 0.85812473 4281807919
-0.052796286 0.21313849 0.85911393 4282005555
-0.05107617 0.21360509 0.86110747 4282137141
-0.049359318 0.21383995 0.86209655 4282202934
-0.047626078 0.21430658 0.86409003 4282400827
-0.045899849 0.21454144 0.86507905 4282993733
-0.044186261 0.21454453 0.86506373 4283257162
-0.042454407 0.21477941 0.86605269 4283256649
-0.040678535 0.21547787 0.8690502 4283322187
-0.038891416 0.21617635 0.8720476 4283453518
-0.037093043 0.21687484 0.87504494 4284374620
-0.035309184 0.21734156 0.87703788 4286019445
-0.078672037 0.21853217 0.87544817 4280427293
-0.07690122 0.21806812 0.87342334 4280427293
-0.075120538 0.21737045 0.87039393 4280295707
-0.07333561 0.21643917 0.86636007 4280229914
-0.071565688 0.21550785 0.86232626 4281085223
-0.069845982 0.21527733 0.86130643 4282795841
-0.068120159 0.21481319 0.85928202 4280822051
-0.066417813 0.21481626 0.85926682 4281348651
-0.064715475 0.21481933 0.85925162 4281480237
-0.06300889 0.21458878 0.85823184 4281085223
-0.061306059 0.21435823 0.85721219 4281874995
-0.059606973 0.21412766 0.85619247 4281282859
-0.057910256 0.21413073 0.85617733 4281085480
-0.056213539 0.21413378 0.85616219 4281808690
-0.054516822 0.21413685 0.85614699 4281413675
-0.052820101 0.21413991 0.85613185 4281808690
-0.051096734 0.2148439 0.85912991 4282532927
-0.049383633 0.21508062 0.8601191 4281743154
-0.047654152 0.21555099 0.86211264 4282861891
-0.045917168 0.21602137 0.86410612 4284243544
-0.044205453 0.21602446 0.8640908 4286283128
-0.042475477 0.21626121 0.86507988 4285362027
-0.040721621 0.21673162 0.86707318 4286875267
-0.038938262 0.21743572 0.8700707 4288783264
-0.037119769 0.21837351 0.87407243 4287270025
-0.035337791 0.21884397 0.87606549 4288388507
-0.07865376 0.22002904 0.87447518 4280427293
-0.076904051 0.2197967 0.87345505 4280361500
-0.075123362 0.21909341 0.87042558 4280361500
-0.073338427 0.21815462 0.86639154 4280229914
-0.071568489 0.21721581 0.86235762 4282072119
-0.069848776 0.21698341 0.86133772 4285032804
-0.068122953 0.21651553 0.85931325 4281348653
-0.066420607 0.2165186 0.85929805 4283322443
-0.064718269 0.21652167 0.85928285 4283454285
-0.063011676 0.21628924 0.85826308 4282335547
-0.061311211 0.21629231 0.85824788 4287533194
-0.059610743 0.21629538 0.85823268 4284704096
-0.057911657 0.21606293 0.85721296 4283585615
-0.056213066 0.216066 0.85719782 4286612093
-0.054519601 0.21583356 0.85617816 4284374875
