# .PCD v0.7 - Point Cloud Data file format
VERSION 0.7
FIELDS x y z rgba
SIZE 4 4 4 4
TYPE F F F U
COUNT 1 1 1 1
WIDTH 1047
HEIGHT 1
VIEWPOINT 0 0 0 1 0 0 0
POINTS 1047
DATA ascii
-0.081619225 0.15673943 0.85733831 4290756281
-0.079872988 0.15640283 0.8553161 4291151039
-0.078155257 0.15623604 0.8542974 4291480004
-0.076460414 0.15623909 0.85428226 4291808969
-0.074748315 0.1560723 0.85326368 4292006604
-0.073055342 0.15607536 0.85324854 4292335826
-0.071348868 0.15590855 0.85222995 4292533205
-0.069657773 0.15591159 0.85221487 4292862171
-0.067956917 0.15574478 0.85119635 4293322722
-0.066259816 0.15557796 0.85017788 4293585894
-0.064572468 0.15558101 0.8501628 4293915116
-0.062880993 0.15541418 0.84914434 4294046702
-0.061197784 0.15558709 0.85013264 4294441461
-0.05951044 0.15559013 0.85011756 4294638841
-0.057823095 0.15559319 0.85010248 4294704634
-0.056132387 0.15576611 0.85109073 4294836220
-0.054448407 0.15559927 0.85007232 4294836220
-0.052753951 0.15577221 0.85106051 4294901501
-0.051046759 0.15611506 0.8530519 4294901502
-0.049342927 0.15628801 0.85404003 4294901502
-0.04762261 0.15663087 0.8560313 4294901502
-0.045909405 0.15680385 0.85701931 4294901502
-0.044225425 0.156637 0.85600096 4294901502
-0.042508468 0.15680999 0.85698891 4294901502
-0.040767528 0.15715289 0.85898 4294901502
-0.038996976 0.15766573 0.86197418 4294901502
-0.037215173 0.1581786 0.86496818 4294901502
-0.035447985 0.15852155 0.86695904 4294901502
-0.03359009 0.15937431 0.87195909 4294901502
-0.031713445 0.16022711 0.87695891 4294901502
-0.088746496 0.16014461 0.86746675 4289045917
-0.086936116 0.15963261 0.8644405 4289506468
-0.085136995 0.15912059 0.86141437 4290098349
-0.083402388 0.15895195 0.86039549 4290361779
-0.08164677 0.15861161 0.85837311 4290822074
-0.079921544 0.15844296 0.85735434 4291085246
-0.078200065 0.15827431 0.85633558 4291348674
-0.076482333 0.15810566 0.85531688 4291612103
-0.07476835 0.15793699 0.85429823 4291875275
-0.073073506 0.15794004 0.85428309 4292270033
-0.071365155 0.15777136 0.85326445 4292533206
-0.069672182 0.15777442 0.85324937 4292862171
-0.067969456 0.15760574 0.85223079 4293322722
-0.066270471 0.15743704 0.85121226 4293585894
-0.06457524 0.15726835 0.85019374 4293849066
-0.062887892 0.15727139 0.85017866 4293915116
-0.061200552 0.15727443 0.85016358 4294441461
-0.059513595 0.15744923 0.85115188 4294770427
-0.057824377 0.15745227 0.8511368 4294770427
-0.056135159 0.15745533 0.85112166 4294836220
-0.054445941 0.15745836 0.85110658 4294836220
-0.052749611 0.15763319 0.85209483 4294836220
-0.051040549 0.15797979 0.85408622 4294901501
-0.049345706 0.15798284 0.85407108 4294901502
-0.047625393 0.15832946 0.85606247 4294901502
-0.045912191 0.15850431 0.85705048 4294901502
-0.044211723 0.15850738 0.85703528 4294901502
-0.042492896 0.15868223 0.85802329 4294901502
-0.040750086 0.15902889 0.86001444 4294901502
-0.038977671 0.15954736 0.86300868 4294901502
-0.037170019 0.16023766 0.86700594 4294901502
-0.035399087 0.16058436 0.86899686 4294901502
-0.03356519 0.1612747 0.87299389 4294901502
-0.08878158 0.1620374 0.86850196 4288782746
-0.086938933 0.1613462 0.86447191 4289308835
-0.085139796 0.16082855 0.86144567 4289900972
-0.083405189 0.16065803 0.86042678 4290361523
-0.081649564 0.16031393 0.85840434 4290756794
-0.07992433 0.16014342 0.85738552 4290954173
-0.078223862 0.16014649 0.85737032 4291217345
-0.076504253 0.15997596 0.85635161 4291612103
-0.074788399 0.15980542 0.85533285 4291941069
-0.073076285 0.15963487 0.85431421 4292270034
-0.071367927 0.15946433 0.85329551 4292598999
-0.069674961 0.15946738 0.85328043 4292927964
-0.067972228 0.15929683 0.85226178 4293256929
-0.066265352 0.15895264 0.85023975 4293520101
-0.064578004 0.15895568 0.85022467 4293783530
-0.062886521 0.15878509 0.84920621 4293849323
-0.061201051 0.15878813 0.84919113 4294441461
-0.059515975 0.15896481 0.85017949 4294573048
-0.057828631 0.15896785 0.85016441 4294836220
-0.056137931 0.15914454 0.85115266 4294836220
-0.054453943 0.15897393 0.85013425 4294836220
-0.052759491 0.15915063 0.8511225 4294901501
-0.05105231 0.15950097 0.85311401 4294901502
-0.04935934 0.15950403 0.85309893 4294901502
-0.047640912 0.15985438 0.85509032 4294901502
-0.045914982 0.16020477 0.85708171 4294901502
-0.044214513 0.16020784 0.85706651 4294901502
-0.04249569 0.16038457 0.85805452 4294901502
-0.040752888 0.16073498 0.86004573 4294901502
-0.038958371 0.16143274 0.8640433 4294901502
-0.037148859 0.16213053 0.86804068 4294901502
-0.035401914 0.16230732 0.86902845 4294901502
-0.033568028 0.16300516 0.87302566 4294901502
-0.031719144 0.16370301 0.87702268 4294901502
-0.086972132 0.16323523 0.86550707 4289374628
-0.085142598 0.1625365 0.86147702 4289769386
-0.083407983 0.16236413 0.86045808 4290295987
-0.081652358 0.16201627 0.85843557 4290625208
-0.079927124 0.16184388 0.85741675 4290954173
-0.078226656 0.16184695 0.85740155 4291283138
-0.076526187 0.16185002 0.85738635 4291677639
-0.074808449 0.1616776 0.85636759 4291940812
-0.073079064 0.16132972 0.85434526 4292204241
-0.071384221 0.16133277 0.85433012 4292664792
-0.06967774 0.16116033 0.85331148 4292993757
-0.067975 0.1609879 0.85229284 4293322722
-0.066268116 0.16063997 0.85027075 4293520101
-0.064580776 0.16064301 0.85025567 4293849068
-0.062889285 0.16047056 0.84923708 4293849325
-0.061206084 0.16064911 0.85022551 4294441205
-0.05951874 0.16065215 0.85021043 4294573048
-0.057831395 0.16065519 0.85019535 4294770427
-0.056144055 0.16065823 0.85018027 4294836220
-0.054456711 0.16066128 0.85016519 4294836220
-0.052762263 0.16083984 0.85115349 4294901501
-0.051055085 0.16119394 0.85314506 4294901502
-0.049351264 0.16137251 0.85413331 4294901502
-0.047630966 0.16172662 0.85612476 4294901502
-0.045917768 0.16190523 0.85711288 4294901502
-0.044217303 0.1619083 0.85709769 4294901502
-0.042498481 0.1620869 0.85808575 4294901502
-0.040735457 0.1626166 0.86108029 4294901502
-0.038939081 0.16332187 0.86507797 4294901502
-0.037127703 0.16402717 0.86907548 4294901502
-0.035378888 0.16420582 0.87006325 4294901502
-0.033570867 0.16473562 0.87305737 4294440951
-0.031692393 0.16561653 0.87805772 4294835709
-0.08700534 0.16512801 0.86654228 4289177506
-0.08517392 0.16442178 0.86251205 4289835179
-0.083410785 0.1640702 0.86048943 4290295730
-0.081655145 0.16371861 0.8584668 4290559159
-0.079952806 0.16372168 0.8584516 4290888380
-0.078229442 0.16354741 0.85743272 4291283138
-0.076528974 0.16355047 0.85741752 4291677383
-0.074811235 0.16337618 0.85639876 4291940555
-0.073097244 0.1632019 0.85537994 4292269520
-0.071387 0.1630276 0.85436124 4292598742
-0.069680512 0.1628533 0.85334253 4292927964
-0.067977771 0.16267899 0.85232383 4293322722
-0.066278778 0.16250467 0.85130519 4293520101
-0.06458956 0.16250771 0.85129011 4293717480
-0.062900342 0.16251077 0.85127503 4293849323
-0.061211124 0.16251381 0.85125995 4294507254
-0.059521906 0.16251686 0.85124487 4294704634
-0.057832688 0.1625199 0.85122973 4294770427
-0.05614347 0.16252296 0.85121465 4294836220
-0.054454252 0.162526 0.85119957 4294836220
-0.05275793 0.16270643 0.85218787 4294901501
-0.051048886 0.16306429 0.8541795 4294901502
-0.049343195 0.16324475 0.85516775 4294901502
-0.047633752 0.16342521 0.85615593 4294901502
-0.045920558 0.16360569 0.85714406 4294901502
-0.04422009 0.16360874 0.85712892 4294901502
-0.042482924 0.16396666 0.85912031 4294901502
-0.040718034 0.16450198 0.86211491 4294901502
-0.038941894 0.16503733 0.86510938 4294901502
-0.037130531 0.16575012 0.86910707 4294901502
-0.035355866 0.16610809 0.87109816 4294901502
-0.033545982 0.1666435 0.87409234 4293322470
-0.031665649 0.1675338 0.87909287 4294769916
-0.088854596 0.16755904 0.87060428 4288124817
-0.087008156 0.16684535 0.86657375 4289045920
-0.085176721 0.16613162 0.86254346 4289703593
-0.083413579 0.16577628 0.86052072 4290164144
-0.081657939 0.16542093 0.85849804 4290559158
-0.079932697 0.1652448 0.8574791 4291019453
-0.078211203 0.16506864 0.85646027 4291217089
-0.076512612 0.16507171 0.85644507 4291611590
-0.074796744 0.16489555 0.85542625 4291940555
-0.07306923 0.16454016 0.85340381 4292269776
-0.071376257 0.16454321 0.85338873 4292533205
-0.069671638 0.16436702 0.85236996 4292993757
-0.067970768 0.16419083 0.85135126 4293256929
-0.066273652 0.16401464 0.85033262 4293520358
-0.064592332 0.16419692 0.8513211 4293717737
-0.062903114 0.16419998 0.85130602 4293783530
-0.061213896 0.16420302 0.85129094 4294441461
-0.059524678 0.16420607 0.8512758 4294704634
-0.057836931 0.16402985 0.85025728 4294770427
-0.056146238 0.16421217 0.85124564 4294836220
-0.05445702 0.16421521 0.85123056 4294901500
-0.052760705 0.16439752 0.85221887 4294901501
-0.051060639 0.16457985 0.85320717 4294901502
-0.049356822 0.16476218 0.85419548 4294901502
-0.047636535 0.16512379 0.85618711 4294901502
-0.045937944 0.16512686 0.85617191 4294901502
-0.04422288 0.16530921 0.85716009 4294901502
-0.042504065 0.16549157 0.85814822 4294901502
-0.040741056 0.16603252 0.86114293 4294901502
-0.038966801 0.16657349 0.86413759 4294901502
-0.037157327 0.16729377 0.86813539 4294901502
-0.035384543 0.16765548 0.87012655 4294901502
-0.033576541 0.16819651 0.8731209 4293717228
-0.0316981 0.16909619 0.87812155 4294901246
-0.088889696 0.16946495 0.87163973 4284835168
-0.087041378 0.16874376 0.86760908 4288914334
-0.085236579 0.16820361 0.86458236 4289703593
-0.083469681 0.16784453 0.86255956 4290164144
-0.081710286 0.16748545 0.86053675 4290624695
-0.079958387 0.16712634 0.85851407 4290887867
-0.07821399 0.16676722 0.85649139 4291151039
-0.076515399 0.16677029 0.85647625 4291414211
-0.074782252 0.16641116 0.85445368 4291875019
-0.073072001 0.16623311 0.85343486 4292204241
-0.071379036 0.16623616 0.85341978 4292533206
-0.069686063 0.16623922 0.85340464 4292993757
-0.067993097 0.16624227 0.8533895 4293256929
-0.066292226 0.1660642 0.8523708 4293520101
-0.064601131 0.16606726 0.85235566 4293717480
-0.062910035 0.16607031 0.85234058 4293783530
-0.061221223 0.16625449 0.853329 4294638841
-0.059528258 0.16625755 0.85331386 4294704634
-0.05783676 0.16607946 0.85229522 4294836220
-0.056145664 0.16608252 0.85228014 4294836220
-0.054454572 0.16608556 0.852265 4294901501
-0.052756384 0.16626975 0.85325336 4294901502
-0.051054444 0.16645396 0.85424173 4294901502
-0.049348757 0.16663817 0.85522997 4294901502
-0.047639322 0.16682237 0.85621828 4294901502
-0.045926135 0.1670066 0.85720646 4294901502
-0.044209197 0.16719083 0.85819465 4294901502
-0.042488512 0.16737507 0.85918283 4294901502
-0.04072364 0.16792165 0.86217761 4294901502
-0.038947519 0.16846824 0.86517233 4294704123
-0.037112214 0.16937721 0.87017357 4294835709
-0.035361528 0.16956151 0.87116146 4294901502
-0.033551663 0.17010815 0.87415588 4294835709
-0.031641766 0.1711984 0.88016003 4294900989
-0.088892534 0.17119165 0.87167138 4284703325
-0.0870746 0.17064591 0.86864448 4288914077
-0.085296452 0.17028311 0.86662143 4289769386
-0.08355245 0.17010325 0.86560231 4290098351
-0.081762642 0.16955745 0.86257565 4290427316
-0.080006994 0.16919461 0.86055279 4290887867
-0.078237809 0.16864878 0.8575263 4291216832
-0.076518185 0.16846888 0.85650742 4291545798
-0.074785031 0.16810599 0.8544848 4291809483
-0.07307478 0.16792607 0.85346591 4292204241
-0.071381807 0.16792913 0.85345083 4292533206
-0.069688842 0.16793218 0.8534357 4292796378
-0.068005659 0.16811822 0.85442424 4293125343
-0.066302903 0.16793829 0.85340542 4293388772
-0.064609937 0.16794133 0.85339034 4293651944
-0.062916972 0.16794439 0.8533752 4294309876
-0.061224002 0.16794744 0.85336006 4294638841
-0.059531033 0.1679505 0.85334492 4294704634
-0.057838064 0.16795355 0.85332984 4294836220
-0.056145094 0.16795661 0.8533147 4294836220
-0.054452129 0.16795966 0.85329956 4294901501
-0.052759159 0.16796272 0.85328442 4294901502
-0.051057227 0.16814879 0.85427278 4294901502
-0.049351539 0.16833487 0.85526115 4294901502
-0.047642108 0.16852097 0.85624939 4294901502
-0.045914333 0.16889009 0.85824108 4294901502
-0.044195525 0.1690762 0.85922933 4294967295
-0.042472966 0.16926232 0.86021751 4294835709
-0.040706228 0.16981453 0.86321241 4294901502
-0.038906153 0.1705498 0.86721057 4294046193
-0.037091076 0.17128509 0.87120861 4294440951
-0.035338521 0.17147125 0.8721965 4294835709
-0.033526789 0.17202355 0.87519097 4294901502
-0.031644627 0.17294197 0.88019198 4294901502
-0.08710783 0.17255183 0.86967993 4288979870
-0.085327797 0.17218527 0.86765683 4289572007
-0.083581924 0.17200354 0.86663759 4289967022
-0.081790231 0.17145212 0.8636108 4290493365
-0.080032699 0.17108554 0.86158794 4290691002
-0.078261629 0.17053409 0.85856128 4291019967
-0.076520972 0.17016746 0.85653853 4291414726
-0.07478781 0.16980083 0.85451585 4291677898
-0.073077552 0.16961902 0.85349697 4292072655
-0.071384586 0.16962208 0.85348189 4292533206
-0.069691621 0.16962513 0.85346675 4292796378
-0.068008438 0.16981305 0.85445529 4293059550
-0.066305682 0.16963124 0.85343647 4293454565
-0.064612716 0.1696343 0.85342139 4293651944
-0.062919743 0.16963735 0.85340625 4293783530
-0.061226778 0.16964041 0.85339111 4294573048
-0.059533808 0.16964346 0.85337597 4294704634
-0.057840839 0.16964652 0.85336089 4294836220
-0.056151211 0.16946468 0.85234219 4294836220
-0.054460119 0.16946773 0.85232705 4294901501
-0.052769024 0.16947079 0.85231197 4294901502
-0.051060006 0.16984363 0.8543039 4294901502
-0.049365163 0.16984668 0.85428876 4294901502
-0.04763218 0.17040445 0.85728407 4294901502
-0.045902535 0.17077734 0.85927582 4294901502
-0.044165395 0.17115024 0.86126745 4294769916
-0.042439092 0.17133823 0.86225563 4294901502
-0.04066861 0.17189607 0.86525065 4294901502
-0.038886886 0.17245393 0.86824548 4294901502
-0.037069947 0.17319672 0.87224364 4294901502
-0.035315521 0.17338477 0.87323159 4294901502
-0.033501919 0.17394269 0.87622619 4294901502
-0.031647485 0.17468555 0.88022399 4294835709
-0.08717148 0.17464818 0.8717193 4288848797
-0.085359156 0.17409118 0.86869222 4289046176
-0.083584741 0.17372087 0.86666912 4289638313
-0.08179304 0.17316383 0.86364222 4290362036
-0.0800355 0.17279349 0.86161923 4290559416
-0.078264423 0.17223641 0.85859251 4291019967
-0.076542914 0.17205277 0.85757351 4291348933
-0.074807875 0.17168239 0.85555077 4291612104
-0.073095746 0.17149872 0.85453182 4292007119
-0.071400903 0.17150177 0.85451669 4292401877
-0.06970606 0.17150483 0.85450155 4292730842
-0.068011217 0.17150789 0.85448641 4293125600
-0.066316374 0.17151095 0.85447127 4293388772
-0.064615488 0.17132726 0.85345244 4293651944
-0.062922522 0.17133032 0.8534373 4293717737
-0.061231844 0.17152011 0.85442585 4294573048
-0.059537001 0.17152317 0.85441071 4294836220
-0.057843618 0.17133947 0.85339195 4294836220
-0.056150649 0.17134252 0.85337681 4294836220
-0.054457679 0.17134558 0.85336167 4294901501
-0.052764714 0.17134863 0.85334653 4294901502
-0.051062785 0.17153846 0.85433501 4294901502
-0.049357105 0.1717283 0.85532337 4294901502
-0.04762226 0.1722917 0.85831875 4294901502
-0.045890749 0.17266832 0.86031055 4294309365
-0.044135276 0.17323177 0.86330575 4293125091
-0.042405225 0.17342164 0.86429393 4294704123
-0.040651217 0.17379831 0.86628556 4294901502
-0.038867623 0.1743618 0.86928052 4294901502
-0.037048824 0.1751121 0.8732788 4294901502
-0.035292525 0.17530203 0.87426674 4294901502
-0.03347706 0.17586558 0.8772614 4294901502
-0.08536198 0.17581226 0.86872381 4285888369
-0.083587557 0.1754382 0.86670059 4286875008
-0.081795849 0.17487554 0.86367363 4290033072
-0.080015384 0.17431286 0.86064672 4290625209
-0.078267217 0.17393875 0.85862374 4291019967
-0.076545708 0.17375323 0.85760468 4291217347
-0.074810654 0.17337909 0.85558188 4291546056
-0.073098525 0.17319356 0.85456294 4291941069
-0.071390137 0.17300801 0.853544 4292401877
-0.069708839 0.17319967 0.85453266 4292665049
-0.068013996 0.17320272 0.85451752 4292994014
-0.066311233 0.17301716 0.85349864 4293388772
-0.064618267 0.17302021 0.8534835 4293651944
-0.062925301 0.17302327 0.85346836 4293783274
-0.061232328 0.17302632 0.85345322 4294704634
-0.059539363 0.17302938 0.85343814 4294770427
-0.057846393 0.17303243 0.853423 4294770427
-0.056156758 0.17284685 0.85240424 4294836220
-0.054465663 0.17284989 0.8523891 4294901501
-0.052767489 0.1730416 0.85337764 4294901502
-0.051056605 0.17342195 0.85536969 4294901502
-0.049349055 0.17361365 0.85635805 4294901502
-0.04762505 0.17399402 0.85834998 4294901502
-0.045878962 0.17456307 0.86134541 4292796126
-0.044138085 0.17494346 0.86333716 4292072403
-0.042408034 0.17513523 0.8643254 4294704123
-0.040633827 0.17570432 0.86732054 4294901502
-0.03887045 0.17608476 0.86931211 4294901502
-0.037051659 0.17684256 0.87331051 4294836222
-0.035295364 0.17703436 0.87429851 4294901502
-0.03347991 0.17760353 0.87729329 4294901502
-0.085364796 0.17753334 0.8687554 4285822319
-0.083590373 0.17715554 0.86673212 4285493354
-0.081773862 0.17639679 0.86270112 4289704106
-0.079995267 0.17582849 0.8596741 4290625209
-0.078248963 0.17545062 0.85765111 4291019967
-0.076529324 0.17526321 0.85663205 4291283139
-0.07481344 0.1750758 0.85561299 4291612104
-0.073101304 0.17488839 0.85459399 4291941069
-0.071406461 0.17489144 0.85457885 4292401620
-0.069711618 0.1748945 0.85456371 4292665049
-0.068016775 0.17489755 0.85454857 4292994014
-0.066314012 0.17471012 0.85352969 4293388773
-0.064621046 0.17471318 0.85351455 4293651946
-0.062928073 0.17471623 0.85349941 4293717739
-0.061235107 0.17471929 0.85348427 4294638841
-0.059542138 0.17472234 0.85346919 4294704634
-0.057849169 0.1747254 0.85345405 4294770427
-0.056156203 0.17472845 0.85343891 4294836220
-0.05445803 0.17492202 0.85442746 4294901501
-0.052756105 0.17511559 0.85541594 4294901502
-0.051050436 0.17530917 0.85640442 4294901502
-0.049351841 0.17531224 0.85638922 4294901502
-0.04762784 0.17569636 0.85838121 4294901502
-0.045881763 0.17627102 0.8613767 4294638330
-0.04414089 0.17665517 0.86336857 4293585642
-0.042392518 0.17703934 0.86536038 4294901502
-0.040636644 0.17742352 0.86735207 4294901502
-0.038873274 0.17780772 0.8693437 4294967295
-0.037054498 0.17857301 0.87334228 4294901502
-0.035298206 0.17876668 0.87433028 4294901502
-0.033455059 0.17953204 0.87832862 4294901502
-0.08536762 0.17925443 0.86878693 4286940800
-0.08359319 0.17887287 0.86676365 4287927695
-0.081776664 0.17810662 0.86273247 4290164657
-0.079998061 0.17753269 0.85970539 4290559415
-0.078272797 0.17734341 0.85868621 4290888381
-0.076551281 0.17715414 0.85766709 4291348932
-0.07483352 0.17696486 0.85664803 4291612104
-0.073134929 0.17696793 0.85663283 4292006862
-0.071422786 0.17677863 0.85561383 4292336084
-0.069726065 0.1767817 0.85559863 4292665050
-0.068029352 0.17678475 0.85558349 4292994016
-0.066332631 0.17678782 0.85556835 4293388774
-0.064635918 0.17679088 0.85555321 4293651946
-0.062935024 0.17660156 0.85453427 4294309876
-0.061240181 0.17660463 0.85451913 4294573048
-0.059545338 0.17660768 0.85450399 4294704634
-0.057849042 0.17680311 0.85549253 4294836220
-0.056152325 0.17680618 0.85547739 4294836220
-0.054450404 0.17700163 0.85646594 4294901501
-0.052744735 0.17719708 0.85745442 4294901502
-0.05104427 0.17720015 0.85743922 4294901502
-0.049343802 0.17720322 0.85742402 4294901502
-0.047617935 0.1775911 0.85941607 4294967295
-0.045884565 0.17797898 0.86140805 4294901502
-0.044143699 0.17836688 0.86339998 4294835709
-0.042395331 0.17875479 0.86539185 4294901502
-0.040639464 0.17914273 0.8673836 4294901502
-0.038854025 0.17972308 0.87037885 4294901502
-0.037057336 0.18030347 0.87337404 4294901502
-0.035275221 0.18069145 0.87536556 4294901502
-0.033402514 0.18165673 0.88036752 4294966782
-0.087152384 0.18136081 0.87084198 4288783004
-0.085341893 0.1807813 0.86781448 4289243555
-0.083596006 0.1805902 0.86679512 4289638313
-0.081779473 0.17981645 0.86276382 4290362036
-0.08002378 0.17943111 0.8607406 4290625208
-0.078275591 0.17904575 0.85871744 4290822587
-0.076554075 0.1788546 0.85769832 4291414725
-0.074836306 0.17866345 0.8566792 4291612104
-0.073122285 0.17847228 0.85566008 4291941069
-0.071412019 0.17828111 0.85464108 4292270291
-0.069717176 0.17828417 0.85462588 4292665049
-0.068022333 0.17828722 0.85461074 4292994016
-0.06632749 0.17829028 0.8545956 4293257188
-0.064632647 0.17829335 0.85458046 4293651946
-0.062937804 0.1782964 0.85456532 4294309876
-0.061240658 0.17810521 0.85354644 4294638841
-0.059548117 0.17830251 0.85453504 4294704634
-0.057853274 0.17830557 0.8545199 4294836220
-0.056155108 0.17850289 0.85550851 4294836220
-0.05445319 0.17870021 0.85649705 4294901501
-0.0527546 0.17870328 0.85648191 4294901502
-0.051047057 0.17890061 0.85747039 4294901502
-0.049346589 0.17890368 0.85745525 4294901502
-0.047620729 0.1792953 0.85944736 4294901502
-0.045901939 0.17949267 0.86043578 4294901502
-0.044162951 0.17988431 0.86242777 4294901502
-0.042416465 0.18027596 0.8644197 4294901502
-0.040662482 0.18066764 0.86641157 4294901502
-0.038878925 0.18125363 0.86940694 4294901502
-0.037060175 0.18203393 0.87340575 4294901246
-0.035278067 0.18242565 0.87539738 4294966782
-0.033405371 0.1834003 0.88039947 4294966782
-0.085344717 0.18250051 0.86784601 4288980896
-0.083598822 0.18230753 0.86682665 4289704106
-0.081807077 0.18172237 0.86379921 4290164657
-0.080049507 0.18133329 0.86177593 4290493622
-0.078299433 0.18094417 0.85975266 4290888380
-0.076576039 0.18075116 0.85873348 4291283139
-0.074839093 0.18036203 0.85671031 4291546568
-0.073125072 0.18016899 0.85569125 4291875533
-0.071428351 0.18017206 0.85567605 4292270291
-0.06973163 0.18017511 0.85566092 4292599257
-0.068034917 0.18017818 0.85564578 4292928223
-0.066338196 0.18018124 0.85563058 4293257188
-0.064635426 0.17998818 0.85461158 4293586153
-0.062940583 0.17999123 0.85459644 4294244083
-0.061245739 0.17999429 0.8545813 4294573048
-0.059551325 0.18019348 0.85556996 4294770427
-0.057853162 0.18039267 0.85655856 4294836220
-0.056151249 0.18059187 0.85754716 4294836220
-0.054445587 0.18079108 0.85853577 4294901501
-0.052743245 0.18079415 0.85852057 4294901502
-0.051040903 0.18079722 0.85850531 4294966783
-0.049327739 0.18099643 0.85949385 4294966782
-0.047610827 0.18119566 0.86048228 4294901502
-0.045875598 0.18159105 0.86247438 4294901502
-0.044132866 0.18198647 0.86446643 4294901246
-0.042400956 0.18218571 0.86545479 4294901246
-0.040645104 0.18258114 0.86744666 4294901502
-0.038881749 0.18297659 0.86943853 4294770430
-0.037039068 0.18396056 0.87444109 4294836223
-0.035255093 0.18435603 0.87643278 4294770686
-0.085347533 0.18421972 0.8678776 4289177762
-0.083601639 0.18402487 0.86685812 4289704106
-0.081809886 0.18343408 0.86383063 4290098864
-0.080052301 0.18304124 0.86180723 4290559415
-0.078302227 0.18264839 0.85978395 4290954173
-0.076598011 0.18265146 0.85976869 4291217346
-0.07485918 0.18225859 0.85774547 4291546568
-0.073127851 0.18186571 0.85572237 4291941326
-0.07143113 0.18186876 0.85570717 4292401877
-0.069734417 0.18187182 0.85569203 4292730842
-0.068037696 0.18187489 0.85567689 4292862429
-0.066340983 0.18187794 0.85566169 4293257188
-0.064638205 0.181683 0.85464269 4293520360
-0.062943362 0.18168607 0.85462755 4294244083
-0.061250824 0.18188712 0.85561627 4294507255
-0.05955454 0.1820882 0.85660493 4294704634
-0.057854503 0.18228926 0.8575936 4294836220
-0.056154039 0.18229233 0.8575784 4294836220
-0.054448377 0.18249342 0.858567 4294901501
-0.052738968 0.18269449 0.85955554 4294901502
-0.051034752 0.18269758 0.85954034 4294901502
-0.049330533 0.18270065 0.85952508 4294966782
-0.047613624 0.18290175 0.86051357 4294966782
-0.045878403 0.18330088 0.86250579 4294966782
-0.044135679 0.18370004 0.8644979 4294966782
-0.042385455 0.18409921 0.86648989 4294966782
-0.040627733 0.18449838 0.86848187 4294900991
-0.038862512 0.18489759 0.8704738 4294900991
-0.03704191 0.18569289 0.87447286 4294966527
-0.035257939 0.18609211 0.87646461 4294965758
-0.085350357 0.18593892 0.86790913 4289243555
-0.083604455 0.1857422 0.86688966 4289638313
-0.081812687 0.1851458 0.86386204 4290164657
-0.080055103 0.1847492 0.86183858 4290493622
-0.078305021 0.18435259 0.85981518 4290822588
-0.07658162 0.18415582 0.85879594 4291217346
-0.074844658 0.1837592 0.85677266 4291612104
-0.07313063 0.18356241 0.85575348 4291941069
-0.071433917 0.18356547 0.85573834 4292335827
-0.069725513 0.18336867 0.85471916 4292665050
-0.068040483 0.18357159 0.855708 4292928223
-0.066343762 0.18357465 0.85569286 4293257188
-0.064640984 0.18337785 0.85467374 4293520360
-0.062946141 0.1833809 0.8546586 4294178290
-0.061251298 0.18338396 0.85464346 4294573048
-0.05955689 0.1835869 0.85563219 4294770427
-0.057858732 0.18378983 0.85662091 4294836220
-0.056160141 0.1837929 0.85660571 4294901501
-0.054456357 0.18399586 0.85759437 4294901502
-0.052748829 0.18419881 0.85858303 4294901502
-0.051037546 0.18440178 0.85957158 4294901502
-0.04933333 0.18440485 0.85955638 4294836222
-0.047616422 0.18460783 0.86054492 4294901502
-0.045881204 0.18501072 0.86253715 4294966782
-0.044122051 0.18561353 0.86553305 4294966527
-0.042388272 0.18581654 0.86652142 4294570743
-0.040630553 0.18621947 0.86851346 4294503923
-0.038865339 0.18662241 0.87050545 4294964733
-0.037068687 0.1872253 0.873501 4294370284
-0.035286598 0.18762827 0.87549281 4294104288
-0.085381731 0.18785983 0.86894482 4288783517
-0.083607271 0.18745953 0.86692113 4289507240
-0.081840307 0.18705921 0.86489755 4290164657
-0.080057904 0.18645716 0.86186993 4290559415
-0.078307815 0.18605681 0.85984647 4290954174
-0.076584414 0.18585816 0.85882717 4291151297
-0.07486476 0.18565951 0.85780787 4291546054
-0.073148854 0.18546085 0.85678864 4292006862
-0.071450263 0.18546391 0.8567735 4292204241
-0.069739982 0.18526524 0.85575432 4292599257
-0.068053074 0.18547004 0.8567431 4292994016
-0.066354483 0.1854731 0.85672796 4293454567
-0.064655893 0.18547617 0.85671276 4293651946
-0.062953107 0.18527749 0.85569364 4294244083
-0.06125639 0.18528055 0.8556785 4294573048
-0.059560113 0.18548536 0.85666722 4294704634
-0.057860084 0.18569018 0.85765594 4294836220
-0.056159616 0.18569325 0.8576408 4294901501
-0.054453962 0.18589808 0.85862947 4294901502
-0.05274456 0.18610291 0.85961807 4294901502
-0.05104034 0.186106 0.85960287 4294901502
-0.049336124 0.18610907 0.85958761 4294901502
-0.047606535 0.18651569 0.86158001 4294901502
-0.045869451 0.18692234 0.8635723 4294966782
-0.044108428 0.18753077 0.86656827 4294966527
-0.042372778 0.18773566 0.86755669 4294175728
-0.040613193 0.18814234 0.86954874 4293319393
-0.038824048 0.18875083 0.87254447 4293778917
-0.037023656 0.18935935 0.87554014 4293513178
-0.035237823 0.18976608 0.87753201 4294500843
-0.085384555 0.18958092 0.86897641 4288586138
-0.083636776 0.18938044 0.86795682 4289441447
-0.081843115 0.18877278 0.86492896 4289901998
-0.080060706 0.18816511 0.86190122 4290428342
-0.078310609 0.18776101 0.85987771 4290822587
-0.076587208 0.1875605 0.85885841 4291217346
-0.074867547 0.18735996 0.85783911 4291480776
-0.073151641 0.18715943 0.85681981 4291809742
-0.071453042 0.18716249 0.85680461 4292204500
-0.069754452 0.18716556 0.85678947 4292533465
-0.068055861 0.18716863 0.85677427 4292994016
-0.06635727 0.18717168 0.85675913 4293586153
-0.064652607 0.18697113 0.85573995 4293651946
-0.062955894 0.1869742 0.85572475 4294309876
-0.061256856 0.18677363 0.85470563 4294573048
-0.059562013 0.18677668 0.85469049 4294770427
-0.057864305 0.187187 0.85668325 4294901500
-0.05616571 0.18719007 0.85666806 4294901501
-0.054461937 0.18739678 0.85765678 4294901502
-0.05275441 0.18760349 0.85864544 4294901502
-0.051052067 0.18760656 0.85863024 4294966782
-0.049349725 0.18760963 0.85861504 4294901502
-0.047622018 0.18802001 0.8606075 4294901502
-0.045886815 0.18843038 0.86259985 4294966782
-0.044127677 0.18904445 0.865596 4294966783
-0.042393904 0.1892512 0.86658442 4294833915
-0.0406362 0.18966164 0.86857659 4294043628
-0.03884894 0.19027574 0.87157243 4294174959
-0.037026502 0.19109355 0.87557197 4294634740
-0.035240673 0.19150403 0.87756389 4294965502
-0.085415944 0.19150746 0.87001222 4288915103
-0.083666287 0.1913051 0.86899257 4289507240
-0.081870742 0.19069183 0.86596459 4289967791
-0.080086455 0.19007854 0.86293674 4290362293
-0.078313403 0.18946522 0.859909 4290625466
-0.076589994 0.18926282 0.85888964 4290954432
-0.074870333 0.18906042 0.85787028 4291480776
-0.073154427 0.18885802 0.85685098 4291875535
-0.071455829 0.18886109 0.85683578 4292270293
-0.069757238 0.18886414 0.85682064 4292599258
-0.068058647 0.18886721 0.85680544 4292994016
-0.066360056 0.18887027 0.85679024 4293520360
-0.064655393 0.18866785 0.85577106 4293651946
-0.062958673 0.1886709 0.85575593 4294244083
-0.061259635 0.18846847 0.85473675 4294638841
-0.059564792 0.18847153 0.85472161 4294770427
-0.057867091 0.18888558 0.85671437 4294836220
-0.056168497 0.18888865 0.85669923 4294901500
-0.054464724 0.18909723 0.85768795 4294901501
-0.052764256 0.1891003 0.85767275 4294901502
-0.051054861 0.18930888 0.85866147 4294901502
-0.049352519 0.18931195 0.85864627 4294901502
-0.047624815 0.18972608 0.8606388 4294966782
-0.045889616 0.19014022 0.86263126 4294966782
-0.044130489 0.19075991 0.86562747 4294966783
-0.04239672 0.19096854 0.86661595 4294966269
-0.040639021 0.19138272 0.86860818 4294966270
-0.038851772 0.19200246 0.87160414 4294966527
-0.037005417 0.19303331 0.87660754 4294966527
-0.035217721 0.19344755 0.87859952 4294901247
-0.085447341 0.19343774 0.87104809 4289441447
-0.083669111 0.19302619 0.86902416 4289441447
-0.081873558 0.1924073 0.86599606 4289901998
-0.080089256 0.19178838 0.86296815 4290362293
-0.078337274 0.19137678 0.86094445 4290625466
-0.076611981 0.19117251 0.85992503 4291086017
-0.074873127 0.19076088 0.85790145 4291283398
-0.073172659 0.19076395 0.85788625 4291809742
-0.07147219 0.19076702 0.85787112 4292138707
-0.069771722 0.19077009 0.85785592 4292599258
-0.068071254 0.19077316 0.85784072 4293257188
-0.066370785 0.19077621 0.85782552 4293454567
-0.064664245 0.19057192 0.85680628 4293520360
-0.062965654 0.19057499 0.85679108 4294178290
-0.061264738 0.19037068 0.8557719 4294638841
-0.059568468 0.19058111 0.85676074 4294770427
-0.057868447 0.19079156 0.85774958 4294836220
-0.056167979 0.19079463 0.85773438 4294836220
-0.054467514 0.19079769 0.85771918 4294901500
-0.052759994 0.19100815 0.8587079 4294901501
-0.051057652 0.19101122 0.85869271 4294901502
-0.04934451 0.19122168 0.85968143 4294901502
-0.04761494 0.19163957 0.86167401 4294901502
-0.04587787 0.19205746 0.86366647 4294901502
-0.044133302 0.19247536 0.86565894 4294966782
-0.042381234 0.19289328 0.86765128 4294966782
-0.040621668 0.19331121 0.86964357 4294966782
-0.038832553 0.19393659 0.87263966 4294966782
-0.037008263 0.19476938 0.87663937 4294967039
-0.085450172 0.19516256 0.87107968 4289441191
-0.083671935 0.19474727 0.86905575 4289441191
-0.081876375 0.19412275 0.86602753 4289901998
-0.080092058 0.19349821 0.8629995 4290296501
-0.078340068 0.19308285 0.86097574 4290757053
-0.076614775 0.19287671 0.85995626 4291151812
-0.074875914 0.19246134 0.85793269 4291480520
-0.073159993 0.19225518 0.85691327 4291743949
-0.071447827 0.19204903 0.85589397 4292138707
-0.069751114 0.19205208 0.85587877 4292401879
-0.06806422 0.19226438 0.85686779 4292928223
-0.066365622 0.19226745 0.85685259 4293520360
-0.064660959 0.19206126 0.85583329 4293586153
-0.062964238 0.19206432 0.85581815 4294178290
-0.061267521 0.19206738 0.85580301 4294573048
-0.059570804 0.19207044 0.85578787 4294704634
-0.05787266 0.19228277 0.85677671 4294836220
-0.05617407 0.19228582 0.85676152 4294836220
-0.054475475 0.19228889 0.85674638 4294836220
-0.052769832 0.19250122 0.85773516 4294901501
-0.051069368 0.19250429 0.85771996 4294901502
-0.0493581 0.19271663 0.85870874 4294901502
-0.047643084 0.19292897 0.85969746 4294901502
-0.045895226 0.19355989 0.86269397 4294901502
-0.044152539 0.19398154 0.86468649 4294835709
-0.042402353 0.1944032 0.86667895 4294901502
-0.040624496 0.19503418 0.86967522 4294901502
-0.038835388 0.19566517 0.87267137 4294901502
-0.037035033 0.19629617 0.87566739 4294901501
-0.085452996 0.1968874 0.87111133 4289244068
-0.083674759 0.19646835 0.86908728 4289244068
-0.081879184 0.1958382 0.86605901 4289901998
-0.080117814 0.19541912 0.86403513 4290362552
-0.078363948 0.19500004 0.86201131 4290626238
-0.076636776 0.19479202 0.86099178 4291020740
-0.07489603 0.19437289 0.85896808 4291218120
-0.073178232 0.19416487 0.85794866 4291678156
-0.071464188 0.19395684 0.8569293 4292138707
-0.069765598 0.19395989 0.8569141 4292533465
-0.068066999 0.19396296 0.8568989 4292928223
-0.066376366 0.19417714 0.85788792 4293520360
-0.064675897 0.19418021 0.85787272 4293520360
-0.062975429 0.19418328 0.85785753 4294178290
-0.061272632 0.19397521 0.85683823 4294638841
-0.059574492 0.19418941 0.85782713 4294770427
-0.057874024 0.19419247 0.85781193 4294836220
-0.056173559 0.19419554 0.85779673 4294836220
-0.054473091 0.19419861 0.85778153 4294901756
-0.052772623 0.19420168 0.85776639 4294901501
-0.051072154 0.19420475 0.85775119 4294901502
-0.049360894 0.19441897 0.85873997 4294901502
-0.047633212 0.19484434 0.86073267 4294901502
-0.045898028 0.19526972 0.86272532 4294901502
-0.044138931 0.19590628 0.86572188 4294901502
-0.042386875 0.19633169 0.86771435 4294901502
-0.040607151 0.19696829 0.87071067 4294901502
-0.038794134 0.19781607 0.8747108 4294901502
-0.085427247 0.19839928 0.87013865 4288782491
-0.083677575 0.19818944 0.86911887 4289309348
-0.081882 0.19755366 0.86609048 4289901486
-0.080120623 0.19713083 0.86406654 4290362294
-0.078366742 0.19670799 0.86204267 4290691003
-0.07663957 0.1964981 0.86102313 4291019970
-0.074916154 0.19628821 0.86000359 4291283398
-0.073181026 0.19586533 0.85797989 4291743949
-0.071466975 0.19565542 0.85696042 4292204500
-0.069768384 0.19565848 0.85694528 4292533465
-0.068079621 0.19587453 0.8579343 4292928223
-0.066379152 0.1958776 0.8579191 4293520360
-0.064678684 0.19588067 0.8579039 4293586153
-0.062978216 0.19588374 0.8578887 4294178290
-0.061277751 0.19588681 0.8578735 4294507255
-0.059577283 0.19588986 0.8578583 4294638841
-0.057875395 0.19610594 0.85884726 4294770427
-0.056173053 0.19610901 0.858832 4294836220
-0.054475877 0.19589907 0.85781276 4294901757
-0.052775413 0.19590214 0.85779756 4294901502
-0.051074944 0.19590521 0.85778236 4294901502
-0.049363684 0.19612129 0.8587712 4294901502
-0.04763601 0.19655041 0.86076397 4294901502
-0.045915376 0.19676653 0.86175275 4294901502
-0.044158157 0.19740871 0.86474937 4294901502
-0.042407986 0.19783787 0.86674196 4294901502
-0.040609978 0.19869313 0.87074232 4294901502
-0.038774934 0.19976145 0.87574649 4294901502
-0.085430071 0.20012224 0.87017024 4288848284
-0.083653696 0.19969569 0.86814606 4289243812
-0.081884809 0.19926912 0.86612195 4289835693
-0.080123432 0.19884254 0.86409795 4290230708
-0.078369543 0.19841595 0.86207396 4290756795
-0.076642372 0.19820419 0.86105442 4290954177
-0.074918948 0.19799241 0.86003488 4291348934
-0.073199272 0.19778064 0.85901535 4291743693
-0.071483344 0.19756885 0.85799587 4292204500
-0.069782875 0.19757192 0.85798067 4292467672
-0.068082407 0.19757499 0.85796547 4292928223
-0.066381939 0.19757806 0.85795027 4293520360
-0.06468147 0.19758113 0.85793513 4293520360
-0.062981002 0.1975842 0.85791993 4294244083
-0.061278202 0.19737239 0.85690057 4294573048
-0.059580069 0.19759032 0.85788953 4294704634
-0.057878189 0.19780828 0.85887849 4294836220
-0.056175847 0.19781135 0.85886323 4294836221
-0.054478668 0.19759953 0.85784394 4294901758
-0.052778199 0.1976026 0.85782874 4294901502
-0.05106882 0.19782056 0.85881764 4294901502
-0.049366474 0.19782363 0.85880244 4294966782
-0.047638807 0.19825651 0.86079526 4294901502
-0.045918174 0.19847448 0.86178404 4294901502
-0.044177383 0.19890738 0.8637768 4294901502
-0.04242909 0.19934028 0.86576945 4294901502
-0.040612809 0.20041795 0.87077397 4294966782
-0.085461482 0.20206189 0.87120628 4289374372
-0.083683223 0.20163159 0.86918205 4289374372
-0.081912458 0.20120129 0.86715782 4289967022
-0.080149196 0.20077096 0.8651337 4290230194
-0.07839343 0.20034061 0.86310971 4290691002
-0.076664381 0.20012699 0.86209005 4291020480
-0.074921742 0.19969663 0.86006612 4291414726
-0.073202059 0.19948298 0.85904658 4291875022
-0.07149972 0.19948605 0.85903138 4292138194
-0.069797374 0.19948912 0.85901618 4292599002
-0.068095036 0.19949219 0.85900092 4293191138
-0.06639269 0.19949526 0.85898572 4293520360
-0.064690351 0.19949833 0.85897052 4293520104
-0.062988006 0.1995014 0.85895532 4294178034
-0.061283328 0.19928771 0.85793591 4294573048
-0.059582859 0.19929078 0.85792071 4294770171
-0.057880979 0.1995106 0.85890973 4294836220
-0.056178637 0.19951367 0.85889447 4294835965
-0.054476295 0.19951674 0.85887927 4294835966
-0.052773952 0.19951981 0.85886407 4294901502
-0.051062699 0.19973966 0.85985297 4294901502
-0.049347695 0.1999595 0.86084181 4294901502
-0.047628943 0.20017935 0.86183065 4294901502
-0.045906439 0.20039922 0.86281943 4294901502
-0.044163778 0.20083587 0.86481225 4294901502
-0.042413618 0.20127253 0.86680496 4294966783
-0.040595476 0.20235957 0.8718096 4294966527
-0.085464314 0.20378673 0.87123793 4288250500
-0.083686046 0.20335267 0.86921358 4288250500
-0.081940114 0.2031372 0.86819381 4290226857
-0.080174968 0.20270313 0.86616957 4291017399
-0.078396238 0.20205045 0.86314106 4291149243
-0.076686397 0.20205353 0.8631258 4291216063
-0.074941874 0.20161943 0.86110175 4291414982
-0.07322032 0.2014039 0.86008215 4291743693
-0.071516097 0.20140699 0.86006695 4292138964
-0.069800168 0.20119144 0.85904741 4293517021
-0.068097822 0.20119452 0.85903215 4293650149
-0.066395484 0.20119759 0.85901695 4294043882
-0.064693138 0.20120066 0.85900176 4293912810
-0.0629908 0.20120373 0.85898656 4294505461
-0.061286114 0.20098817 0.85796708 4294703611
-0.059585646 0.20099124 0.85795194 4294835453
-0.057883769 0.20121294 0.8589409 4294900990
-0.056181427 0.20121601 0.8589257 4294966783
-0.054479085 0.20121908 0.8589105 4294966271
-0.052776743 0.20122215 0.8588953 4294966527
-0.051065493 0.20144387 0.8598842 4294966271
-0.049361277 0.20144694 0.859869 4294966015
-0.047631744 0.20188732 0.861862 4294966015
-0.045894712 0.20232771 0.86385489 4294965502
-0.044166587 0.20254946 0.86484367 4294962934
-0.042416435 0.20298986 0.86683649 4294966271
-0.040618464 0.20386761 0.87083727 4294965759
-0.083742298 0.20551467 0.87125415 4286596177
-0.081967779 0.20507686 0.86922979 4288113521
-0.080200754 0.20463905 0.8672055 4288113521
-0.078441225 0.20420122 0.86518127 4290221722
-0.076708414 0.20398384 0.86416155 4291474357
-0.074962012 0.20354599 0.86213744 4286922317
-0.073238581 0.20332859 0.86111784 4288109673
-0.071532488 0.20333166 0.86110258 4290351256
-0.069814675 0.20311426 0.86008298 4291799472
-0.068110459 0.20311734 0.86006773 4292589246
-0.066406243 0.20312041 0.86005253 4293643218
-0.064702027 0.20312348 0.86003727 4293906391
-0.062997811 0.20312656 0.86002207 4294366942
-0.061291248 0.20290914 0.85900259 4294827237
-0.059588905 0.20291221 0.85898739 4294630371
-0.057886563 0.20291528 0.85897213 4294564579
-0.056180939 0.20313886 0.85996115 4294761446
-0.054476723 0.20314193 0.85994595 4294300638
-0.052779537 0.20292449 0.85892653 4293708759
-0.051068287 0.20314808 0.85991549 4293377999
-0.049364071 0.20315115 0.8599003 4292849343
-0.047621891 0.2038158 0.86289746 4292450735
-0.045882989 0.20425995 0.8648904 4291850641
-0.044152994 0.20448357 0.86587924 4292044169
-0.042400971 0.20492773 0.86787206 4292305028
-0.040601138 0.20581299 0.87187296 4292646060
-0.08382529 0.20790648 0.87429935 4287045691
-0.08202029 0.20724261 0.87127036 4286913846
-0.080249511 0.20680106 0.86924601 4286652727
-0.078486226 0.20635948 0.86722165 4288357698
-0.076749668 0.20614024 0.86620188 4288488772
-0.074999504 0.20569864 0.86417764 4288554053
-0.073272318 0.20547937 0.86315793 4288224831
-0.071548879 0.2052601 0.86213827 4288357444
-0.069829196 0.20504083 0.86111861 4288686923
-0.068123102 0.20504391 0.86110336 4289015889
-0.066417009 0.20504698 0.86108816 4289147989
-0.064710915 0.20505007 0.8610729 4289280089
-0.063000605 0.20483077 0.86005336 4290333034
-0.061296385 0.20483384 0.8600381 4290596719
-0.059591696 0.20461453 0.85901862 4291320185
-0.057887953 0.20483999 0.86000764 4291516283
-0.056180459 0.20506544 0.86099666 4291778173
-0.054474365 0.20506853 0.86098146 4291712380
-0.052768275 0.2050716 0.86096621 4291843966
-0.051062182 0.20507468 0.86095095 4292304262
-0.049356088 0.20507775 0.86093575 4292830605
-0.047624696 0.20552564 0.86292881 4292633738
-0.045885801 0.20597352 0.86492187 4293094033
-0.044123005 0.20664383 0.86791897 4293160337
-0.042367239 0.20709176 0.86991185 4293422994
-0.083828129 0.20963694 0.87433112 4286455350
-0.082023121 0.20896745 0.87130201 4284815144
-0.080252334 0.20852214 0.8692776 4286127923
-0.078489043 0.2080768 0.86725318 4287112765
-0.076752476 0.20785569 0.86623335 4287702848
-0.075002313 0.20741034 0.86420906 4288358469
-0.073275127 0.2071892 0.86318934 4288883529
-0.071551681 0.20696805 0.86216962 4289343568
-0.06983199 0.20674691 0.86114991 4289803864
-0.068125896 0.20674999 0.86113471 4289803608
-0.06641183 0.20652883 0.86011505 4290001501
-0.064707614 0.2065319 0.86009985 4290330980
-0.063003398 0.20653498 0.86008459 4291514997
-0.061296832 0.2063138 0.85906506 4292041085
-0.05959449 0.20631687 0.8590498 4292304513
-0.057890747 0.20654421 0.86003894 4292698244
-0.056183256 0.20677154 0.86102802 4292632452
-0.054477163 0.20677461 0.86101276 4292633479
-0.052771073 0.20677769 0.8609975 4292830603
-0.051064979 0.20678076 0.86098224 4293028496
-0.049358886 0.20678385 0.86096704 4292831374
-0.047627497 0.20723547 0.86296016 4292765837
-0.04588861 0.20768711 0.86495328 4291648894
-0.044142224 0.20813876 0.86694634 4290333803
-0.042388335 0.20859043 0.86893928 4289281885
-0.082100503 0.21137053 0.87434739 4281211930
-0.080301106 0.21069539 0.87131828 4281801499
-0.078534059 0.21024632 0.86929375 4282784287
-0.076812975 0.21024942 0.86927837 4283636003
-0.075074531 0.21002643 0.86825854 4284552741
-0.073339835 0.20980343 0.86723864 4285470250
-0.071595289 0.20935433 0.86521435 4286586421
-0.069869973 0.20913132 0.86419457 4287441474
-0.068138547 0.20868218 0.8621704 4287835464
-0.066430584 0.20868526 0.86215514 4288361037
-0.06471651 0.20846222 0.86113548 4288886869
-0.063010424 0.20846531 0.86112022 4289938531
-0.061304331 0.20846838 0.86110502 4290398825
-0.059598714 0.20869759 0.8620941 4290398826
-0.057887957 0.20915292 0.86408752 4290662512
-0.056176241 0.20915601 0.86407226 4290203500
-0.054459378 0.20938523 0.86506128 4289546341
-0.052738767 0.20961447 0.86605024 4289415012
-0.051023301 0.20961757 0.86603492 4289020767
-0.049307834 0.20962065 0.86601961 4288364377
-0.047579721 0.20984991 0.86700851 4286922577
-0.045847859 0.21007915 0.86799741 4286267984
-0.04407946 0.21076073 0.87099463 4285482061
-0.04231808 0.21121615 0.87298763 4284959823
-0.08212819 0.21332894 0.87538373 4280558109
-0.080326915 0.21264818 0.87235451 4280820766
-0.078579098 0.21242332 0.87133449 4281082655
-0.076854251 0.21242644 0.87131906 4281213471
-0.07511206 0.21220158 0.87029916 4281409310
-0.073358133 0.21174875 0.86827469 4281999137
-0.07161171 0.21129589 0.86625034 4282327331
-0.069884509 0.211071 0.8652305 4282721062
-0.068141349 0.21039014 0.86220175 4283245867
-0.066425405 0.21016523 0.86118203 4283967792
-0.064719312 0.21016832 0.86116678 4284164402
-0.063013218 0.21017139 0.86115158 4284558390
-0.061307129 0.21017447 0.86113632 4284886842
-0.059601516 0.21040554 0.86212546 4284886072
-0.057890762 0.21086463 0.86411893 4285216834
-0.056179047 0.21086772 0.86410367 4285283655
-0.054457046 0.21132684 0.86609703 4285021767
-0.052734561 0.21155794 0.86708605 4284827211
-0.050999437 0.21201707 0.86907929 4284698191
-0.049267575 0.21224821 0.87006825 4284437330
-0.04753197 0.21247934 0.87105709 4284307027
-0.045792613 0.21271047 0.87204599 4284241234
-0.044016723 0.21339768 0.87504327 4283912012
-0.042266116 0.21362884 0.87603199 4283780683
-0.083916835 0.2155178 0.87744033 4280295965
-0.082131036 0.21506126 0.8754155 4280361500
-0.080352731 0.21460472 0.87339079 4280558879
-0.078603029 0.214378 0.87237072 4280624159
-0.076857083 0.21415128 0.87135071 4280755488
-0.075114883 0.21392454 0.87033075 4280754975
-0.07336095 0.21346796 0.86830622 4280886048
-0.071600914 0.21278149 0.86527723 4281214756
-0.069875583 0.21255472 0.8642574 4281412133
-0.068134293 0.21186824 0.86122859 4281872684
-0.06642022 0.21164146 0.86020887 4281873454
-0.064715996 0.21164453 0.86019361 4281938991
-0.06301178 0.2116476 0.86017841 4282464820
-0.061307564 0.21165067 0.86016315 4282595892
-0.059603833 0.21188362 0.86115235 4282859065
-0.05789635 0.21211658 0.86214155 4283187774
-0.056188382 0.21211967 0.86212629 4283582277
-0.054475278 0.21235263 0.86311537 4283779912
-0.052744392 0.21304539 0.86611319 4283912012
-0.051002257 0.21373816 0.86911088 4284175185
-0.049270403 0.21397115 0.87009984 4284175698
-0.047522157 0.21443406 0.87209308 4284242005
-0.045780931 0.21466708 0.87308192 4283979090
-0.044019561 0.21513002 0.87507504 4283716432
-0.042250697 0.21559295 0.8770681 4283256394
-0.083919682 0.21725388 0.87747216 4281743411
-0.082133874 0.2167936 0.87544733 4280427550
-0.080378547 0.21656501 0.8744272 4280558879
-0.078626975 0.21633641 0.87340707 4280493086
-0.076879151 0.21610782 0.87238699 4280427293
-0.075117707 0.21564749 0.87036234 4280558366
-0.073363774 0.21518716 0.86833775 4280624672
-0.071603723 0.21449508 0.8653087 4280822051
-0.069878392 0.21426643 0.86428881 4281084710
-0.068146951 0.21380606 0.86226439 4281282345
-0.066431001 0.2135774 0.86124462 4281414445
-0.064724907 0.21358047 0.86122942 4281743153
-0.063018814 0.21358356 0.86121416 4282137910
-0.061312724 0.21358663 0.8611989 4282269495
-0.059607118 0.21382146 0.8621881 4282532154
-0.057899151 0.21382454 0.86217284 4282926400
-0.056191184 0.21382762 0.86215758 4283386438
-0.054478083 0.21406247 0.86314678 4283452231
-0.052754216 0.21452908 0.86514026 4283649867
-0.051013965 0.21522747 0.86813807 4283847247
-0.049273226 0.21569411 0.87013143 4284044625
-0.047537625 0.215929 0.87112039 4284373848
-0.045783766 0.21639566 0.87311363 4284045141
-0.044022404 0.21686235 0.87510681 4285032293
-0.042253543 0.21732904 0.87709993 4285888116
-0.083895795 0.21875638 0.8764993 4281874997
-0.08211185 0.21829234 0.87447441 4280559136
-0.080358401 0.21806188 0.87345421 4280493086
-0.078587577 0.21759783 0.87142944 4280558879
-0.0768435 0.21736735 0.87040937 4280361500
-0.075085804 0.21690327 0.86838466 4280493086
-0.073320121 0.21620557 0.86535543 4280493599
-0.071565688 0.21550785 0.86232626 4280690722
-0.069857724 0.21551093 0.86231101 4281085223
-0.068139888 0.2152804 0.86129117 4281217065
-0.066425808 0.21504988 0.86027139 4281349165
-0.064727701 0.21528657 0.86126071 4281677873
-0.063021615 0.21528964 0.86124545 4282138167
-0.061315522 0.21529272 0.86123019 4282269754
-0.059609428 0.21529579 0.86121494 4282466876
-0.057903338 0.21529888 0.86119974 4282795328
-0.056200504 0.21506831 0.86018002 4283190343
-0.054491151 0.21530503 0.86116922 4283255879
-0.052771043 0.21577539 0.86316288 4283519052
-0.051034551 0.21647939 0.86616081 4283716431
-0.049308326 0.21671614 0.86714989 4283913810
-0.047553089 0.21742018 0.87014765 4290164659
-0.045801107 0.21789059 0.872141 4287927442
-0.044041626 0.21836102 0.87413424 4286743425
-0.082114689 0.2200228 0.87450612 4280295964
-0.08033824 0.21955501 0.87248123 4280361500
-0.078548178 0.21885173 0.86945164 4280493086
-0.076807842 0.21861936 0.86843157 4280558879
-0.075036526 0.21791606 0.86540216 4280493342
-0.073276453 0.21721274 0.86237288 4280559392
-0.071554869 0.21698034 0.86135298 4280756771
-0.069848776 0.21698341 0.86133772 4280954150
-0.06814269 0.21698649 0.86132246 4281151529
-0.066436596 0.21698956 0.8613072 4281349422
-0.064724386 0.21675715 0.86028743 4281678387
-0.06302017 0.21676023 0.86027217 4282072631
-0.06131595 0.2167633 0.86025697 4282204217
-0.059611734 0.21676637 0.86024171 4282467389
-0.057906136 0.21700495 0.86123103 4282598975
-0.056203298 0.21677253 0.86021125 4283059270
-0.054493949 0.21701111 0.86120051 4283322185
-0.052766841 0.21772073 0.86419868 4283519564
-0.051037364 0.21819486 0.86619228 4283519822
