# .PCD v0.7 - Point Cloud Data file format
VERSION 0.7
FIELDS x y z rgba
SIZE 4 4 4 4
TYPE F F F U
COUNT 1 1 1 1
WIDTH 1047
HEIGHT 1
VIEWPOINT 0 0 0 1 0 0 0
POINTS 1047
DATA ascii
-0.069616757 0.15859932 0.84826291 4293585895
-0.067933157 0.15860236 0.84824789 4293848812
-0.066241674 0.15843178 0.84722936 4294177777
-0.064559951 0.15843481 0.84721434 4294441462
-0.062882379 0.15861148 0.84820276 4294704634
-0.061201051 0.15878813 0.84919113 4294836220
-0.059515581 0.15879117 0.84917605 4294836220
-0.057828631 0.15896785 0.85016441 4294901500
-0.056137931 0.15914454 0.85115266 4294901500
-0.054448709 0.15914758 0.85113758 4294901502
-0.052759491 0.15915063 0.8511225 4294901502
-0.05105231 0.15950097 0.85311401 4294901502
-0.04935934 0.15950403 0.85309893 4294901502
-0.047640912 0.15985438 0.85509032 4294901502
-0.045929588 0.16003111 0.85607845 4294901502
-0.044214513 0.16020784 0.85706651 4294901502
-0.04249569 0.16038457 0.85805452 4294901502
-0.040732656 0.16090864 0.86104894 4294901502
-0.038936265 0.16160642 0.8650465 4294901502
-0.0371009 0.16247788 0.87004703 4294901502
-0.035350204 0.16265467 0.8710348 4294901502
-0.033484839 0.16352619 0.87603509 4294901502
-0.03157112 0.16457145 0.8820383 4294901243
-0.092334636 0.1642786 0.87157553 4287268995
-0.090505496 0.16375537 0.86854893 4288914077
-0.088719867 0.16340758 0.86652613 4289506214
-0.086850561 0.16253342 0.86149228 4289637800
-0.085028522 0.16183467 0.85746229 4290361523
-0.08330141 0.16166228 0.85644346 4290756281
-0.08155328 0.16131443 0.85442096 4291019453
-0.079835549 0.16114202 0.8534022 4291216832
-0.078121558 0.1609696 0.85238349 4291611591
-0.076411322 0.16079718 0.85136479 4292137936
-0.074704833 0.16062476 0.85034609 4292401365
-0.0730021 0.16045232 0.84932745 4292796378
-0.07131663 0.16045536 0.84931242 4293256930
-0.069631159 0.1604584 0.84929734 4293519847
-0.067935921 0.16028595 0.84827876 4293980398
-0.066252328 0.16028899 0.84826374 4294177777
-0.064574756 0.16046752 0.84925216 4294375413
-0.062889285 0.16047056 0.84923708 4294704634
-0.061206084 0.16064911 0.85022551 4294836220
-0.05951874 0.16065215 0.85021043 4294836220
-0.057831395 0.16065519 0.85019535 4294901500
-0.056140698 0.16083375 0.85118365 4294901501
-0.054451481 0.16083679 0.85116857 4294901502
-0.052755158 0.16101536 0.85215682 4294901502
-0.051055085 0.16119394 0.85314506 4294901502
-0.049351264 0.16137251 0.85413331 4294901502
-0.047643695 0.1615511 0.85512143 4294901502
-0.045932371 0.16172969 0.85610962 4294901502
-0.044200823 0.16208383 0.85810095 4294901502
-0.04248013 0.16226244 0.85908902 4294901502
-0.040735457 0.1626166 0.86108029 4294901502
-0.038939081 0.16332187 0.86507797 4294901502
-0.037103727 0.16420272 0.87007868 4294835966
-0.035327185 0.16455694 0.87206966 4294901758
-0.033459958 0.16543783 0.87707007 4294901502
-0.031573985 0.16631877 0.88207036 4294967036
-0.092337467 0.1660053 0.87160718 4287466631
-0.090542458 0.16565378 0.86958426 4288519319
-0.088754952 0.16530223 0.86756134 4287466631
-0.086883761 0.1644187 0.86252737 4286611322
-0.085088357 0.1638898 0.85950094 4290032558
-0.083357491 0.16371554 0.858482 4290624695
-0.081605606 0.16336393 0.85645944 4290887867
-0.079838321 0.16283497 0.85343325 4291216832
-0.078124329 0.16266069 0.85241449 4291677383
-0.076414093 0.16248639 0.85139579 4292137935
-0.074707605 0.16231209 0.85037702 4292467157
-0.073020257 0.16231513 0.850362 4292796378
-0.071319394 0.16214082 0.8493433 4293190881
-0.069633923 0.16214386 0.84932828 4293519847
-0.067948453 0.1621469 0.8493132 4293848812
-0.06627088 0.1623273 0.85030168 4294177777
-0.06458354 0.16233034 0.8502866 4294440949
-0.062896192 0.16233338 0.85027152 4294769914
-0.061211124 0.16251381 0.85125995 4294835964
-0.059521507 0.16233948 0.85024136 4294901500
-0.057834163 0.16234252 0.85022628 4294901502
-0.05614347 0.16252296 0.85121465 4294901502
-0.054449026 0.16270339 0.85220295 4294901502
-0.05275793 0.16270643 0.85218787 4294901502
-0.051057864 0.16288689 0.85317612 4294901502
-0.049354043 0.16306734 0.85416436 4294901502
-0.047633752 0.16342521 0.85615593 4294901502
-0.045920558 0.16360569 0.85714406 4294901502
-0.044170666 0.16414098 0.86013883 4294901502
-0.042446222 0.16432148 0.8611269 4294901502
-0.040677585 0.16485682 0.86412144 4294901502
-0.038897693 0.16539218 0.86711591 4294901502
-0.037082583 0.16610497 0.87111354 4294835966
-0.03530417 0.16646294 0.87310457 4294836222
-0.033435084 0.16735323 0.87810516 4294967293
-0.031576853 0.1680661 0.88210243 4294967035
-0.092304274 0.16755281 0.87063509 4288519319
-0.09047699 0.16701834 0.86760825 4288650905
-0.088693224 0.16666305 0.86558533 4285756013
-0.086886562 0.16612853 0.86255872 4285295462
-0.085062623 0.1654148 0.85852844 4289769387
-0.083333634 0.16523866 0.85750949 4290690489
-0.081583619 0.1648833 0.85548687 4290953660
-0.0798411 0.16452794 0.85346431 4291216832
-0.078106083 0.16417255 0.85144186 4291611590
-0.076416865 0.1641756 0.85142672 4292006349
-0.074710369 0.16399942 0.85040802 4292467413
-0.073007628 0.16382323 0.84938931 4292664792
-0.071322158 0.16382627 0.84937423 4293059295
-0.069636688 0.16382931 0.84935915 4293454054
-0.067951217 0.16383235 0.84934413 4293783019
-0.066273652 0.16401464 0.85033262 4294177777
-0.064586304 0.16401768 0.85031754 4294440949
-0.062898964 0.16402073 0.85030246 4294704121
-0.06121162 0.16402377 0.85028738 4294901500
-0.059524275 0.16402681 0.85027236 4294901500
-0.057836931 0.16402985 0.85025728 4294901502
-0.056146238 0.16421217 0.85124564 4294901502
-0.05445702 0.16421521 0.85123056 4294901502
-0.052760705 0.16439752 0.85221887 4294901502
-0.051060639 0.16457985 0.85320717 4294901502
-0.049356822 0.16476218 0.85419548 4294901502
-0.047649257 0.16494451 0.85518372 4294901502
-0.045923345 0.16530614 0.85717529 4294901502
-0.044189934 0.16566779 0.8591668 4294901502
-0.042449024 0.16602944 0.86115819 4294901502
-0.040680394 0.1665704 0.86415291 4294901502
-0.038900513 0.16711138 0.86714751 4294901502
-0.037085414 0.16783167 0.87114525 4294901502
-0.035307005 0.1681934 0.87313634 4294901759
-0.033465657 0.16891375 0.87713385 4294901501
-0.031579718 0.16981344 0.8821345 4294769912
-0.092343129 0.16945872 0.87167054 4288519319
-0.09051396 0.16891862 0.86864364 4288585112
-0.088728316 0.16855958 0.8666206 4285361255
-0.08691977 0.16801944 0.86359388 4286413943
-0.085122474 0.16747929 0.86056721 4289835180
-0.083389729 0.16730128 0.85954821 4290493110
-0.081611179 0.1667611 0.85652179 4291019453
-0.079866782 0.16640198 0.8544991 4291216833
-0.07812988 0.16604285 0.85247654 4291611847
-0.076438785 0.1660459 0.85246146 4292006862
-0.074730411 0.16586785 0.85144264 4292401620
-0.073025793 0.1656898 0.85042387 4292664792
-0.071338445 0.16569284 0.85040879 4293059550
-0.069651105 0.16569589 0.85039371 4293388516
-0.067963764 0.16569893 0.85037863 4293717226
-0.066284321 0.16588309 0.85136718 4294046191
-0.064595103 0.16588613 0.8513521 4294375156
-0.062905885 0.16588919 0.85133702 4294704121
-0.061216667 0.16589223 0.85132194 4294835708
-0.059527446 0.16589528 0.8513068 4294901502
-0.057838228 0.16589832 0.85129172 4294901502
-0.056145664 0.16608252 0.85228014 4294901502
-0.054454572 0.16608556 0.852265 4294901502
-0.052763477 0.16608861 0.85224992 4294901502
-0.051063415 0.1662728 0.85323828 4294901502
-0.049359601 0.16645701 0.85422659 4294901502
-0.047639322 0.16682237 0.85621828 4294901502
-0.045911539 0.16718777 0.85820985 4294901502
-0.044176262 0.16755316 0.86020142 4294901502
-0.042451825 0.16773739 0.86118954 4294901502
-0.040683202 0.16828398 0.86418432 4294901502
-0.038881239 0.16901176 0.86818236 4294901502
-0.037064277 0.16973956 0.87218022 4294901502
-0.035284001 0.17010504 0.87417138 4294901502
-0.033413075 0.17101407 0.87917233 4294704121
-0.092381991 0.17136836 0.87270612 4288585112
-0.090516783 0.17063971 0.86867523 4288782491
-0.088763408 0.17045987 0.86765599 4287861389
-0.086922579 0.16973116 0.86362529 4288190354
-0.085125268 0.16918539 0.86059856 4290164145
-0.083392523 0.1690055 0.8595795 4290427317
-0.081613965 0.16845968 0.8565529 4290098352
-0.079869561 0.16809683 0.85453022 4285164134
-0.078153685 0.16791691 0.85351133 4290625209
-0.076441556 0.16773699 0.85249245 4291941069
-0.074733183 0.16755706 0.85147363 4292401620
-0.073043965 0.16756012 0.85145855 4292730585
-0.071341217 0.16738018 0.85043979 4292994014
-0.069653869 0.16738322 0.85042471 4293322980
-0.067966528 0.16738626 0.85040963 4293651690
-0.066287093 0.1675723 0.85139817 4294046448
-0.064597875 0.16757534 0.85138309 4294375156
-0.062908657 0.1675784 0.85136801 4294769914
-0.061219435 0.16758144 0.85135287 4294835707
-0.059530217 0.16758449 0.85133779 4294901500
-0.057840999 0.16758753 0.85132271 4294901501
-0.05614844 0.16777359 0.85231113 4294901502
-0.054457344 0.16777664 0.85229605 4294901502
-0.052766252 0.1677797 0.85228091 4294901502
-0.05106619 0.16796577 0.85326934 4294901502
-0.049362384 0.16815186 0.85425764 4294901502
-0.047642108 0.16852097 0.85624939 4294901502
-0.045914333 0.16889009 0.85824108 4294901502
-0.04417906 0.16925924 0.86023271 4294901502
-0.042454626 0.16944535 0.8612209 4294901502
-0.040665798 0.1701806 0.86521918 4294901502
-0.038884062 0.17073284 0.86821389 4294901502
-0.037043147 0.17165118 0.87321532 4294901502
-0.035261001 0.17202042 0.87520647 4294901502
-0.0333605 0.17312188 0.88121086 4294901500
-0.090519607 0.17236078 0.86870676 4288848284
-0.088733949 0.17199424 0.86668366 4289045663
-0.086894974 0.17125803 0.86265284 4289045663
-0.085099533 0.17070663 0.859626 4290033071
-0.083368659 0.17052487 0.85860693 4288783004
-0.081616744 0.17015827 0.85658407 4283387979
-0.07987234 0.16979165 0.85456133 4286546043
-0.078156456 0.16960987 0.85354239 4291085760
-0.076463491 0.16961293 0.85352725 4291941069
-0.07475324 0.16943112 0.85250837 4292335827
-0.073046736 0.16924933 0.85148954 4292598999
-0.071343981 0.16906752 0.85047072 4292994014
-0.06965664 0.16907056 0.85045564 4293322980
-0.067969292 0.1690736 0.85044056 4293651946
-0.066281952 0.16907665 0.85042548 4294046448
-0.064600646 0.16926455 0.85141408 4294243827
-0.062911421 0.16926761 0.851399 4294572535
-0.061222207 0.16927065 0.85138386 4294835707
-0.059533399 0.16945858 0.85237241 4294901500
-0.057842303 0.16946164 0.85235727 4294901500
-0.056147873 0.16964957 0.85334575 4294901501
-0.054460119 0.16946773 0.85232705 4294901502
-0.052769024 0.16947079 0.85231197 4294901502
-0.051068969 0.16965874 0.85330039 4294901502
-0.049365163 0.16984668 0.85428876 4294901502
-0.047644891 0.17021956 0.85628057 4294901502
-0.045917124 0.17059243 0.85827231 4294901502
-0.044181857 0.17096531 0.860264 4294901502
-0.042457428 0.17115331 0.86125219 4294901502
-0.04066861 0.17189607 0.86525065 4294901502
-0.038864799 0.17263885 0.86924887 4294901502
-0.037045985 0.17338164 0.87324703 4294901502
-0.035212174 0.17412448 0.87724507 4294704123
-0.03330794 0.17523719 0.88324958 4294967037
-0.090659067 0.17482865 0.8727541 4288848540
-0.088769048 0.17389828 0.86771905 4289243555
-0.086928189 0.17315458 0.86368811 4289638313
-0.085130863 0.17259754 0.86066115 4289967279
-0.083371446 0.1722272 0.85863817 4289309349
-0.081619531 0.17185685 0.85661525 4286546043
-0.07989803 0.17167321 0.85559624 4289375142
-0.078180276 0.17148955 0.85457724 4291348932
-0.076485433 0.17149261 0.8545621 4291941069
-0.074756011 0.17112221 0.85253942 4292138705
-0.073049508 0.17093854 0.85152054 4292533463
-0.071346752 0.17075485 0.85050166 4292862428
-0.069659404 0.17075789 0.85048658 4293257187
-0.067981847 0.17094767 0.85147524 4293651946
-0.066292629 0.17095073 0.85146016 4293980911
-0.064603411 0.17095377 0.85144508 4294309619
-0.062914193 0.17095682 0.85142994 4294572535
-0.061227266 0.17114662 0.85241854 4294901500
-0.05953617 0.17114967 0.8524034 4294901500
-0.057843618 0.17133947 0.85339195 4294836220
-0.056147315 0.17152929 0.85438043 4294836221
-0.054452471 0.17153235 0.85436529 4294901502
-0.052764714 0.17134863 0.85334653 4294901502
-0.051062785 0.17153846 0.85433501 4294901502
-0.049367942 0.17154151 0.85431981 4294901502
-0.047634967 0.17210491 0.85731524 4294901502
-0.045905333 0.17248154 0.85930705 4294901502
-0.044168197 0.17285819 0.8612988 4294901502
-0.042441893 0.17304806 0.86228698 4294901502
-0.040671427 0.17361152 0.86528212 4294901502
-0.038845539 0.1745486 0.87028396 4294835709
-0.037000906 0.1754857 0.87528563 4292072403
-0.035189189 0.17604923 0.87828034 4292993505
-0.090661906 0.17655723 0.87278581 4288717468
-0.088771872 0.17561749 0.86775059 4288980639
-0.086930998 0.17486627 0.86371946 4289573031
-0.085105121 0.17411505 0.85968852 4290033584
-0.08337424 0.17392954 0.8586694 4290230963
-0.081622317 0.17355543 0.85664642 4290493880
-0.079900809 0.17336991 0.85562736 4290954431
-0.078183055 0.17318438 0.85460836 4291414982
-0.076469041 0.17299885 0.85358936 4291414982
-0.074741498 0.17262469 0.85156661 4291414982
-0.073036857 0.17243914 0.85054773 4292336084
-0.071349517 0.17244218 0.85053265 4292928221
-0.069662176 0.17244522 0.85051757 4293191394
-0.067974828 0.17244828 0.85050249 4293585896
-0.0662954 0.17263994 0.85149115 4294046191
-0.064606182 0.17264298 0.85147607 4294243570
-0.062916964 0.17264603 0.85146093 4294572535
-0.061227746 0.17264907 0.85144585 4294769914
-0.059538946 0.17284074 0.85243446 4294901500
-0.057846393 0.17303243 0.853423 4294836220
-0.056150094 0.17322412 0.85441148 4294901501
-0.054455251 0.17322718 0.85439634 4294901502
-0.052760407 0.17323025 0.8543812 4294836222
-0.051056605 0.17342195 0.85536969 4294901502
-0.049359888 0.173425 0.85535449 4294901502
-0.047637757 0.17380537 0.85734648 4294901502
-0.045908127 0.17418575 0.85933834 4294901502
-0.044170998 0.17456615 0.86133015 4294901502
-0.042426366 0.17494656 0.8633219 4294901502
-0.040654033 0.17551565 0.86631703 4294901502
-0.038848367 0.17627342 0.87031555 4294835709
-0.037003748 0.17721991 0.87531745 4293717228
-0.035192043 0.17778906 0.87831223 4294309365
-0.090664737 0.17828581 0.87281752 4288651161
-0.088774689 0.17733669 0.86778212 4288914846
-0.086903386 0.17638753 0.86274689 4289441447
-0.085136458 0.17600971 0.86072373 4290099378
-0.083403699 0.17582233 0.85970455 4290362294
-0.081649899 0.17544448 0.85768151 4290625466
-0.079926513 0.17525709 0.85666239 4291086017
-0.078206874 0.17506969 0.85564333 4290757052
-0.076490991 0.17488228 0.85462427 4288651676
-0.074761562 0.17450438 0.85260147 4288125588
-0.073055044 0.17431696 0.85158247 4291349444
-0.071352281 0.17412952 0.85056359 4292533463
-0.06966494 0.17413257 0.85054851 4293191394
-0.06798739 0.17432609 0.85153723 4293520360
-0.066298172 0.17432915 0.85152215 4293980655
-0.064608954 0.17433219 0.85150701 4294243827
-0.062919736 0.17433524 0.85149193 4294506742
-0.061230518 0.17433828 0.85147685 4294769914
-0.059541717 0.17453183 0.85246545 4294901500
-0.057849169 0.1747254 0.85345405 4294836221
-0.056156203 0.17472845 0.85343891 4294901502
-0.05445803 0.17492202 0.85442746 4294901502
-0.052756105 0.17511559 0.85541594 4294836222
-0.051050436 0.17530917 0.85640442 4294901502
-0.049341012 0.17550276 0.85739285 4294901502
-0.04762784 0.17569636 0.85838121 4294901502
-0.045896344 0.1760805 0.86037314 4294901502
-0.044157345 0.17646465 0.86236501 4294901502
-0.042429175 0.17665826 0.86335331 4294901502
-0.040636644 0.17742352 0.86735207 4294901502
-0.038829118 0.1781888 0.87135071 4294901502
-0.036982641 0.17914467 0.87635273 4294901502
-0.035194896 0.17952889 0.87834418 4294901502
-0.090701744 0.1802067 0.87385327 4288782234
-0.088777505 0.1790559 0.86781371 4289111456
-0.086936608 0.1782897 0.86378229 4289506727
-0.08513926 0.17771579 0.86075503 4289967278
-0.083433166 0.17771888 0.86073977 4290362037
-0.081702277 0.17752962 0.85972059 4290822588
-0.079975136 0.17734034 0.85870141 4291151553
-0.078230701 0.17695874 0.85667837 4291086017
-0.07651294 0.17676945 0.85565931 4289901743
-0.074798927 0.17658016 0.85464025 4288783262
-0.073088661 0.17639087 0.85362124 4287730574
-0.071382143 0.17620157 0.85260224 4290428088
-0.069691055 0.17620462 0.85258716 4293125601
-0.067999959 0.17620766 0.85257202 4293520360
-0.066308863 0.17621072 0.85255694 4293914861
-0.064617768 0.17621377 0.8525418 4294243827
-0.06292668 0.17621683 0.85252672 4294506742
-0.061235584 0.17621987 0.85251158 4294901500
-0.059544493 0.17622292 0.8524965 4294901500
-0.057851944 0.17641835 0.85348511 4294836221
-0.056158978 0.1764214 0.85346997 4294901502
-0.054460809 0.17661685 0.85445857 4294901502
-0.052751813 0.17700469 0.85645074 4294836222
-0.05104427 0.17720015 0.85743922 4294901502
-0.049332976 0.17739563 0.85842764 4294901502
-0.047617935 0.1775911 0.85941607 4294901502
-0.045884565 0.17797898 0.86140805 4294901502
-0.044143699 0.17836688 0.86339998 4294901502
-0.042413656 0.17856239 0.86438829 4294901502
-0.040639464 0.17914273 0.8673836 4294901502
-0.038831949 0.1799155 0.87138242 4294901502
-0.036985487 0.18088074 0.87638456 4294901246
-0.03519775 0.18126872 0.87837607 4294966782
-0.090670407 0.18174297 0.87288094 4288781721
-0.088780329 0.18077511 0.86784524 4289176992
-0.086939417 0.18000141 0.8638137 4289506214
-0.085170604 0.17961608 0.86179036 4290164144
-0.08343596 0.17942496 0.86077106 4290427317
-0.081705071 0.17923382 0.85975188 4290756795
-0.07997793 0.17904268 0.85873264 4291085760
-0.078233488 0.17865732 0.85670954 4291283396
-0.076515719 0.17846616 0.85569042 4290230708
-0.074801706 0.178275 0.85467136 4288191126
-0.07309144 0.17808382 0.8536523 4288454298
-0.071384922 0.17789266 0.8526333 4291414984
-0.069693826 0.17789569 0.85261816 4292994016
-0.068002731 0.17789875 0.85260308 4293585897
-0.066303715 0.17770757 0.85158414 4293848812
-0.064614497 0.17771061 0.851569 4294309363
-0.062925272 0.17771366 0.85155392 4294572535
-0.061236057 0.1777167 0.85153884 4294770169
-0.059547264 0.17791401 0.8525275 4294836220
-0.057856172 0.17791705 0.85251242 4294836220
-0.056165077 0.1779201 0.85249728 4294835965
-0.054468784 0.17811742 0.85348588 4294901502
-0.05276167 0.17850901 0.85547823 4294836222
-0.051056005 0.17870635 0.85646671 4294901502
-0.049335767 0.17909795 0.85845888 4294901502
-0.047620729 0.1792953 0.85944736 4294901502
-0.045901939 0.17949267 0.86043578 4294901502
-0.044162951 0.17988431 0.86242777 4294901502
-0.042434789 0.18008168 0.86341608 4294967295
-0.040662482 0.18066764 0.86641157 4294966782
-0.038856853 0.18144792 0.8704105 4294966782
-0.037012279 0.18242252 0.87541288 4294966782
-0.035226423 0.18281426 0.87740445 4294966525
-0.090775773 0.18405975 0.875925 4288848797
-0.088880055 0.18308252 0.87088901 4288848797
-0.087033503 0.18230134 0.86685735 4289440678
-0.085230507 0.1817162 0.86382979 4290098351
-0.083492115 0.1815232 0.86281049 4290362037
-0.081757471 0.1813302 0.86179119 4290691002
-0.080003649 0.1809411 0.85976791 4291217346
-0.07825733 0.18055199 0.85774469 4291349189
-0.076537684 0.18035896 0.85672551 4291283653
-0.074821785 0.18016593 0.85570639 4290362037
-0.073109642 0.17997289 0.85468727 4291480775
-0.071414798 0.17997594 0.85467213 4292533464
-0.069719955 0.17997901 0.85465699 4293125602
-0.068015307 0.17978595 0.85363799 4293454567
-0.066322342 0.17978901 0.85362285 4293783276
-0.064629368 0.17979206 0.85360771 4294243570
-0.062932223 0.17959899 0.85258877 4294638328
-0.061241131 0.17960204 0.85257363 4294835964
-0.059550036 0.1796051 0.85255855 4294836220
-0.057858944 0.17960814 0.85254341 4294836220
-0.056167852 0.17961119 0.85252833 4294901501
-0.054471564 0.17981037 0.853517 4294901502
-0.052764453 0.18020572 0.85550934 4294836222
-0.051049847 0.18060108 0.85750163 4294901502
-0.049338561 0.18080029 0.85849011 4294901502
-0.047623523 0.18099952 0.85947859 4294901502
-0.045890167 0.1813949 0.8614707 4294901502
-0.044149313 0.18179031 0.86346281 4294901502
-0.042419277 0.18198955 0.86445111 4294901502
-0.040645104 0.18258114 0.86744666 4294966782
-0.038837612 0.18336892 0.87144578 4294966782
-0.036991183 0.1843529 0.87644827 4294966782
-0.035177637 0.18494457 0.87944347 4294966524
-0.08894749 0.18520325 0.87292892 4286808444
-0.087097183 0.18441457 0.86889702 4287597961
-0.085290425 0.18382381 0.8658694 4289374116
-0.083574958 0.18382691 0.86585408 4290427830
-0.081809886 0.18343408 0.86383063 4290690745
-0.080052301 0.18304124 0.86180723 4291085760
-0.078281172 0.18245043 0.85877991 4291414982
-0.076559648 0.18225552 0.85776067 4291809740
-0.074841872 0.18206061 0.85674149 4292138449
-0.073127851 0.18186571 0.85572237 4292270293
-0.071417578 0.18167078 0.85470325 4292862430
-0.069722734 0.18167384 0.85468811 4293125602
-0.068027891 0.18167689 0.85467297 4293388774
-0.066325113 0.18148196 0.85365391 4293783532
-0.064632148 0.18148501 0.85363877 4294178290
-0.062939182 0.18148807 0.85362363 4294573048
-0.061246213 0.18149112 0.85360855 4294835964
-0.059553243 0.18149418 0.85359341 4294836220
-0.057861716 0.18129922 0.85257447 4294836220
-0.056170624 0.18130228 0.85255933 4294901501
-0.054474339 0.18150334 0.85354805 4294901502
-0.052767236 0.18190242 0.85554045 4294901502
-0.051052634 0.18230154 0.8575328 4294966782
-0.049341351 0.18250263 0.85852134 4294901502
-0.047613624 0.18290175 0.86051357 4294901502
-0.045878403 0.18330088 0.86250579 4294901502
-0.044119235 0.18389808 0.86550158 4294901502
-0.042385455 0.18409921 0.86648989 4294966782
-0.040627733 0.18449838 0.86848187 4294966782
-0.038818378 0.18529367 0.87248105 4294966526
-0.036970086 0.18628703 0.87748373 4294966525
-0.035154678 0.18688431 0.88047904 4292925653
-0.090815641 0.18772799 0.87699282 4285622887
-0.088950321 0.18693183 0.87296063 4285622887
-0.08716087 0.1865353 0.87093693 4283781711
-0.085378915 0.18613875 0.86891323 4287202948
-0.083604455 0.1857422 0.86688966 4289111716
-0.081837498 0.18534562 0.86486614 4289111716
-0.080055103 0.1847492 0.86183858 4291019712
-0.078283966 0.18415275 0.85881114 4290691002
-0.076562434 0.18395598 0.8577919 4291743691
-0.074844658 0.1837592 0.85677266 4292204243
-0.07313063 0.18356241 0.85575348 4292401879
-0.071420357 0.18336561 0.8547343 4292665051
-0.069725513 0.18336867 0.85471916 4293191395
-0.068020858 0.18317187 0.8537001 4293454567
-0.066319957 0.18297505 0.85268104 4293783532
-0.064628862 0.18297811 0.8526659 4294178290
-0.062941954 0.18318103 0.85365468 4294507255
-0.061248988 0.18318409 0.8536396 4294901756
-0.059556019 0.18318714 0.85362446 4294836220
-0.057863049 0.1831902 0.85360932 4294836220
-0.056173395 0.18299337 0.85259038 4294901501
-0.054477114 0.18319631 0.8535791 4294901502
-0.052770019 0.18359914 0.85557157 4294901502
-0.051055424 0.184002 0.85756403 4294901502
-0.049344141 0.18420495 0.85855258 4294901502
-0.047616422 0.18460783 0.86054492 4294901502
-0.045866642 0.18521063 0.86354089 4294901502
-0.044105612 0.18581344 0.86653674 4294901502
-0.042369958 0.18601646 0.8675251 4294901502
-0.040590178 0.1866193 0.87052083 4294966782
-0.038777091 0.1874221 0.87452012 4294966782
-0.036949001 0.18822491 0.8785193 4294966525
-0.035157539 0.1886279 0.88051105 4293122776
-0.088985465 0.18886212 0.87399656 4283518796
-0.08719413 0.18846183 0.87197274 4283518796
-0.085381731 0.18785983 0.86894482 4286084981
-0.083633959 0.18766123 0.86792529 4286611839
-0.081865117 0.18726091 0.86590171 4286085494
-0.080080844 0.18665887 0.86287403 4286743425
-0.078307815 0.18605681 0.85984647 4288124821
-0.076584414 0.18585816 0.85882717 4291677899
-0.07486476 0.18565951 0.85780787 4292138194
-0.073148854 0.18546085 0.85678864 4292336086
-0.071436696 0.18526219 0.85576946 4292599258
-0.069728293 0.18506351 0.85475028 4292994016
-0.068023637 0.18486483 0.85373116 4293454567
-0.066322729 0.18466614 0.85271204 4293849068
-0.064637698 0.18487094 0.85370088 4294178033
-0.062944733 0.18487398 0.8536858 4294572535
-0.061254077 0.1850788 0.85467458 4294770684
-0.059559233 0.18508185 0.85465944 4294836220
-0.05786439 0.18508491 0.8546443 4294836220
-0.056172859 0.1848862 0.85362524 4294835965
-0.054474704 0.18509102 0.85461402 4294901502
-0.052765742 0.18549761 0.85660654 4294836222
-0.051049277 0.18590422 0.85859901 4294901502
-0.049336124 0.18610907 0.85958761 4294901502
-0.047606535 0.18651569 0.86158001 4294901502
-0.045854889 0.18712412 0.86457604 4294901502
-0.044091992 0.18773256 0.86757201 4294901502
-0.042354468 0.18793745 0.86856043 4294901502
-0.040572822 0.18854593 0.87155622 4294966782
-0.038757872 0.18935622 0.87555563 4294966782
-0.036903985 0.19036834 0.88055861 4294966525
-0.088955991 0.19038899 0.87302405 4286808702
-0.087136082 0.18978138 0.86999595 4284769120
-0.08535599 0.18937734 0.8679722 4287532684
-0.083610088 0.18917686 0.86695266 4288190614
-0.081818305 0.1885692 0.8639248 4287006340
-0.080060706 0.18816511 0.86190122 4287203719
-0.078289546 0.18755743 0.85887361 4287466891
-0.076568015 0.1873569 0.85785425 4291875022
-0.074850231 0.18715636 0.85683501 4292072401
-0.073151641 0.18715943 0.85681981 4292467159
-0.071439482 0.18695889 0.85580057 4292730587
-0.069731072 0.18675834 0.85478139 4293059809
-0.068016596 0.18635418 0.85275817 4293520360
-0.066317566 0.18615361 0.85173905 4293849325
-0.064634413 0.18636028 0.85272795 4294112497
-0.062943317 0.18636332 0.85271287 4294441462
-0.061256856 0.18677363 0.85470563 4294836220
-0.059562013 0.18677668 0.85469049 4294836220
-0.057867169 0.18677974 0.85467535 4294836221
-0.056172326 0.18678281 0.85466021 4294901502
-0.054477483 0.18678586 0.85464507 4294901502
-0.052768525 0.1871962 0.85663772 4294901502
-0.051052067 0.18760656 0.85863024 4294901502
-0.049349725 0.18760963 0.85861504 4294901502
-0.047622018 0.18802001 0.8606075 4294901502
-0.045872256 0.18863404 0.86360371 4294901502
-0.044111244 0.18924811 0.8665998 4294901502
-0.042357288 0.18965854 0.86859196 4294901502
-0.040575653 0.19027263 0.87158787 4294966782
-0.038760714 0.19109042 0.87558746 4294966782
-0.036930777 0.19190824 0.87958688 4294966524
-0.08895883 0.19211757 0.87305576 4288519833
-0.08710847 0.1912989 0.86902332 4288322454
-0.085301675 0.19068564 0.86599529 4288585626
-0.083559521 0.19048329 0.86497575 4287993747
-0.081796296 0.19007546 0.86295205 4286085751
-0.080017626 0.18946216 0.8599242 4287862162
-0.07827127 0.1890543 0.85790068 4287664527
-0.076551609 0.18885189 0.85688132 4291546057
-0.074835695 0.18864948 0.85586202 4292138194
-0.073154427 0.18885802 0.85685098 4292401623
-0.071442261 0.1886556 0.85583168 4292796637
-0.069745548 0.18865865 0.85581654 4293059809
-0.068029188 0.18825075 0.85379326 4293388774
-0.06632828 0.18804832 0.85277408 4293849325
-0.064637184 0.18805136 0.852759 4294178290
-0.062950283 0.18825991 0.8537479 4294441462
-0.061259635 0.18846847 0.85473675 4294836220
-0.059565239 0.18867703 0.85572559 4294836221
-0.057868518 0.18868008 0.85571045 4294901758
-0.056171801 0.18868315 0.85569525 4294901502
-0.054475084 0.18868621 0.85568011 4294901502
-0.052771311 0.18889478 0.85666889 4294901502
-0.051063791 0.18910336 0.85765761 4294901502
-0.049352519 0.18931195 0.85864627 4294901502
-0.047624815 0.18972608 0.8606388 4294901502
-0.045875065 0.19034575 0.86363506 4294901502
-0.044114061 0.19096544 0.86663127 4294901502
-0.042360112 0.19137961 0.86862355 4294901502
-0.040558308 0.19220488 0.87262338 4294901502
-0.038741507 0.19303018 0.87662303 4294901502
-0.036933631 0.19364995 0.87961882 4294967037
-0.088961661 0.19384615 0.87308747 4288585881
-0.087111294 0.19301997 0.86905491 4289046689
-0.085304491 0.1924011 0.86602676 4289573034
-0.083535634 0.19198953 0.86400294 4290099123
-0.081774279 0.19157796 0.86197919 4289770159
-0.08002042 0.19116636 0.85995549 4290164917
-0.078252986 0.19054741 0.85692763 4289704366
-0.076554395 0.19055048 0.85691249 4291546570
-0.074838482 0.19034618 0.85589314 4291875535
-0.073157206 0.1905566 0.85688215 4292401879
-0.071458615 0.19055967 0.85686696 4292730844
-0.069760025 0.19056273 0.85685176 4293125602
-0.068051606 0.19035843 0.85583252 4293454567
-0.066346943 0.19015412 0.85481328 4293717739
-0.0646521 0.19015719 0.85479814 4294112497
-0.062957257 0.19016024 0.854783 4294704634
-0.061262414 0.1901633 0.85476786 4294836220
-0.059568021 0.19037373 0.8557567 4294836221
-0.057871301 0.19037679 0.85574156 4294901758
-0.056171283 0.19058724 0.8567304 4294901502
-0.054467514 0.19079769 0.85771918 4294901502
-0.052759994 0.19100815 0.8587079 4294901502
-0.051057652 0.19101122 0.85869271 4294901502
-0.04934451 0.19122168 0.85968143 4294901502
-0.04761494 0.19163957 0.86167401 4294901502
-0.04587787 0.19205746 0.86366647 4294901502
-0.044116877 0.19268277 0.8666628 4294901502
-0.042362936 0.19310069 0.86865515 4294901502
-0.040561143 0.19393346 0.87265509 4294901502
-0.038722303 0.19497368 0.87765867 4294901502
-0.088932171 0.19536555 0.87211484 4288585624
-0.087083668 0.19453186 0.86808217 4289178019
-0.085278727 0.19390735 0.86505389 4289573033
-0.083538443 0.19370124 0.8640343 4290164915
-0.081777073 0.19328591 0.86201048 4290559674
-0.080000266 0.19266136 0.8589825 4290888639
-0.078255773 0.19224599 0.85695881 4291349191
-0.076537982 0.19203983 0.85593945 4291612363
-0.074841261 0.1920429 0.85592425 4291941328
-0.073144548 0.19204596 0.85590911 4292336086
-0.071447827 0.19204903 0.85589397 4292862430
-0.069751114 0.19205208 0.85587877 4293059809
-0.068044566 0.19184591 0.85485953 4293388774
-0.066349722 0.19184896 0.85484439 4293783532
-0.064654879 0.19185202 0.85482919 4294178290
-0.062960036 0.19185507 0.85481405 4294573305
-0.061265193 0.19185813 0.85479891 4294705148
-0.059570353 0.1918612 0.85478377 4294836222
-0.057874084 0.19207351 0.85577267 4294836222
-0.056177367 0.19207656 0.85575753 4294901758
-0.054475475 0.19228889 0.85674638 4294901502
-0.052769832 0.19250122 0.85773516 4294901502
-0.051060442 0.19271356 0.85872394 4294901502
-0.049347304 0.1929259 0.85971266 4294901502
-0.047630414 0.19313826 0.86070138 4294901502
-0.045895226 0.19355989 0.86269397 4294901502
-0.044136114 0.19419082 0.86569041 4294901502
-0.042384055 0.19461249 0.86768281 4294901502
-0.040584151 0.19545275 0.87168294 4294901502
-0.038747199 0.19650233 0.87668675 4294901502
-0.088967331 0.19730332 0.87315089 4288650391
-0.087116934 0.19646214 0.86911803 4289046176
-0.085310116 0.19583201 0.8660897 4289506728
-0.083541244 0.19541295 0.86406571 4290164658
-0.081779875 0.19499387 0.86204183 4290625466
-0.080026008 0.19457477 0.86001801 4290888639
-0.078279637 0.19415566 0.85799426 4291217605
-0.076579168 0.19415873 0.85797906 4291678156
-0.07486137 0.1939507 0.85695964 4292007121
-0.073162779 0.19395377 0.85694444 4292336086
-0.071464188 0.19395684 0.8569293 4292665051
-0.069753893 0.19374879 0.85590994 4293059809
-0.068057172 0.19375186 0.85589474 4293454567
-0.066368409 0.19396603 0.85688376 4294046704
-0.064669818 0.19396909 0.85686857 4294375669
-0.062971227 0.19397216 0.85685343 4294638841
-0.061270304 0.19376409 0.85583413 4294836220
-0.059573583 0.19376715 0.85581899 4294836220
-0.057876866 0.19377021 0.85580379 4294836221
-0.056180149 0.19377327 0.85578865 4294901758
-0.054473091 0.19419861 0.85778153 4294901502
-0.052765578 0.19441281 0.85877037 4294901502
-0.051045395 0.19483818 0.86076319 4294901502
-0.049339302 0.19484125 0.86074793 4294901502
-0.047607869 0.19526663 0.86274064 4294901502
-0.045868941 0.19569203 0.86473322 4294901502
-0.044106089 0.1963286 0.86772972 4294901502
-0.04236858 0.19654286 0.86871827 4294901502
-0.040566813 0.19739063 0.87271851 4294901502
-0.038728002 0.19844958 0.87772244 4294901502
-0.088937834 0.19881895 0.8721782 4288716698
-0.087089308 0.19797027 0.86814523 4288980383
-0.085284352 0.19733453 0.86511678 4289506727
-0.083544053 0.19712466 0.86409712 4290099122
-0.081782676 0.19670182 0.86207318 4290559673
-0.080028802 0.19627899 0.86004925 4291020226
-0.078303508 0.19606909 0.85902977 4291349191
-0.076601163 0.19607216 0.85901451 4291743949
-0.074881487 0.19586226 0.85799503 4292072914
-0.073165566 0.19565235 0.85697562 4292401879
-0.071466975 0.19565542 0.85696042 4292796637
-0.069756672 0.19544549 0.85594106 4293125602
-0.068059959 0.19544856 0.85592592 4293520360
-0.066371195 0.19566461 0.85691494 4294112497
-0.064672604 0.19566767 0.85689974 4294507255
-0.062974013 0.19567074 0.85688454 4294704634
-0.061273087 0.1954608 0.85586524 4294836220
-0.059576366 0.19546387 0.8558501 4294836220
-0.057878233 0.19567993 0.85683906 4294836221
-0.056179639 0.19568299 0.85682386 4294901758
-0.05447071 0.19611208 0.8588168 4294901502
-0.052761327 0.19632816 0.85980564 4294901502
-0.051039275 0.19675729 0.86179852 4294901502
-0.049320515 0.19697338 0.86278725 4294901502
-0.047598008 0.19718949 0.86377597 4294901502
-0.04587175 0.19740561 0.86476469 4294836222
-0.044108909 0.1980478 0.86776125 4294901502
-0.042371403 0.19826394 0.86874986 4294901502
-0.040569648 0.19911921 0.87275022 4294966782
-0.038708813 0.20040058 0.87875825 4294966782
-0.088940665 0.20054567 0.87220991 4288847512
-0.087092124 0.19968948 0.86817682 4289045406
-0.085287161 0.1990481 0.86514825 4289703593
-0.083520152 0.19862154 0.86312413 4290099122
-0.081760645 0.19819495 0.86110014 4290493881
-0.080031596 0.19798319 0.86008054 4290888640
-0.078306295 0.19777143 0.859061 4291283398
-0.076603957 0.1977745 0.85904574 4291678156
-0.074884281 0.19756272 0.85802627 4292072657
-0.073183812 0.19756579 0.85801107 4292336086
-0.071483344 0.19756885 0.85799587 4292665051
-0.069771163 0.19735706 0.85697645 4293059809
-0.068072572 0.19736013 0.85696125 4293520360
-0.066373982 0.1973632 0.85694605 4294178290
-0.064669304 0.19715139 0.85592669 4294573048
-0.062972583 0.19715445 0.85591155 4294704634
-0.06127587 0.19715752 0.85589635 4294836220
-0.059579149 0.19716057 0.85588121 4294836221
-0.057881016 0.19737852 0.85687017 4294836222
-0.056179136 0.19759646 0.85785913 4294901758
-0.054468337 0.19802931 0.85985214 4294901502
-0.052757081 0.19824727 0.86084104 4294901502
-0.051042076 0.19846524 0.86182982 4294901502
-0.04932332 0.19868322 0.8628186 4294966782
-0.047600813 0.19890121 0.86380738 4294966782
-0.045874558 0.1991192 0.8647961 4294901502
-0.044128142 0.1995521 0.8667888 4294901502
-0.042374223 0.19998503 0.86878145 4294901502
-0.040572483 0.20084779 0.87278193 4294966783
-0.088975832 0.20248906 0.87324601 4289041811
-0.087125406 0.20162539 0.86921281 4289307551
-0.085318558 0.20097838 0.86618412 4289768873
-0.083549671 0.20054807 0.86415994 4290098865
-0.081813119 0.20033444 0.86314023 4290559417
-0.080057353 0.19990411 0.86111617 4290954176
-0.078330174 0.19969048 0.86009657 4291217605
-0.076625958 0.19969355 0.86008137 4291677900
-0.074904405 0.19947991 0.85906178 4292006608
-0.073202059 0.19948298 0.85904658 4292336086
-0.07149972 0.19948605 0.85903138 4292730844
-0.069797374 0.19948912 0.85901618 4293125602
-0.068085194 0.19927545 0.8579967 4293454567
-0.066384725 0.19927852 0.8579815 4294243827
-0.064678177 0.19906484 0.85696208 4294507255
-0.062975369 0.19885115 0.85594267 4294704635
-0.061278649 0.19885422 0.85592753 4294901502
-0.059581932 0.19885728 0.85591233 4294901502
-0.057882391 0.19929385 0.85790551 4294836222
-0.056178637 0.19951367 0.85889447 4294901502
-0.054465972 0.19995028 0.86088753 4294901502
-0.052752845 0.20017011 0.86187643 4294901502
-0.051035967 0.20038997 0.86286527 4294901502
-0.049315337 0.20060982 0.86385405 4294901502
-0.04759096 0.20082968 0.86484283 4294836222
-0.045862835 0.20104955 0.86583161 4294901502
-0.044114549 0.20148621 0.86782432 4294966782
-0.042358764 0.20192289 0.86981702 4294966527
-0.040555157 0.20279315 0.87381762 4294966271
-0.089011006 0.20443621 0.87428224 4287788407
-0.087158687 0.20356505 0.87024885 4287788407
-0.085349962 0.20291242 0.86722004 4289831584
-0.0836059 0.20269693 0.86620027 4290623411
-0.081815921 0.20204428 0.86317158 4290756538
-0.080060154 0.20161019 0.86114746 4291085247
-0.078311883 0.20117609 0.85912341 4291348163
-0.076590322 0.20096058 0.85810381 4291808716
-0.074889854 0.20096363 0.85808867 4292596690
-0.073189385 0.2009667 0.85807347 4292597461
-0.071488917 0.20096977 0.85805827 4293058526
-0.069788456 0.20097284 0.85804307 4293387748
-0.068087988 0.20097591 0.85802788 4293716713
-0.066379555 0.20076036 0.8570084 4294243316
-0.064674869 0.2005448 0.85598898 4294637817
-0.062978148 0.20054787 0.85597378 4294835453
-0.061279092 0.2003323 0.85495442 4294901502
-0.059584714 0.20055398 0.8559435 4294835709
-0.057885181 0.20099431 0.85793674 4294901502
-0.056181427 0.20121601 0.8589257 4294967295
-0.054473929 0.20143773 0.85991466 4294901503
-0.052762676 0.20165944 0.86090362 4294966783
-0.051047679 0.20188116 0.86189252 4294966783
-0.049328927 0.20210288 0.86288136 4294966527
-0.047606427 0.20232461 0.8638702 4294966271
-0.045865647 0.20276502 0.86586308 4294966783
-0.044117369 0.20320542 0.86785591 4294966015
-0.042361587 0.20364586 0.86984861 4294966015
-0.040537838 0.20474228 0.87485343 4294965503
-0.089046188 0.20638712 0.87531853 4285539636
-0.087222449 0.20572889 0.87228948 4285539636
-0.085409962 0.20507066 0.86926055 4286333002
-0.083662152 0.20485331 0.86824071 4287851118
-0.08186841 0.20419504 0.8652119 4290420640
-0.080062948 0.20331629 0.86117876 4286920777
-0.078293577 0.20265797 0.85815024 4287451743
-0.076593108 0.20266104 0.85813504 4288967549
-0.074875303 0.20244363 0.85711545 4290285464
-0.073192179 0.20266716 0.85810465 4291997622
-0.071491711 0.20267023 0.85808945 4292920521
-0.069791242 0.2026733 0.85807425 4293382355
-0.068080932 0.20245588 0.85705471 4294040799
-0.066382341 0.20245895 0.85703957 4294896880
-0.064677648 0.20224153 0.85602009 4294964216
-0.062980935 0.20224458 0.85600489 4294964216
-0.061284214 0.20224763 0.85598975 4294964730
-0.059587967 0.2024712 0.85697883 4294964987
-0.057887968 0.20269477 0.85796791 4294964730
-0.056184221 0.20291835 0.85895693 4294964474
-0.054476723 0.20314193 0.85994595 4294963960
-0.052772507 0.203145 0.85993069 4294963961
-0.051068287 0.20314808 0.85991549 4294962165
-0.04935329 0.20337167 0.8609044 4294566636
-0.047621891 0.2038158 0.86289746 4293839063
-0.04586846 0.20448047 0.86589456 4292313502
-0.044103783 0.20514517 0.86889154 4292242319
-0.042346135 0.20558934 0.8708843 4293837009
-0.040520526 0.20669515 0.87588924 4292115099
-0.087316692 0.20812257 0.87533486 4286915386
-0.085469969 0.20723639 0.87130123 4286585907
-0.083718412 0.20701717 0.87028128 4286719547
-0.081896067 0.20613095 0.86624783 4287636798
-0.08008872 0.20524471 0.86221457 4288161346
-0.078317463 0.20458075 0.85918587 4288291649
-0.076615117 0.20458384 0.85917068 4287962686
-0.074895434 0.20436455 0.85815102 4288029251
-0.073194966 0.20436762 0.85813582 4288424009
-0.071494497 0.20437069 0.85812068 4288426062
-0.069794029 0.20437376 0.85810548 4288428116
-0.068083718 0.20415446 0.85708588 4288297557
-0.066393092 0.20437989 0.85807508 4289748084
-0.064692624 0.20438296 0.85805988 4290538371
-0.062992163 0.20438603 0.85804468 4290604165
-0.061291691 0.2043891 0.85802948 4290801800
-0.059591226 0.20439216 0.85801429 4291129996
-0.057889353 0.2046176 0.85900337 4291128969
-0.056187011 0.20462067 0.85898817 4291193478
-0.054484669 0.20462374 0.85897297 4290995073
-0.052782327 0.20462683 0.85895777 4291520392
-0.051079985 0.2046299 0.85894257 4292440981
-0.049366865 0.20485535 0.85993153 4292572054
-0.047624696 0.20552564 0.86292881 4292899735
-0.045871273 0.20619594 0.86592603 4293030549
-0.044073801 0.20731106 0.87093139 4293226645
-0.04231241 0.20775899 0.87292421 4293160338
-0.087319531 0.2098549 0.87536663 4286326073
-0.0854728 0.20896122 0.87133282 4286915128
-0.083721235 0.20874013 0.87031287 4286127666
-0.081898876 0.2078464 0.8662793 4286127666
-0.080091514 0.20695266 0.86224592 4286979382
-0.078320257 0.20628309 0.85921711 4287899201
-0.076598689 0.20606194 0.85819745 4288490568
-0.074898221 0.20606501 0.85818225 4288883786
-0.073213227 0.2062923 0.85917151 4289145933
-0.071497284 0.20607115 0.85815185 4289605714
-0.069785096 0.20584999 0.85713226 4290065239
-0.068086505 0.20585304 0.85711706 4290261592
-0.066387907 0.20585611 0.85710186 4290985060
-0.064695418 0.20608342 0.85809106 4291182952
-0.062990725 0.20586224 0.85707152 4291511661
-0.061292131 0.20586531 0.85705638 4291774833
-0.059593536 0.20586836 0.85704118 4292235384
-0.057893544 0.2060957 0.85803032 4292235897
-0.056193076 0.20609875 0.85801512 4292367740
-0.054487463 0.20632608 0.8590042 4292368511
-0.052792143 0.20610489 0.85798472 4292502920
-0.051091675 0.20610796 0.85796952 4293228696
-0.049380433 0.20633529 0.85895854 4293623454
-0.047640149 0.20701119 0.861956 4293557661
-0.045874089 0.20791139 0.8659575 4291782020
-0.044076633 0.20903589 0.87096304 4290203757
-0.042315245 0.20948757 0.87295592 4288495193
-0.085532829 0.2111382 0.87337369 4281146394
-0.08377751 0.21091524 0.87235367 4281931801
-0.081951395 0.21001403 0.86831993 4281931801
-0.080186225 0.20956495 0.86629546 4283044893
-0.078449659 0.20934196 0.86527562 4284291109
-0.07671684 0.20911896 0.86425579 4285340460
-0.075005122 0.20912205 0.86424047 4287243581
-0.073262453 0.20867294 0.86221617 4288227396
-0.071540885 0.20844992 0.86119646 4288884043
-0.069823064 0.20822689 0.86017674 4289475410
-0.068108991 0.20800385 0.85915709 4290000729
-0.066406652 0.20800692 0.85914189 4290395231
-0.064710408 0.20823611 0.86013108 4291118441
-0.063001968 0.20801307 0.85911149 4291315821
-0.061299622 0.20801614 0.85909629 4291578992
-0.05959776 0.20824534 0.86008543 4291973751
-0.057892144 0.20847453 0.86107451 4292105594
-0.056186054 0.20847762 0.86105931 4292040571
-0.054474816 0.20870683 0.86204833 4291844988
-0.052773871 0.20848377 0.86102879 4291518334
-0.051067777 0.20848684 0.86101353 4291388801
-0.049361683 0.20848992 0.86099833 4290271604
-0.047630303 0.2089453 0.86299157 4289023333
-0.04586238 0.20985299 0.86699319 4286792531
-0.044030275 0.21143919 0.87400728 4285613389
-0.042245001 0.2121208 0.87700438 4284632141
-0.08553566 0.21286678 0.8734054 4280425753
-0.083780348 0.21264195 0.87238532 4280622875
-0.082003921 0.21218915 0.87036073 4280885019
-0.080257975 0.21196429 0.86934072 4281278236
-0.078515783 0.21173944 0.86832076 4281736734
-0.076777332 0.21151458 0.86730087 4282326048
-0.075042635 0.2112897 0.86628097 4283046948
-0.073311694 0.21106482 0.86526114 4283637030
-0.071570888 0.21061195 0.86323678 4283964197
-0.06984932 0.21038707 0.86221701 4284883246
-0.068131499 0.21016216 0.86119729 4285605429
-0.066417426 0.20993724 0.86017758 4285867318
-0.064713202 0.20994031 0.86016238 4286195770
-0.063004754 0.2097154 0.85914272 4286721345
-0.06130477 0.20994647 0.86013192 4287181639
-0.059601035 0.21017754 0.86112106 4287510605
-0.057893548 0.21040863 0.8621102 4287905620
-0.056185585 0.21041171 0.86209494 4287841110
-0.054472473 0.2106428 0.86308402 4287251797
-0.052762631 0.21064588 0.86306876 4286925398
-0.051043898 0.21087699 0.86405778 4286073170
-0.049332179 0.21088007 0.86404246 4285812565
-0.047582537 0.21156724 0.86704004 4284962647
-0.045792613 0.21271047 0.87204599 4284503892
-0.043967545 0.21408178 0.87805599 4284241746
-0.085509889 0.21436554 0.87243247 4280164122
-0.083729714 0.213909 0.8704077 4280229658
-0.081957035 0.21345244 0.86838305 4280229658
-0.080214836 0.21322571 0.86736304 4280557853
-0.078497492 0.21322881 0.86734772 4280886561
-0.076780148 0.21323191 0.86733234 4281017376
-0.075045452 0.21300516 0.86631244 4281411108
-0.073314503 0.2127784 0.86529255 4281608229
-0.071587302 0.21255164 0.86427271 4281870887
-0.069875583 0.21255472 0.8642574 4282264873
-0.068134293 0.21186824 0.86122859 4282461483
-0.066428199 0.21187131 0.86121333 4282593838
-0.064722106 0.2118744 0.86119807 4282857267
-0.06301602 0.21187747 0.86118287 4283185976
-0.061312284 0.21211042 0.86217207 4283514940
-0.059604317 0.2121135 0.86215681 4283778625
-0.05789635 0.21211658 0.86214155 4284304200
-0.056191649 0.21188979 0.86112189 4284501581
-0.054480419 0.21212274 0.86211103 4284502094
-0.052765436 0.21235572 0.86310011 4284699987
-0.051037814 0.21281858 0.86509353 4284569428
-0.04931346 0.21305157 0.86608255 4284504405
-0.047522157 0.21443406 0.87209308 4284242003
-0.045737389 0.2153568 0.87609482 4284242260
-0.08551272 0.21609224 0.87246412 4280690466
-0.083732538 0.21563196 0.87043929 4280295708
-0.081934988 0.21493994 0.86740988 4280295708
-0.080194667 0.21471134 0.86638987 4280361501
-0.078479201 0.21471442 0.86637455 4280624159
-0.076763734 0.21471752 0.86635923 4280887331
-0.075065628 0.21495233 0.86734849 4281084196
-0.073348284 0.21495543 0.86733317 4281215782
-0.071617335 0.21472681 0.86631328 4281412648
-0.069901869 0.21472989 0.8662979 4281610025
-0.068156816 0.21403779 0.86326897 4281741611
-0.066446975 0.21404088 0.86325371 4282070577
-0.064743243 0.2142757 0.86424291 4282531127
-0.063031524 0.21427879 0.86422765 4282794299
-0.061322175 0.21451361 0.86521679 4283123264
-0.059608582 0.21451671 0.86520153 4283583560
-0.057897765 0.2140563 0.8631773 4283978062
-0.056191184 0.21382762 0.86215758 4283978575
-0.054488353 0.21359894 0.86113793 4284044624
-0.052775253 0.21383378 0.86212707 4284242260
-0.051040623 0.21453217 0.86512494 4284045652
-0.04930551 0.2149988 0.86711836 4284111445
-0.047512352 0.21639255 0.87312907 4284111188
-0.045725722 0.21732278 0.87713093 4283913809
-0.085486941 0.21758538 0.87149107 4282730049
-0.083708622 0.21712133 0.86946619 4282730049
-0.081912942 0.21642369 0.86643666 4283124807
-0.080151498 0.21595962 0.86441195 4282335034
-0.07843978 0.21596271 0.86439669 4281545519
-0.076728068 0.21596579 0.86438137 4281018918
-0.07501635 0.21596888 0.86436605 4281611310
-0.073304631 0.21597198 0.8643508 4281216296
-0.07159292 0.21597506 0.86433548 4281282089
-0.069881201 0.21597815 0.86432022 4281478954
-0.068149753 0.21551402 0.86229575 4281676333
-0.066441789 0.21551709 0.86228049 4282071091
-0.064733818 0.21552017 0.86226523 4282465593
-0.063025855 0.21552326 0.86224997 4282794814
-0.061320253 0.21575996 0.86323923 4283123779
-0.059610412 0.21576305 0.86322397 4283386951
-0.057903338 0.21529888 0.86119974 4283781453
-0.056200504 0.21506831 0.86018002 4283979345
-0.054501418 0.21483776 0.85916036 4284045138
-0.052792069 0.21507446 0.86014956 4284308567
-0.051070087 0.21554482 0.86214316 4284177238
-0.049329843 0.21624884 0.86514109 4284111701
-0.047540456 0.21765383 0.87115204 4284045908
-0.045757584 0.21859156 0.87515408 4283914322
-0.085489772 0.21931021 0.87152272 4281151017
-0.083738185 0.21907787 0.87050253 4282466877
-0.081915759 0.21813916 0.86646813 4282466877
-0.080154307 0.21767132 0.86444336 4282730049
-0.078421474 0.21743895 0.86342335 4283585358
-0.076711632 0.21744204 0.86340809 4282795842
-0.074984424 0.21720965 0.86238813 4284046165
-0.07329195 0.2174482 0.86337751 4281217066
-0.071582109 0.21745129 0.86336225 4281085223
-0.069860518 0.21721889 0.86234236 4281216809
-0.06814269 0.21698649 0.86132246 4281414188
-0.066428602 0.21675408 0.86030263 4281677360
-0.064724386 0.21675715 0.86028743 4282203704
-0.06302017 0.21676023 0.86027217 4282663998
-0.061318319 0.2169988 0.86126149 4282992707
-0.059612226 0.21700187 0.86124629 4283321672
-0.057907514 0.21676946 0.86022651 4283519564
-0.056203298 0.21677253 0.86021125 4283782736
-0.054504212 0.21654008 0.8591916 4283914322
-0.052794863 0.21677867 0.86018085 4284309080
-0.051064007 0.2174883 0.86317897 4284243287
-0.049343407 0.2177269 0.86416811 4284046165
-0.047568545 0.21890761 0.86917484 4283980372
-0.045789436 0.21985282 0.87317705 4283782737
-0.044011705 0.22056253 0.87617475 4283387980
-0.085492596 0.22103505 0.87155437 4280624673
-0.083714269 0.2205635 0.86952937 4280624673
-0.081918567 0.21985461 0.8664996 4280295708
-0.080134116 0.2191457 0.86347002 4280361758
-0.07840316 0.21891144 0.86244994 4281546032
-0.076695189 0.21891452 0.86243469 4281611824
-0.07496985 0.21868026 0.86141473 4282401339
-0.073263757 0.21868335 0.86139947 4283914322
-0.071557671 0.21868642 0.86138427 4280887844
-0.069851577 0.2186895 0.86136901 4281151016
-0.068135612 0.21845521 0.86034912 4281348395
-0.066423401 0.21822093 0.85932928 4281743153
-0.064721055 0.218224 0.85931408 4282203704
-0.063022964 0.21846443 0.86030346 4282466876
-0.061318744 0.2184675 0.8602882 4282861377
-0.059614528 0.21847059 0.860273 4283321928
-0.057910308 0.21847366 0.86025774 4283387978
-0.056206092 0.21847673 0.86024255 4283387978
