# .PCD v0.7 - Point Cloud Data file format
VERSION 0.7
FIELDS x y z rgba
SIZE 4 4 4 4
TYPE F F F U
COUNT 1 1 1 1
WIDTH 900
HEIGHT 1
VIEWPOINT 0 0 0 1 0 0 0
POINTS 900
DATA ascii
0.068613507 0.084335037 0.88073891 4286677886
0.070963368 0.084278911 0.88015276 4286743679
0.073382527 0.084306061 0.8804363 4286743679
0.075823702 0.08435598 0.88095766 4286546555
0.068293817 0.086328045 0.87663531 4287335558
0.070290186 0.085852213 0.87180334 4287665036
0.072535031 0.085701026 0.87026811 4287665034
0.074685663 0.08545161 0.86773539 4287336069
0.076951236 0.08534497 0.86665243 4287072897
0.079214193 0.085241847 0.86560529 4287007104
0.081659198 0.085334934 0.86655056 4286941311
0.083944842 0.085260935 0.86579907 4286876034
0.086295374 0.085255072 0.86573958 4286941827
0.088647887 0.085251436 0.86570263 4287007620
0.091037415 0.085282654 0.86601967 4287139460
0.11939012 0.085331246 0.86651307 4290099894
0.12156265 0.085200973 0.86519021 4290099894
0.12389491 0.085185468 0.86503279 4290428089
0.12645814 0.085326396 0.86646384 4290691263
0.12914228 0.085542254 0.8686558 4290822849
0.13156687 0.085581511 0.86905444 4291086537
0.068349093 0.088785805 0.87734485 4287532937
0.070109457 0.087998167 0.86956173 4288059279
0.072205149 0.087669119 0.86631024 4288059790
0.07404425 0.087059185 0.86028314 4288060044
0.076202027 0.086849853 0.85821456 4288323216
0.078242823 0.086523607 0.85499078 4288520595
0.080591895 0.086547263 0.85522449 4288586134
0.082661971 0.086278394 0.85256761 4288586906
0.084916785 0.086211756 0.85190916 4288718492
0.087097235 0.086075179 0.85055953 4288719005
0.089306824 0.085973717 0.84955692 4288784798
0.091501407 0.085863292 0.8484658 4288653212
0.093751438 0.085809059 0.84792989 4288718751
0.096078992 0.085826688 0.84810406 4288718751
0.098401271 0.085838884 0.84822458 4288652958
0.10074171 0.085865997 0.8484925 4288850337
0.10308158 0.085891426 0.8487438 4289113509
0.10528074 0.085801065 0.84785086 4289179302
0.10759206 0.085804015 0.84788007 4289508267
0.10991856 0.085818708 0.8480252 4290034099
0.11239346 0.085946269 0.84928572 4290692029
0.11472354 0.08596018 0.84942317 4291218375
0.11701374 0.08594425 0.84926575 4291547340
0.11937109 0.085977301 0.84959239 4292270295
0.12203699 0.086227104 0.85206085 4292467674
0.12489077 0.086597875 0.85572463 4292927971
0.12778713 0.086984038 0.85954052 4293191143
0.13041684 0.087178089 0.86145806 4293454315
0.13379632 0.087857611 0.86817282 4294309624
0.068405002 0.091248266 0.87806249 4287532937
0.070217393 0.090503983 0.87090045 4287927947
0.07225211 0.090085521 0.86687368 4288256910
0.074231036 0.089626156 0.86245328 4288191630
0.076393761 0.089410067 0.86037391 4288520595
0.078454919 0.089091502 0.85730839 4288520595
0.080740936 0.089039311 0.85680616 4288389525
0.082787551 0.088733442 0.85386288 4288652697
0.085007466 0.088624954 0.85281891 4288719003
0.087193131 0.088487476 0.85149598 4288719003
0.089454435 0.088431895 0.85096115 4288982175
0.091595337 0.088263094 0.8493368 4288916384
0.093725242 0.088092268 0.84769297 4288784798
0.095917225 0.087986596 0.84667611 4288784798
0.098254628 0.088016152 0.84696054 4289113509
0.10049164 0.087956481 0.84638631 4289113509
0.10276497 0.08793056 0.84613693 4289376681
0.10499559 0.087870032 0.84555447 4289771439
0.10746343 0.08800637 0.84686643 4289771439
0.10985749 0.088077828 0.84755403 4290494650
0.11213607 0.08805567 0.84734082 4290823615
0.11430416 0.087949388 0.84631807 4291218375
0.11659525 0.087940067 0.84622842 4291810512
0.11912446 0.088107243 0.84783709 4292073430
0.1219316 0.088469706 0.85132498 4292270811
0.12493286 0.088956878 0.85601294 4292862178
0.12797025 0.089451469 0.86077231 4293191143
0.13085446 0.089823127 0.86434865 4293782769
0.13446566 0.090671875 0.87251604 4293914355
0.068519622 0.093795002 0.87953377 4287400838
0.070178613 0.092823043 0.8704195 4287993486
0.072065853 0.092206597 0.86463898 4288257423
0.074074134 0.091779105 0.86063033 4288191630
0.076281555 0.091617003 0.85911024 4288060558
0.078374386 0.091331005 0.85642838 4288520595
0.080548361 0.091153361 0.85476255 4288521109
0.082659237 0.090916276 0.85253942 4288653208
0.084784314 0.090707347 0.85058022 4288587417
0.08698447 0.090587698 0.84945828 4288850589
0.089166485 0.09045586 0.84822196 4288850589
0.091364376 0.090346366 0.84719521 4288850589
0.093437731 0.090122133 0.84509259 4288850589
0.095600091 0.089992471 0.84387672 4288916384
0.097921446 0.090015054 0.84408844 4288981923
0.10020111 0.089999147 0.8439393 4289179302
0.10254191 0.090037644 0.84430027 4289508267
0.10478584 0.089991257 0.84386533 4289771439
0.10726686 0.090146102 0.8453173 4290231990
0.10951129 0.090099797 0.84488314 4290363577
0.11183265 0.09011738 0.84504801 4290889408
0.11400331 0.09001527 0.84409052 4291284168
0.1164497 0.090130612 0.84517205 4291744719
0.11902066 0.090336025 0.84709829 4292007891
0.12182996 0.090711087 0.85061532 4292336602
0.12481999 0.091204226 0.85523957 4292862948
0.12768115 0.09158688 0.85882777 4293322731
0.13055556 0.091965079 0.86237425 4293651183
0.13446377 0.093045309 0.87250376 4278190080
0.068612531 0.096319273 0.8807264 4287203972
0.070285209 0.095336661 0.87174153 4287928206
0.0721552 0.094677128 0.86571091 4287797388
0.074314728 0.094427206 0.86342567 4287994767
0.076460376 0.094175503 0.86112416 4287995280
0.078633711 0.093971871 0.85926217 4288324243
0.080690131 0.093644306 0.85626698 4288521624
0.082850285 0.093452148 0.85450989 4288521624
0.084881425 0.093128927 0.85155445 4288521626
0.087058187 0.092978418 0.85017818 4288784798
0.089311041 0.092914857 0.84959704 4288653212
0.091458485 0.092747621 0.84806782 4288916384
0.0936535 0.092635661 0.84704411 4288916384
0.095807604 0.092489593 0.84570849 4288850591
0.098242387 0.092614979 0.84685498 4289442474
0.10047846 0.092551582 0.84627527 4289245095
0.10283006 0.092595056 0.84667283 4289442474
0.10502988 0.092502952 0.84583062 4289771439
0.10746869 0.09262076 0.84690785 4289903025
0.10961451 0.092486419 0.84567946 4290560443
0.11203737 0.09258654 0.84659493 4290889408
0.11424048 0.092504695 0.84584659 4291284168
0.11677308 0.092687607 0.8475191 4291744719
0.1192601 0.092827953 0.84880239 4292205016
0.12200499 0.093159877 0.8518374 4292270809
0.12484735 0.093552448 0.85542703 4292862948
0.12771618 0.09395013 0.85906339 4293191143
0.13072166 0.094432212 0.86347145 4293716976
0.068568558 0.098653093 0.88016194 4287072899
0.070213526 0.097609647 0.87085253 4287730829
0.072032742 0.096868664 0.86424166 4287731597
0.074232876 0.096670613 0.86247468 4288126353
0.076360062 0.096392617 0.85999441 4287139971
0.078551441 0.096209772 0.85836315 4288587417
0.080530822 0.095785342 0.85457647 4288390040
0.082696185 0.095599733 0.85292053 4286942594
0.084673814 0.095213167 0.84947163 4284903011
0.086943455 0.095166773 0.84905773 4288719005
0.089115679 0.095018923 0.84773862 4288784798
0.091317177 0.094908953 0.84675753 4288850591
0.093561724 0.094848037 0.84621406 4288916384
0.095795706 0.094779603 0.84560347 4283258186
0.09811765 0.094799362 0.84577978 4284968550
0.10033681 0.094721183 0.84508228 4289113509
0.10270144 0.094780758 0.84561378 4289376681
0.10502423 0.094799966 0.84578514 4289903025
0.10730094 0.094777636 0.84558594 4290363576
0.10946604 0.094659731 0.84453398 4290495163
0.11195907 0.094824418 0.84600329 4291020996
0.11439441 0.094934598 0.84698629 4291481547
0.11693916 0.095129415 0.84872442 4291744465
0.11920725 0.095096 0.84842628 4292205016
0.12180749 0.095323771 0.85045844 4292402397
0.12442061 0.095552951 0.85250312 4292731362
0.12725276 0.095938876 0.85594624 4293388522
0.13017131 0.096374884 0.85983622 4293716976
0.068635225 0.10114689 0.88101768 4286875520
0.070430115 0.10028827 0.87353885 4287467657
0.072339915 0.099644005 0.86792713 4287797390
0.074542448 0.099430956 0.8660714 4287994769
0.076636009 0.099090077 0.86310226 4283850323
0.078832246 0.098898277 0.86143166 4283323979
0.080855116 0.098506346 0.8580178 4288521626
0.082947209 0.098218381 0.85550958 4285165929
0.084943719 0.097836055 0.85217941 4285955445
0.087143406 0.097701848 0.85101038 4286415996
0.089415826 0.09765403 0.85059386 4288719005
0.091604881 0.097519867 0.84942532 4288850591
0.093951978 0.09755642 0.84974366 4289113509
0.096218929 0.097509995 0.84933931 4282994760
0.09844704 0.097427309 0.8486191 4287271305
0.10053248 0.097210459 0.84673029 4289179302
0.1028634 0.097235382 0.84694737 4289376681
0.10529675 0.097353913 0.84797978 4286152825
0.10769754 0.097437896 0.84871131 4287797649
0.10995335 0.097389944 0.8482936 4290626236
0.11239171 0.097502321 0.84927249 4291020996
0.11479446 0.097579911 0.84994829 4291349961
0.11726597 0.09771172 0.85109639 4291810258
0.11956524 0.09769769 0.8509742 4292007637
0.12223384 0.097980231 0.85343522 4292336604
0.12480936 0.098179027 0.85516679 4292797155
0.12766536 0.098587126 0.85872144 4293388524
0.13056079 0.099010468 0.86240882 4293520110
0.059303399 0.1040002 0.8848927 4280690206
0.068628661 0.10353486 0.8809334 4287007106
0.070527643 0.10280796 0.87474847 4287336071
0.072352998 0.1020247 0.86808407 4282993733
0.074510753 0.10174488 0.86570317 4287533964
0.076588541 0.10137637 0.86256766 4288060308
0.078753673 0.10114194 0.86057305 4282073658
0.080778815 0.10074646 0.85720807 4288389786
0.082802698 0.10037167 0.85401911 4288258200
0.084840968 0.1000343 0.85114861 4288521372
0.08701095 0.099866033 0.8497169 4288126614
0.089255236 0.09978956 0.8490662 4288389786
0.091456108 0.099669628 0.84804577 4288587165
0.093678981 0.099578992 0.8472746 4287337098
0.095847897 0.09943673 0.84606415 4284310620
0.098157153 0.099443324 0.84612024 4286218617
0.10032544 0.09931007 0.84498644 4289179302
0.10264819 0.099332273 0.84517539 4286810754
0.1051382 0.099511802 0.84670287 4285034344
0.107659 0.099712148 0.84840757 4283915862
0.11014663 0.099874005 0.84978473 4291021507
0.11251157 0.09992025 0.85017818 4290823874
0.11497412 0.10004956 0.85127848 4291152582
0.11734919 0.10009915 0.85170037 4291744465
0.11958653 0.10003161 0.85112566 4292205016
0.12218049 0.10025927 0.85306275 4292533983
0.12490339 0.10058227 0.85581106 4292862948
0.12774056 0.10098378 0.85922736 4293322731
0.13079496 0.1015395 0.86395568 4293717487
0.062345874 0.1075019 0.89398438 4278190080
0.069094032 0.10665085 0.88690704 4287270278
0.070905089 0.10575172 0.87942994 4287204485
0.072819546 0.1050605 0.87368166 4287665036
0.074756362 0.10444423 0.8685568 4285428588
0.076723322 0.10390656 0.86408561 4287731856
0.078877196 0.10364649 0.8619228 4285955445
0.080960661 0.10331159 0.85913783 4288126614
0.082995519 0.10293521 0.85600781 4288126614
0.084926143 0.10245364 0.8520031 4288258200
0.087071091 0.10224935 0.85030419 4288323993
0.089402877 0.10226936 0.85047066 4288389786
0.091699697 0.10224938 0.85030448 4288587165
0.093862109 0.1020842 0.8489309 4288652958
0.096022256 0.10192455 0.84760326 4289113509
0.098305956 0.10190047 0.84740299 4289047716
0.10053525 0.10182239 0.84675366 4289113509
0.10282449 0.10180716 0.846627 4289508267
0.10533608 0.10200792 0.84829652 4290034612
0.10808552 0.10242546 0.85176879 4287468684
0.1106446 0.10264887 0.85362661 4289442474
0.11299243 0.10267113 0.85381174 4287271306
0.115285 0.1026433 0.8535803 4287270795
0.11766811 0.10269558 0.85401511 4292007637
0.11988717 0.10260544 0.85326546 4292007637
0.12256529 0.10290413 0.85574943 4292402397
0.12526596 0.10321028 0.85829532 4292993764
0.12824485 0.10373025 0.86261934 4293322983
0.1314204 0.10438772 0.86808693 4293717487
0.069311999 0.10940882 0.88970494 4287335816
0.070773952 0.10794526 0.87780339 4286678655
0.072633408 0.10716378 0.8714484 4287797136
0.074497469 0.10643829 0.86554885 4284639585
0.076485604 0.10592913 0.86140835 4287731856
0.07859274 0.10561015 0.85881442 4287797649
0.080753148 0.10537913 0.85693574 4287797649
0.082923003 0.10517304 0.8552599 4287995028
0.084887095 0.10472437 0.85161132 4288323993
0.087056912 0.10454661 0.85016572 4288389786
0.089223631 0.10437442 0.84876555 4288455579
0.09158536 0.10443329 0.8492443 4288455579
0.09367241 0.10418377 0.84721518 4288718751
0.095852353 0.10404706 0.84610349 4288850337
0.098135509 0.10402618 0.84593368 4288981923
0.10045944 0.10404849 0.84611511 4289047716
0.10277059 0.10405686 0.84618318 4289376681
0.10514188 0.10412442 0.84673256 4289705646
0.1075796 0.10425346 0.8477819 4290231990
0.11010189 0.10445731 0.84943962 4290100405
0.11258811 0.10461926 0.85075653 4289244583
0.11507339 0.10477383 0.85201347 4288257690
0.11747728 0.10484965 0.85263008 4292139477
0.1196763 0.10474322 0.85176462 4292336602
0.12218001 0.10490245 0.85305947 4292270811
0.1248536 0.10519888 0.85546994 4293059557
0.12773781 0.10565865 0.85920882 4293388522
0.13121578 0.10658421 0.86673534 4293717741
0.064106733 0.11120202 0.88470608 4278190080
0.071032569 0.11073757 0.88101101 4284902244
0.072814144 0.10980818 0.87361687 4284244314
0.074645691 0.10901053 0.86727095 4287402891
0.076657526 0.10851701 0.86334455 4287468684
0.078778252 0.1082024 0.86084157 4287666063
0.080950066 0.10797411 0.85902536 4287995028
0.083092578 0.10772066 0.85700887 4287995028
0.085064583 0.10726603 0.85339195 4288192407
0.087303206 0.10716283 0.85257095 4288323993
0.08953768 0.10706003 0.85175306 4288455833
0.091844358 0.10704656 0.85164589 4288455833
0.09389136 0.10673855 0.84919542 4288719005
0.096143365 0.1066728 0.84867233 4288850591
0.098393999 0.10660864 0.84816188 4288916384
0.10075859 0.10666807 0.84863466 4289179556
0.10300133 0.10659873 0.84808302 4289442474
0.10537423 0.10666418 0.84860373 4289574060
0.1076286 0.10660941 0.84816802 4290100405
0.1100736 0.1067418 0.84922129 4290494652
0.11256646 0.10691421 0.85059291 4291020996
0.11525234 0.1072593 0.85333842 4290954435
0.11775144 0.10742037 0.85461986 4291480779
0.12021254 0.1075412 0.85558116 4288980645
0.12259044 0.10758442 0.85592502 4286414464
0.12506266 0.10770726 0.8569023 4293322729
0.12772733 0.10798831 0.85913831 4293388522
0.13123676 0.10896063 0.86687392 4293980659
0.061241738 0.1127683 0.87815207 4279769363
0.063674934 0.11284471 0.87874705 4288059794
0.067454346 0.11521499 0.89720494 4278190080
0.069695875 0.11488463 0.8946324 4287139206
0.071008004 0.1130963 0.88070631 4285889139
0.07259129 0.11184256 0.87094307 4287402891
0.074479967 0.11112374 0.86534548 4287271305
0.076536201 0.11069132 0.86197811 4287600270
0.078721829 0.1104662 0.86022508 4287797649
0.080868952 0.1102016 0.85816461 4287929235
0.08297348 0.10989545 0.85578054 4287995028
0.08500839 0.10951633 0.8528282 4288258454
0.087173112 0.10932015 0.85130054 4288061589
0.089351512 0.10915084 0.84998208 4288324761
0.091594189 0.10906661 0.84932619 4288522140
0.093695059 0.10882182 0.84741998 4288456347
0.095908783 0.10871673 0.84660161 4288916130
0.098110773 0.10860358 0.84572047 4288981923
0.10056637 0.10876992 0.84701574 4289310888
0.10290987 0.10881027 0.84732997 4289639853
0.10526805 0.10886402 0.84774858 4289771440
0.10739589 0.10868239 0.8463341 4290100405
0.10972579 0.10870856 0.84653795 4290363323
0.11222054 0.10889363 0.84797907 4290889410
0.11491331 0.1092595 0.85082823 4291546572
0.11741849 0.10943609 0.85220337 4291809744
0.12004226 0.10971422 0.85436922 4286085753
0.12243184 0.10977181 0.85481769 4291151560
0.12510024 0.11007258 0.85715985 4293059557
0.12771066 0.11031225 0.85902619 4293454315
0.13139315 0.11145267 0.86790693 4294112245
0.061238881 0.11515301 0.87811112 4278190080
0.066796929 0.11651022 0.88846064 4278190080
0.06964162 0.11722825 0.89393604 4287402378
0.07115747 0.11573645 0.88256019 4286942340
0.072809696 0.11455665 0.87356347 4287008133
0.074838154 0.11402471 0.86950713 4287337098
0.076859415 0.11351474 0.86561829 4287600270
0.079067074 0.11330222 0.8639977 4287666063
0.081096634 0.11285413 0.86058074 4287797649
0.083194532 0.11252362 0.85806042 4288126614
0.085266858 0.11217753 0.85542125 4288258454
0.087396875 0.11192371 0.8534857 4288193175
0.089591332 0.11176342 0.85226339 4288258968
0.09175685 0.11157604 0.85083449 4288456347
0.09394028 0.11141911 0.84963787 4288653728
0.096180402 0.11133537 0.84899926 4288785314
0.098344482 0.11116958 0.84773505 4288981923
0.1007617 0.11129099 0.84866089 4289179302
0.10310977 0.1113323 0.8489759 4289508267
0.10553188 0.11144999 0.8498733 4289639853
0.10779092 0.1113941 0.84944713 4290100405
0.11004917 0.11133978 0.84903288 4290494909
0.11251076 0.11148917 0.8501721 4290889156
0.11505317 0.11171102 0.8518638 4291480779
0.11759487 0.11192342 0.8534835 4291678672
0.120221 0.1122064 0.85564142 4291744465
0.12272335 0.11236528 0.85685301 4292797155
0.12547292 0.11274038 0.85971338 4292928741
0.12829018 0.11316145 0.86292428 4293323501
0.061390679 0.11783434 0.88028777 4278190080
0.06725537 0.11974458 0.89455831 4287994001
0.069286533 0.11905116 0.88937801 4287600270
0.070865482 0.11765375 0.87893862 4287008133
0.072629809 0.11664534 0.87140524 4287073926
0.07472758 0.11621928 0.86822236 4287600270
0.076772839 0.11574019 0.86464322 4287600270
0.078960337 0.11549764 0.86283129 4287731856
0.080910683 0.11493225 0.85860747 4287995028
0.083089113 0.11471348 0.85697317 4287995028
0.085262306 0.11449962 0.85537553 4288192661
0.087345921 0.11418004 0.85298806 4288390040
0.089375108 0.1138077 0.85020649 4288455579
0.091492698 0.11356388 0.84838504 4288587165
0.093715027 0.11345888 0.84760058 4288587935
0.096032716 0.1134716 0.84769559 4288785314
0.098207422 0.11331873 0.84655356 4288916130
0.10061976 0.11344079 0.84746546 4289179302
0.10289547 0.11340678 0.84721136 4289508267
0.105244 0.11345276 0.84755492 4289837233
0.1075289 0.11342966 0.84738231 4290100405
0.10978851 0.11338141 0.84702188 4290494909
0.11224762 0.11353693 0.84818369 4290954949
0.1147549 0.11373393 0.84965539 4291480779
0.11737193 0.11402977 0.85186547 4291876051
0.11998679 0.11431208 0.85397446 4292073432
0.12262165 0.11460235 0.85614294 4292599776
0.12543838 0.11504859 0.85947663 4293126120
0.1283503 0.11556423 0.8633287 4293323499
0.067306288 0.12227182 0.8952356 4284310108
0.069254354 0.12141538 0.88896495 4284243800
0.070893005 0.1200926 0.87928003 4286612862
0.072856039 0.11938778 0.87411952 4287139719
0.07496202 0.11895437 0.87094623 4287205512
0.076981157 0.11841394 0.86698937 4287468684
0.079077825 0.11802138 0.86411518 4287862929
0.080983087 0.11737407 0.85937577 4288323993
0.083166599 0.11715507 0.85777235 4288322966
0.085431963 0.11706018 0.8570776 4288126101
0.087531082 0.1167486 0.85479629 4288585625
0.089623407 0.11644433 0.85256851 4288783004
0.091648892 0.11607077 0.84983343 4288521372
0.093928084 0.11602899 0.8495276 4288915103
0.096199587 0.11597996 0.8491686 4288652445
0.098481387 0.11594536 0.84891522 4289047203
0.10086715 0.11603193 0.84954906 4289309861
0.10314544 0.11599375 0.84926957 4289376681
0.10542654 0.11596035 0.84902501 4289771439
0.10777809 0.1160042 0.84934604 4290362037
0.11012635 0.11604276 0.84962833 4290429888
0.11265977 0.11627081 0.85129809 4290954949
0.11515611 0.11645216 0.85262591 4291677647
0.11775344 0.11672648 0.85463434 4291809490
0.12036416 0.11700318 0.85666025 4292007639
0.12307995 0.11736955 0.85934275 4292468190
0.12586366 0.11778583 0.86239058 4292862948
0.12875682 0.11828742 0.86606306 4293322729
0.064904429 0.12477515 0.89571476 4278190080
0.067014933 0.12416857 0.89136034 4287336071
0.068835966 0.12308677 0.88359445 4287139206
0.070651926 0.12206923 0.87628996 4287007620
0.07270363 0.12151216 0.87229097 4286942340
0.074764401 0.12100499 0.8686502 4282731588
0.076769844 0.12044211 0.86460948 4283784276
0.078916803 0.12012814 0.86235559 4282139451
0.080826499 0.11948157 0.85771412 4281809973
0.082966119 0.11920165 0.85570461 4287930005
0.085205741 0.11907676 0.85480809 4288191894
0.087379679 0.11886916 0.8533178 4288849310
0.089561842 0.1186832 0.85198289 4285953393
0.091667786 0.11840817 0.85000861 4289308836
0.093892649 0.11829653 0.8492071 4288982694
0.096110843 0.11818203 0.84838521 4288916901
0.098361872 0.11811235 0.84788495 4289441962
0.10068207 0.11812701 0.84799021 4289442991
0.10290409 0.1180284 0.84728235 4289770929
0.10521228 0.11803079 0.84729952 4290165944
0.10765495 0.11818071 0.84837568 4290560704
0.11016873 0.11840075 0.84995526 4291151814
0.11264722 0.11857459 0.8512032 4288518554
0.11505655 0.1186701 0.85188884 4287267976
0.11760636 0.11890386 0.85356694 4292203478
0.12020145 0.11917345 0.85550225 4292138455
0.1231125 0.11974011 0.85957003 4292468703
0.12583986 0.1201103 0.86222756 4292862948
0.1287943 0.12067971 0.86631513 4293520108
0.068855904 0.12552801 0.8838504 4287270278
0.070904315 0.12489884 0.87942034 4287007106
0.073068932 0.12450875 0.87667376 4287402378
0.075046532 0.12383475 0.8719281 4283915862
0.076981433 0.12313379 0.86699253 4284376413
0.079182632 0.12288778 0.86526042 4284047448
0.081098035 0.12222526 0.86059558 4281284142
0.083064355 0.12167453 0.85671782 4288454039
0.085223921 0.1214292 0.85499048 4284634965
0.087401308 0.12122164 0.85352898 4287593598
0.089771368 0.12128513 0.85397607 4285746774
0.091921583 0.12105589 0.85236198 4285418836
0.094232135 0.12104391 0.85227758 4286341478
0.096428722 0.12088962 0.85119122 4286077279
0.098675691 0.12080425 0.85059011 4286407273
0.10097329 0.12078335 0.85044301 4286867054
0.10322364 0.12070815 0.84991348 4286407275
0.10559729 0.12077726 0.85040009 4286142820
0.10803656 0.12091685 0.85138297 4287195251
0.11056112 0.12114403 0.85298252 4287457140
0.11310457 0.12138215 0.85465914 4290548643
0.1154027 0.12135269 0.85445172 4288247685
0.11785913 0.12148757 0.85540146 4291281606
0.12029722 0.12159869 0.85618383 4292073432
0.12323596 0.12220205 0.86043209 4292730592
0.12605882 0.12267011 0.86372781 4292927971
0.12928295 0.12350439 0.86960202 4293455085
0.060785927 0.12616274 0.87161613 4279966742
0.069083884 0.12835717 0.88677675 4287336071
0.070979796 0.12742788 0.88035649 4287007106
0.07299152 0.12676038 0.875745 4287204999
0.074834824 0.12585187 0.86946839 4286744961
0.076809041 0.12521246 0.86505097 4285100136
0.078943387 0.12486436 0.8626461 4285560687
0.081124775 0.12460864 0.86087936 4281809973
0.083082885 0.12403394 0.85690892 4286744961
0.085219517 0.12374985 0.85494632 4284308568
0.087350413 0.12347277 0.85303199 4288187018
0.089645267 0.12343578 0.85277647 4285484884
0.091811009 0.12322737 0.85133666 4285813079
0.09405145 0.12312701 0.85064334 4287984249
0.096347816 0.12310295 0.85047704 4285617241
0.098642543 0.12307795 0.85030437 4289302678
0.10089917 0.12300766 0.84981871 4287856259
0.10315929 0.12294468 0.84938359 4287459963
0.10547248 0.12294632 0.84939498 4286208356
0.10783305 0.12300193 0.84977919 4288053127
0.11023493 0.12310135 0.85046601 4287193968
0.11274514 0.12331515 0.85194308 4287522933
0.11519754 0.12345839 0.85293269 4289831593
0.11755174 0.12349281 0.85317051 4292464853
0.120079 0.12370417 0.85463071 4292270041
0.12280418 0.12410752 0.85741735 4292533983
0.12576176 0.12472633 0.86169243 4292993764
0.12895347 0.1255504 0.86738575 4293520108
0.064360932 0.13098271 0.88821423 4278190080
0.066097811 0.12964776 0.87916172 4287138179
0.069377571 0.13132666 0.89054656 4287270278
0.071272798 0.13035986 0.88399059 4287072899
0.073209882 0.12953025 0.87836492 4287073413
0.075076744 0.12863281 0.87227917 4287271305
0.077048048 0.12796384 0.86774278 4287468684
0.079107098 0.12747605 0.86443502 4287666063
0.081291616 0.12721279 0.8626498 4288192407
0.083340928 0.12675866 0.85957032 4288127384
0.08553829 0.12654838 0.85814434 4288389273
0.087566093 0.12610509 0.85513824 4289045663
0.089817181 0.12599796 0.8544119 4289044636
0.0918919 0.12565508 0.85208678 4289504417
0.094241932 0.12569629 0.85236615 4287067509
0.096537113 0.12566411 0.852148 4289766049
0.098844305 0.12564872 0.85204357 4289505188
0.10107173 0.12553495 0.85127211 4289572008
0.10343332 0.12558918 0.85163987 4289569957
0.10578364 0.12562767 0.85190082 4290950070
0.10812624 0.1256555 0.85208964 4290755001
0.11043792 0.12564702 0.85203207 4291543749
0.11302652 0.12594745 0.85406935 4292004300
0.11551387 0.12612523 0.85527486 4292005583
0.11793141 0.12622125 0.85592604 4292138709
0.12041242 0.12638018 0.85700375 4291941846
0.12306037 0.12670495 0.85920608 4292533983
0.12595879 0.12727068 0.86304241 4292994534
0.12916116 0.1281172 0.86878282 4293520108
0.06283094 0.13022898 0.86709952 4287664523
0.066008382 0.13186195 0.8779723 4287203972
0.071248367 0.13272032 0.88368756 4286876034
0.073017262 0.13157383 0.87605387 4287139206
0.074946813 0.13078018 0.87076956 4287337098
0.076821893 0.12994306 0.86519575 4287666063
0.078919478 0.12952088 0.86238486 4287797649
0.081007011 0.12910709 0.85962969 4287863442
0.08320199 0.12888296 0.85813737 4287930005
0.085373372 0.12863551 0.85648978 4288323993
0.087523662 0.12837029 0.85472387 4288323993
0.089675225 0.12812062 0.8530615 4288587165
0.091748759 0.12777488 0.85075945 4288457119
0.093975924 0.12765485 0.84996027 4288522142
0.096285976 0.12765048 0.84993118 4288588448
0.098561585 0.12760171 0.84960651 4288851107
0.10082702 0.12754232 0.84921098 4289179302
0.10320524 0.12762506 0.84976196 4289836205
0.10558003 0.12770003 0.85026109 4289967536
0.10803857 0.1278709 0.85139883 4290362294
0.11035699 0.12787223 0.85140765 4290757054
0.11290207 0.12813075 0.85312891 4291086019
0.1153547 0.12827604 0.85409635 4291481547
0.11773933 0.12834147 0.85453194 4291941844
0.12035904 0.12865564 0.85662383 4292073943
0.12300471 0.12898511 0.85881746 4292534496
0.12602447 0.12968723 0.86349249 4293060327
0.12911274 0.13043286 0.86845702 4293586671
0.063211001 0.13339099 0.87234455 4278190080
0.067168966 0.136612 0.89340913 4278190080
0.071394622 0.13540284 0.88550156 4287007620
0.073093846 0.13409869 0.87697273 4287139206
0.075098969 0.13342048 0.87253737 4287336585
0.076995611 0.13259703 0.86715215 4287468684
0.079094358 0.13216026 0.86429584 4287666063
0.081046619 0.13151102 0.86004996 4287666833
0.083220556 0.13124783 0.85832882 4287995798
0.085420907 0.13103956 0.85696667 4288258970
0.087625608 0.13084884 0.85571945 4288324763
0.089834966 0.13067476 0.85458106 4288456349
0.091959119 0.13038868 0.85271007 4288522142
0.094266161 0.13036959 0.85258532 4288719521
0.096566424 0.13034227 0.85240668 4288719521
0.098770715 0.13018976 0.8514092 4289047716
0.10104077 0.13012892 0.8510114 4289245095
0.1033268 0.13009091 0.85076278 4289376681
0.10581093 0.13029853 0.85212058 4289903025
0.10830507 0.1305093 0.85349894 4290231991
0.11072536 0.13062409 0.85424966 4290626495
0.1131698 0.13076209 0.85515207 4291021255
0.11545045 0.13070905 0.85480529 4291416013
0.11801868 0.13097729 0.85655946 4291482576
0.1205452 0.13118973 0.85794878 4292140508
0.12340394 0.13174878 0.86160487 4292469473
0.12615912 0.13217849 0.86441505 4292995047
0.12958756 0.13328494 0.87165093 4293849841
0.069385067 0.13861308 0.89064282 4287138179
0.071314022 0.13765734 0.88450187 4287268738
0.0730142 0.13633683 0.87601709 4287794569
0.074951038 0.13552779 0.87081867 4287664523
0.076804772 0.13462266 0.86500287 4287403661
0.078960635 0.13428521 0.86283457 4287731856
0.080911897 0.13362934 0.85862035 4287864212
0.083018646 0.13325986 0.85624635 4287930005
0.085162669 0.13296877 0.85437596 4288061591
0.087460272 0.13292657 0.85410482 4288389786
0.089660749 0.13274276 0.85292375 4288652958
0.09173318 0.13238344 0.85061496 4288718751
0.093919307 0.13220185 0.8494482 4288850337
0.096226528 0.13219535 0.84940642 4288850337
0.098430142 0.13205014 0.84847343 4288982693
0.10079217 0.13211927 0.84891754 4289180072
0.10306446 0.13207027 0.84860277 4289705646
0.10564226 0.13240637 0.85076225 4289837233
0.10816346 0.1326586 0.85238302 4290297784
0.11064816 0.13285641 0.85365403 4290626497
0.1129411 0.13282061 0.85342389 4291152841
0.11520039 0.13274744 0.85295379 4291481808
0.1177021 0.13295101 0.85426176 4291810773
0.12035646 0.13331576 0.85660547 4292271324
0.12308835 0.1337509 0.85940146 4292797155
0.1259615 0.13432044 0.86306095 4293256936
0.12949301 0.13555834 0.87101495 4294375160
0.06824524 0.13872026 0.87601173 4287598731
0.071496248 0.14042261 0.88676196 4278190080
0.073184028 0.13904378 0.87805474 4282786601
0.075143665 0.13825232 0.87305671 4285221710
0.07706707 0.13744476 0.867957 4288781462
0.079172112 0.13699955 0.8651455 4288322194
0.081257187 0.13654649 0.86228448 4288520343
0.083274066 0.13600749 0.8588807 4288520859
0.085458457 0.13576406 0.85734344 4288455579
0.087554432 0.13539682 0.85502434 4288587165
0.089854747 0.13535641 0.85476923 4288521372
0.0919213 0.13497481 0.85235935 4288784544
0.094232485 0.13496235 0.85228074 4288718751
0.096455507 0.13482726 0.85142761 4288916130
0.09870787 0.13473856 0.85086751 4288982693
0.10092279 0.13460398 0.85001761 4289048486
0.1032469 0.13461782 0.85010499 4289180070
0.10576699 0.13488096 0.85176671 4289640624
0.10835773 0.13522097 0.8539139 4290363577
0.11080081 0.13536632 0.85483176 4290692290
0.11312145 0.13535918 0.85478669 4291218121
0.11541421 0.13531964 0.85453695 4292006869
0.11801631 0.13563718 0.85654223 4292335577
0.12063379 0.13595976 0.85857928 4292927971
0.12338784 0.13642108 0.86149251 4293914096
0.1260774 0.13679521 0.86385512 4294637303
0.1297937 0.13824928 0.87303746 4278190080
0.068401486 0.14142756 0.87801731 4283979351
0.071535155 0.14291385 0.88724452 4283123526
0.073096961 0.14126532 0.87701005 4283575605
0.0750686 0.14048806 0.87218457 4284555053
0.076903954 0.13951118 0.86611992 4284880936
0.07902319 0.13909209 0.86351812 4285011239
0.081044532 0.1385299 0.86002785 4285010980
0.083105333 0.1380648 0.85714042 4285208616
0.08523114 0.13773017 0.8550629 4286065208
0.087371439 0.13743609 0.85323727 4287119438
0.089662671 0.13738854 0.85294205 4288306281
0.091799825 0.13711326 0.85123301 4289360509
0.094002388 0.13694681 0.85019964 4289954954
0.096185774 0.13676108 0.84904665 4290286742
0.09835688 0.13656704 0.84784192 4290748320
0.10059799 0.13647686 0.84728205 4291406250
0.10296869 0.13656257 0.8478142 4291668397
0.10553285 0.13689549 0.84988111 4291798959
0.10813703 0.13726495 0.85217476 4291667116
0.11060309 0.13744722 0.85330635 4292191665
0.11299841 0.1375359 0.85385692 4291332249
0.11537906 0.13760352 0.85427666 4291392396
0.11779194 0.13770615 0.85491383 4289877103
0.12039306 0.13802059 0.85686594 4289215580
0.12313411 0.13848045 0.85972089 4288622932
0.12606692 0.13913481 0.8637833 4288952410
0.12974989 0.14057797 0.87274277 4289614960
0.073277615 0.14400733 0.87917757 4280950304
0.075286694 0.14327694 0.87471849 4282521887
0.077060029 0.14215644 0.86787772 4284750890
0.079038225 0.14146927 0.86368245 4285669167
0.08112289 0.14100684 0.86085933 4285603629
0.083250135 0.14064232 0.85863388 4285604142
0.085453115 0.14042217 0.85728979 4285997874
0.087478712 0.13992997 0.85428488 4286260019
0.089825273 0.13996337 0.85448885 4286062898
0.092008419 0.13974689 0.85316724 4285996078
0.094233766 0.13960359 0.8522923 4286061357
0.096305206 0.13924463 0.85010087 4286323502
0.098570667 0.13917647 0.84968477 4285996077
0.10086684 0.13915381 0.84954643 4286061870
0.10320102 0.13918342 0.84972715 4286192946
0.10557397 0.13926288 0.85021228 4286520115
0.10806973 0.13949746 0.8516444 4286650676
0.11059785 0.13976306 0.85326594 4286913594
0.11315218 0.14005019 0.85501885 4287569984
0.11555815 0.14014582 0.85560274 4287898179
0.11794098 0.14021015 0.85599548 4288162121
0.12044266 0.14041056 0.85721898 4288950867
0.12328577 0.14099382 0.86077982 4289610338
0.12626658 0.14170988 0.86515141 4290464877
0.069033206 0.14755729 0.88612622 4281019955
0.071565673 0.14780654 0.88762307 4280494377
0.073521592 0.14688763 0.88210475 4279901211
0.075327449 0.14573652 0.87519193 4280557339
0.077062204 0.14452264 0.86790222 4280750609
0.079008356 0.14376561 0.86335605 4281864466
0.081058227 0.14323559 0.86017311 4282979609
0.083259165 0.14299479 0.85872704 4284619042
0.085378841 0.14263138 0.85654467 4285800493
0.087552622 0.14237528 0.85500664 4285997874
0.089790188 0.14223346 0.85415506 4286129460
0.092080213 0.14217983 0.85383296 4286391605
0.094169594 0.14182663 0.85171193 4286456628
0.096246779 0.14147249 0.84958518 4286719287
0.098379552 0.14121474 0.84803736 4286720570
0.10077064 0.14133112 0.84873617 4286785080
0.10313493 0.14140552 0.84918302 4287113533
0.10553376 0.141523 0.8498885 4287245121
0.1078891 0.14157836 0.85022092 4287703875
0.11043648 0.1418781 0.85202098 4288228427
0.11297486 0.14215419 0.853679 4288687695
0.11539919 0.14227854 0.85442573 4289082453
0.11768534 0.14223097 0.8541401 4289214809
0.12016445 0.14241394 0.85523891 4289806176
0.12307774 0.14309475 0.85932732 4287638858
0.12626465 0.14406236 0.86513805 4285473079
0.0708891 0.14880222 0.87923163 4292336606
0.076301135 0.15003313 0.88650471 4279769112
0.077893198 0.14846873 0.8772611 4280032536
0.079560705 0.14713691 0.8693918 4279900436
0.081708096 0.14674388 0.86706942 4280031508
0.083846651 0.14635748 0.86478633 4280162579
0.085953854 0.14593896 0.86231339 4279900688
0.088055588 0.14553364 0.85991848 4280097297
0.090199172 0.14521669 0.8580457 4280293647
0.092352852 0.14493157 0.85636103 4280358927
0.094489068 0.14463377 0.85460138 4280490256
0.096581042 0.14428417 0.85253572 4280687892
0.098860376 0.14422433 0.85218209 4280556049
0.10124503 0.14431734 0.8527317 4280490256
0.10361377 0.14438403 0.85312569 4280950037
0.10585771 0.14427766 0.85249728 4281146135
0.10818364 0.14428525 0.85254204 4281146135
0.11074682 0.14460227 0.85441524 4280949785
0.11335412 0.14496267 0.85654479 4281279779
0.11573158 0.14502056 0.8568868 4281411365
0.11816289 0.14514229 0.85760605 4281543464
0.12078183 0.14548533 0.85963297 4281741613
0.12371024 0.14618099 0.86374348 4282334008
0.12718983 0.14748986 0.87147725 4282466623
0.0784503 0.15193532 0.88353539 4279835414
0.080191381 0.15068826 0.87628347 4279506704
0.081984155 0.14960755 0.86999887 4279769876
0.084080577 0.14912608 0.867199 4279835154
0.086022981 0.14840519 0.86300689 4280098326
0.088414103 0.14847615 0.86341959 4279835154
0.090343498 0.14778814 0.85941863 4280098069
0.09276624 0.14792152 0.86019427 4280163862
0.094907679 0.14761081 0.85838747 4280229655
0.097193927 0.14753486 0.8579458 4280426264
0.099157453 0.14698409 0.85474288 4280294678
0.10136865 0.14681728 0.85377288 4280492057
0.10388432 0.14708905 0.8553533 4280623643
0.10628382 0.14718804 0.8559289 4280623645
0.10873855 0.14735761 0.856915 4280689438
0.11113126 0.14743778 0.85738122 4280886817
0.11367775 0.14771448 0.85899031 4280952610
0.11604659 0.14775385 0.85921919 4281215270
0.11870296 0.1481505 0.86152583 4281413676
0.12160339 0.1488305 0.86548018 4281677361
0.12449103 0.1494693 0.86919492 4282071865
0.076593176 0.15545148 0.88989782 4280427303
0.077913202 0.1532834 0.87748647 4281348655
0.079516739 0.15178546 0.86891133 4281744180
0.081459671 0.15100321 0.86443323 4280296734
0.083824575 0.15102512 0.86455864 4279836183
0.085992768 0.15070109 0.86270374 4279573011
0.088412546 0.15082347 0.86340433 4279770390
0.090467192 0.15033278 0.86059529 4279573011
0.092692725 0.15014364 0.85951257 4279704597
0.09498962 0.15007657 0.85912859 4279836183
0.09710598 0.14973433 0.85716945 4279836183
0.099417359 0.14970182 0.8569833 4280165148
0.10181053 0.14979114 0.85749459 4279836183
0.10448376 0.15027925 0.86028892 4279901976
0.10698391 0.1505025 0.8615669 4280033562
0.10944156 0.15065765 0.86245507 4279967769
0.11192307 0.15083845 0.86349005 4279967769
0.11438945 0.15099184 0.86436814 4280230427
0.11672734 0.15097287 0.86425954 4280690466
0.11935622 0.15132354 0.86626703 4281414189
0.12218401 0.15190797 0.86961257 4281611827
0.12523714 0.15274499 0.87440425 4281809722
0.076132379 0.15692373 0.88454401 4279572246
0.077578321 0.15500256 0.87371486 4280098588
0.079339422 0.15380666 0.86697376 4280691492
0.081277467 0.15301292 0.86249965 4282270524
0.083418034 0.15263434 0.86036563 4283125833
0.085450128 0.15208334 0.85725981 4281086250
0.087690726 0.15192288 0.85635537 4283257419
0.089781344 0.15151761 0.85407096 4283323212
0.091985337 0.15131932 0.8529532 4281809973
0.094215386 0.15117258 0.85212606 4283652177
0.09652324 0.15115474 0.85202551 4280691492
0.09883482 0.15114343 0.85196179 4283915349
0.1011858 0.15119152 0.85223281 4281283629
0.10368665 0.15145636 0.85372567 4283389518
0.10618247 0.15170242 0.85511267 4284507999
0.108702 0.15197106 0.85662693 4282073145
0.11117891 0.15217011 0.85774887 4285362281
0.11367066 0.15238084 0.85893673 4283848787
0.11607181 0.15246406 0.85940588 4283980373
0.11865115 0.15277344 0.86114979 4284572512
0.12148293 0.15338959 0.86462283 4281480241
0.12514952 0.15501635 0.87379253 4278190080
0.076272853 0.1596252 0.88617617 4279374102
0.077764593 0.15775846 0.87581277 4280229661
0.07955765 0.15659584 0.86935836 4280625699
0.081484035 0.15575525 0.86469173 4279441425
0.083449818 0.15503505 0.8606934 4279441938
0.085370854 0.15427332 0.85646456 4279573011
0.087559365 0.15402256 0.8550725 4279901976
0.08979658 0.15386827 0.85421592 4279836183
0.092063315 0.15377106 0.85367626 4279770390
0.094400674 0.15379369 0.85380191 4280098841
0.096683271 0.15372817 0.85343814 4280756771
0.099090487 0.15385921 0.85416567 4281612080
0.10141889 0.15386468 0.85419601 4280559906
0.10386109 0.15403868 0.85516196 4281415728
0.1062211 0.15408584 0.85542381 4281613107
0.10856608 0.15410961 0.85555577 4280230941
0.1109916 0.15424435 0.85630375 4280493599
0.11335398 0.15428758 0.85654372 4280690978
0.1158006 0.15444142 0.85739785 4280690978
0.11825579 0.15460038 0.85828036 4281546032
0.12135855 0.15558338 0.86373758 4281809976
0.07795503 0.16053435 0.87795752 4279901209
0.079561457 0.15896961 0.86940002 4280098841
0.081276938 0.15770686 0.86249405 4281744180
0.083174653 0.15685868 0.85785538 4281349422
0.085192561 0.1562773 0.85467583 4282204731
0.087414853 0.15609178 0.85366124 4281809459
0.089726381 0.1560711 0.85354811 4282335548
0.092066497 0.15609992 0.85370576 4279967000
0.094340064 0.15601726 0.85325372 4281480494
0.096612811 0.15593725 0.85281616 4281941045
0.099030547 0.15608953 0.85364896 4281875252
0.10129727 0.15600227 0.85317171 4280888357
0.10357854 0.15594082 0.8528356 4280362527
0.10577264 0.15575367 0.85181218 4281283629
0.10817336 0.15587232 0.85246098 4282665282
0.11070294 0.15616775 0.85407668 4285823346
0.11318851 0.15639022 0.85529339 4280822309
0.11577054 0.15673432 0.85717523 4280822309
0.11833178 0.15703723 0.85883188 4281348653
0.12140781 0.15799834 0.86408818 4281612343
0.079446927 0.16110362 0.86814851 4279506704
0.081337437 0.16017346 0.86313605 4279244046
0.08339908 0.15962307 0.86017013 4279704597
0.085697249 0.15954307 0.85973901 4280428320
0.087966874 0.1594156 0.85905212 4280361758
0.090300724 0.15940809 0.85901171 4281874997
0.092576869 0.15930168 0.85843825 4280295965
0.09486635 0.15922289 0.85801369 4280690978
0.09694878 0.15880872 0.85578185 4280888357
0.099362642 0.15894416 0.85651165 4282270010
0.1016136 0.15881878 0.85583603 4282204217
0.1039201 0.15878387 0.85564792 4280822564
0.10608694 0.15854178 0.85434335 4282927685
0.10840399 0.15852974 0.85427845 4284177752
0.11103699 0.15897056 0.85665393 4285560175
0.11355018 0.15922524 0.85802633 4282138169
0.11625408 0.15973167 0.86075538 4280756516
0.1186679 0.15982743 0.86127138 4281217837
0.12144767 0.16040279 0.86437184 4281415477
0.078945495 0.16243474 0.86266911 4281743666
0.081068903 0.16198611 0.86028647 4281085736
0.083407521 0.1619806 0.86025721 4281151529
0.085726894 0.16193902 0.86003643 4280493599
0.087897256 0.16162567 0.85837221 4280098841
0.089993834 0.16119638 0.85609233 4279639317
0.092186213 0.16095603 0.85481584 4279770390
0.094487801 0.1609135 0.85458994 4279901462
0.096712768 0.16074564 0.85369849 4279506704
0.09907686 0.16081148 0.85404819 4279638290
0.10129398 0.16064124 0.85314399 4279901462
0.10351702 0.16048777 0.85232902 4280164634
0.10571062 0.16029643 0.85131276 4280361758
0.10804212 0.1603179 0.85142678 4279967000
0.11065087 0.16074122 0.85367501 4282336318
0.11319028 0.16104846 0.85530674 4280362528
0.11593155 0.16162476 0.85836738 4281151274
0.11853891 0.16199528 0.86033517 4281217839
0.12152881 0.1628641 0.86494941 4281678649
0.09692011 0.16341877 0.85552877 4283191626
0.099314339 0.163527 0.85609531 4283257419
0.10155585 0.16338454 0.85534954 4281085736
0.10378522 0.16322939 0.85453731 4280888357
0.10603242 0.16310847 0.85390425 4284770144
0.10820177 0.16287556 0.85268492 4282664513
0.11054631 0.1629106 0.85286832 4286086519
0.11299112 0.1630889 0.85380185 4280559907
0.11562705 0.16353033 0.85611284 4280954665
