# .PCD v0.7 - Point Cloud Data file format
VERSION 0.7
FIELDS x y z rgba
SIZE 4 4 4 4
TYPE F F F U
COUNT 1 1 1 1
WIDTH 1042
HEIGHT 1
VIEWPOINT 0 0 0 1 0 0 0
POINTS 1042
DATA ascii
0.074262097 0.080466516 0.89098924 4285888372
0.076885059 0.080674209 0.89328903 4285559407
0.094319567 0.081031218 0.89724213 4292402646
0.096721508 0.080997638 0.89687032 4292073681
0.09940315 0.081194177 0.89904654 4291810509
0.11326159 0.080608264 0.89255881 4291020993
0.11540707 0.080410518 0.89036924 4290757821
0.11742771 0.080135711 0.8873263 4290626235
0.06416361 0.082380019 0.88549107 4287599243
0.066428922 0.082200915 0.88356584 4290231480
0.069040798 0.082448184 0.88622373 4294705148
0.071613796 0.08263389 0.88821989 4294705148
0.074139021 0.082754165 0.88951266 4294901757
0.07668189 0.082885891 0.89092857 4294508025
0.07925681 0.083043121 0.89261866 4293981679
0.081822008 0.083181113 0.89410192 4293455335
0.084193349 0.083119757 0.89344239 4293060577
0.086653791 0.083147347 0.89373893 4292731611
0.089124255 0.083182767 0.89411968 4292271060
0.091631763 0.083249979 0.89484209 4292205267
0.093996994 0.083187781 0.89417356 4291942095
0.096326649 0.083098039 0.89320892 4291810509
0.098804213 0.083137162 0.89362949 4291678923
0.10125975 0.083156317 0.89383537 4291416005
0.10365513 0.083126344 0.89351314 4291481798
0.10599402 0.083053462 0.89272982 4291416005
0.10828156 0.082944527 0.89155889 4291218626
0.11062094 0.082879201 0.89085668 4291218626
0.11283842 0.082727313 0.88922405 4291021245
0.11501887 0.08255522 0.88737422 4290955452
0.11727275 0.082441822 0.88615537 4290823096
0.059051782 0.084373266 0.88113821 4278190080
0.061193038 0.084020466 0.87745374 4281414699
0.063408166 0.083791785 0.87506557 4294705146
0.065903164 0.08393611 0.87657279 4294705148
0.06851121 0.084209301 0.87942582 4294705150
0.071169965 0.084524266 0.88271511 4294244853
0.073618315 0.084576942 0.88326526 4293915888
0.076214291 0.084790528 0.88549578 4293652716
0.078648731 0.084816806 0.8857702 4293323749
0.081253871 0.08502014 0.88789368 4293126370
0.083709039 0.08505933 0.88830298 4292665818
0.086257689 0.085188657 0.88965356 4292402646
0.088714309 0.085222498 0.89000702 4292402646
0.09118852 0.085271001 0.89051354 4292139474
0.093625337 0.085282929 0.89063805 4292073681
0.096029319 0.085265093 0.89045185 4291810763
0.098435543 0.085250087 0.89029509 4291744970
0.10081466 0.085212879 0.88990653 4291744970
0.10315781 0.085147738 0.88922626 4291679175
0.1055609 0.085133918 0.8890819 4291547589
0.10786192 0.085040249 0.88810372 4291481796
0.11019984 0.084979139 0.88746548 4291546819
0.11230563 0.084745489 0.88502544 4291481026
0.11436713 0.084488928 0.88234609 4291283647
0.058953054 0.08662641 0.87966508 4280493084
0.060725562 0.085748538 0.87075055 4281283115
0.063045785 0.085680969 0.87006444 4286678141
0.065347955 0.085594662 0.86918801 4287928208
0.067782477 0.085681677 0.87007159 4291743949
0.070381507 0.085963748 0.87293595 4293454565
0.072859742 0.086084679 0.87416399 4294046702
0.075438574 0.086313054 0.87648308 4294113264
0.077959359 0.086463057 0.87800628 4293587433
0.080471955 0.086595319 0.87934935 4293257955
0.082967922 0.08670257 0.88043845 4292928990
0.085377388 0.086715929 0.88057417 4292534232
0.08786086 0.086801685 0.88144499 4292402646
0.090291001 0.086831592 0.88174868 4292073681
0.092746817 0.086884007 0.88228089 4292007888
0.095147043 0.086883008 0.88227075 4291876302
0.097502589 0.086842269 0.88185704 4291810763
0.099772945 0.086729422 0.88071114 4291546821
0.05857911 0.088455938 0.87408525 4280493086
0.060416043 0.087669335 0.86631233 4286151284
0.062704459 0.087572351 0.865354 4286480762
0.064733148 0.087132797 0.86101049 4286546555
0.066834062 0.086817771 0.85789752 4286546555
0.069026485 0.086638875 0.85612977 4286480762
0.071247935 0.086506896 0.85482562 4286743934
0.073605657 0.0865435 0.85518736 4287138692
0.10898454 0.085089475 0.84081924 4291020224
0.1109315 0.084828317 0.8382386 4290888638
0.11310114 0.084744543 0.83741075 4290757052
0.11530527 0.084689416 0.83686602 4291020226
0.11754346 0.084660947 0.83658469 4291414986
0.1199302 0.084738523 0.83735126 4291743951
0.12245165 0.084906615 0.83901227 4292401627
0.12508722 0.085146226 0.84138006 4293454315
0.12811399 0.085638724 0.84624672 4292072405
0.055780504 0.090156771 0.86755925 4278190080
0.058996923 0.091482833 0.88031965 4278190080
0.060993757 0.090888053 0.87459624 4279571984
0.062869765 0.090164676 0.86763531 4287993488
0.064526558 0.089190669 0.85826266 4287401864
0.066262543 0.08839035 0.85056138 4287467657
0.068233803 0.087947316 0.84629816 4286941313
0.070358358 0.08772435 0.84415263 4287007106
0.072534703 0.087578014 0.84274441 4286875520
0.074804328 0.087549828 0.84247321 4287204485
0.076975293 0.08741127 0.84113991 4287138692
0.079174988 0.087312415 0.84018862 4286941827
0.081220597 0.087053947 0.83770144 4287468171
0.083513096 0.087066993 0.83782697 4287468171
0.085864693 0.087139316 0.83852297 4287468171
0.088067576 0.087060891 0.83776826 4287599757
0.090225123 0.086942732 0.83663124 4287863183
0.092403032 0.086849518 0.83573431 4287928976
0.0947005 0.086870469 0.83593589 4287928976
0.096731327 0.086651579 0.83382958 4288455320
0.098725505 0.086410649 0.83151114 4288718751
0.10077503 0.086227871 0.82975233 4288718751
0.10308656 0.086272381 0.83018059 4289178789
0.10520839 0.086159617 0.82909554 4289441962
0.10718488 0.085935071 0.82693475 4289967538
0.10923302 0.085776024 0.82540429 4291020226
0.11155394 0.085833274 0.82595515 4291743949
0.11407981 0.086042844 0.82797182 4292599260
0.11652786 0.086186729 0.82935643 4292994018
0.11931325 0.086569913 0.83304369 4293388522
0.12217677 0.086994439 0.83712882 4293651694
0.1251715 0.087495141 0.84194696 4294112245
0.12848629 0.088197529 0.84870589 4294177781
0.061003521 0.093283385 0.87473625 4278190080
0.063050829 0.0927926 0.87013406 4287664521
0.06462612 0.091667838 0.85958695 4287730827
0.066309303 0.090769343 0.8511616 4287796620
0.068062179 0.090023704 0.84416956 4287993997
0.070026621 0.089597449 0.84017247 4288322962
0.072021842 0.089236282 0.83678573 4288455318
0.074157394 0.089065805 0.8351872 4288586906
0.076203555 0.088801302 0.83270687 4288718492
0.078306071 0.08861585 0.83096784 4289046687
0.080309555 0.088331886 0.82830507 4289178273
0.082526907 0.088292234 0.82793325 4289441961
0.084827177 0.088341042 0.82839096 4289507754
0.086961389 0.088218868 0.8272453 4289574312
0.089094847 0.088102117 0.82615048 4289705898
0.091168769 0.087933689 0.82457113 4289837232
0.093386531 0.08790876 0.8243373 4289969072
0.095440529 0.087734453 0.82270283 4290166197
0.097649567 0.087707393 0.82244909 4290560442
0.099940516 0.087753467 0.82288116 4290823614
0.1023884 0.087932304 0.82455808 4290955200
0.10458913 0.087895766 0.82421547 4291152579
0.10668993 0.087778531 0.82311618 4291547338
0.10885294 0.087716259 0.82253224 4292138707
0.11132789 0.087902799 0.82428145 4292533465
0.1139496 0.088195562 0.82702672 4292927712
0.11646154 0.088393666 0.82888436 4293059811
0.11908329 0.088665999 0.83143812 4293257706
0.12191518 0.089081727 0.83533645 4293455085
0.12494292 0.089622721 0.84040946 4293849843
0.12844101 0.090475574 0.84840685 4294178038
0.056107771 0.09543594 0.87264931 4280623641
0.063208424 0.095398717 0.87230897 4287401862
0.064851336 0.094334997 0.8625825 4287533446
0.066472843 0.093315542 0.85326082 4287796618
0.068329141 0.092683405 0.84748065 4287993997
0.070274062 0.092208833 0.84314126 4288126353
0.072362371 0.091946468 0.84074223 4288389525
0.074416079 0.091657571 0.83810061 4288521624
0.076398879 0.091301113 0.83484125 4288784796
0.078407638 0.090995379 0.83204567 4288981664
0.080483586 0.090782598 0.8301 4289047457
0.082697116 0.090732381 0.82964087 4289245349
0.084975749 0.090754375 0.82984191 4289179556
0.087081172 0.090595022 0.82838482 4289508267
0.089299172 0.090557866 0.82804513 4289640107
0.091393791 0.090400517 0.82660633 4289705898
0.093618594 0.090376392 0.82638574 4289969072
0.095717959 0.090235151 0.82509428 4290100656
0.097961545 0.090233229 0.8250767 4290363576
0.10028834 0.090306327 0.82574505 4290495162
0.10266891 0.090423577 0.82681715 4290823614
0.10501498 0.090506062 0.82757139 4291152580
0.10720883 0.09045665 0.82711959 4291481547
0.10936638 0.090379268 0.82641202 4291810512
0.11165687 0.090412647 0.82671726 4292271063
0.11419867 0.090644196 0.82883447 4292796639
0.11674859 0.090873078 0.83092737 4292797153
0.11939952 0.091170408 0.83364606 4293257706
0.12205198 0.091457792 0.83627385 4293520878
0.12507293 0.092005707 0.84128392 4293980659
0.12857638 0.092882492 0.84930104 4294178038
0.0562323 0.098028123 0.87458611 4280492825
0.060709026 0.097571641 0.87051344 4278190080
0.063064955 0.097550973 0.87032908 4287467655
0.064655975 0.096391454 0.85998404 4287402632
0.066436499 0.095585592 0.85279435 4287534216
0.06823457 0.094858535 0.84630769 4287731595
0.069998458 0.09413299 0.83983451 4287995280
0.072108299 0.093903854 0.83779025 4288192659
0.074199364 0.093665071 0.83565986 4288455831
0.076344267 0.093506426 0.83424449 4288587417
0.078259602 0.093083896 0.83047473 4288982177
0.080354176 0.092892289 0.82876527 4289179556
0.082592294 0.09287256 0.82858926 4289245349
0.084822096 0.092844777 0.82834136 4289376935
0.086972661 0.092733942 0.82735252 4289574314
0.089069813 0.092573196 0.82591838 4289574312
0.091096178 0.09234859 0.82391453 4289771693
0.093163684 0.092175491 0.82237017 4289771693
0.095296569 0.092073686 0.82146186 4289968818
0.097678393 0.092211552 0.82269186 4290166967
0.10007319 0.092355207 0.82397354 4290495162
0.10241957 0.092448868 0.82480913 4290692029
0.10472453 0.092501923 0.82528251 4291086787
0.10711458 0.092626326 0.82639241 4291613133
0.10954318 0.092778273 0.827748 4292007891
0.11194409 0.092901096 0.82884383 4292205270
0.11445879 0.093111657 0.83072239 4292599774
0.11698959 0.093326889 0.83264267 4292994532
0.11945582 0.093483411 0.83403915 4293323499
0.12178431 0.093528323 0.83443981 4293652464
0.12466006 0.093984172 0.83850682 4293914866
0.12848365 0.095125385 0.84868848 4278190080
0.055728726 0.099509321 0.866754 4280492825
0.060970198 0.10037088 0.8742584 4278190080
0.063129686 0.10002232 0.87122238 4287599241
0.064830646 0.098998807 0.86230725 4286942081
0.066531666 0.098046906 0.85401595 4287468425
0.068406753 0.097407117 0.84844321 4287600009
0.070122361 0.096589461 0.84132117 4287863181
0.072250769 0.096374124 0.83944553 4288061073
0.074279144 0.096042663 0.8365584 4288258452
0.076536946 0.096018732 0.83634996 4288653210
0.078542285 0.095688611 0.83347452 4288390040
0.080743156 0.095608555 0.8327772 4289179556
0.082826927 0.095397994 0.83094317 4289179556
0.084948242 0.09524072 0.82957327 4289311142
0.087062366 0.095083736 0.82820588 4289376935
0.089273728 0.09503819 0.82780921 4289574314
0.09136337 0.094868504 0.8263312 4287008387
0.093489431 0.094743878 0.82524562 4289903279
0.095641389 0.094650723 0.82443422 4289903025
0.097880185 0.094645813 0.82439148 4290166197
0.1002231 0.094739541 0.82520789 4290363576
0.10255411 0.094818152 0.82589263 4290626235
0.10502242 0.095017612 0.82762998 4291020994
0.10746741 0.095188044 0.82911444 4291547338
0.10999286 0.09542127 0.83114594 4291744717
0.11232815 0.095483445 0.83168751 4292073684
0.11473355 0.095601588 0.83271652 4292600028
0.1171754 0.09574493 0.83396512 4292928739
0.11970492 0.095953114 0.83577842 4293191913
0.1221074 0.096053578 0.83665353 4293585901
0.12488759 0.096442051 0.84003723 4293914866
0.1286927 0.097593807 0.85006934 4278190080
0.060129274 0.10133319 0.86220032 4278190080
0.063145339 0.10241893 0.87143838 4278190080
0.064634576 0.10103926 0.85969937 4287072897
0.066395581 0.10016599 0.85226905 4287468425
0.068270169 0.099517241 0.84674919 4287402632
0.070048094 0.098774567 0.84043008 4287600011
0.072170556 0.098549329 0.83851361 4284441947
0.074109137 0.098094501 0.83464366 4288258454
0.076371327 0.098082334 0.83454019 4288192661
0.078433312 0.097821184 0.83231813 4285955699
0.080603354 0.097705662 0.83133525 4285034597
0.082635202 0.097433515 0.82901967 4288850591
0.084700502 0.097214237 0.82715392 4289245349
0.086922258 0.097181231 0.82687306 4289245095
0.089065835 0.097064689 0.82588148 4289771439
0.091159493 0.096900821 0.82448721 4282468416
0.093172692 0.096661359 0.82244968 4285889652
0.095302917 0.096551687 0.82151657 4290297784
0.097538441 0.096551284 0.82151312 4290231990
0.099927284 0.09669926 0.8227722 4290626748
0.10231797 0.096842498 0.82399094 4286744961
0.10461814 0.096895754 0.82444406 4291087299
0.10708891 0.097101457 0.82619435 4291481545
0.1096717 0.097398199 0.82871914 4291942096
0.11214604 0.097588591 0.83033913 4292073684
0.11443461 0.097613014 0.83054692 4292468442
0.11696239 0.097836569 0.83244908 4292994018
0.11958978 0.09813337 0.83497441 4293388522
0.12221988 0.098421291 0.83742422 4293717487
0.1247085 0.09858682 0.83883262 4294046452
0.12837046 0.09965729 0.8479408 4278190080
0.060589526 0.10447346 0.86879992 4278190080
0.063238047 0.10494459 0.8727178 4287796622
0.064752579 0.10356786 0.86126894 4287007106
0.066545717 0.10271736 0.85419625 4287271046
0.068353347 0.10194591 0.84778088 4287271046
0.070392065 0.10155825 0.84455705 4287271046
0.072494075 0.10128352 0.8422724 4282270778
0.074401535 0.10076216 0.83793676 4287271046
0.076505914 0.10053056 0.83601087 4287007874
0.078662232 0.10037863 0.83474737 4285100136
0.080873542 0.10030343 0.83412194 4285429101
0.082783312 0.099868551 0.83050555 4289179302
0.084805556 0.099588886 0.82817984 4288981923
0.08699283 0.099512473 0.82754439 4289047716
0.089363813 0.099644758 0.82864451 4286284410
0.091646574 0.09967459 0.82889259 4282731588
0.093735166 0.099496879 0.82741475 4285626480
0.095794186 0.09929686 0.82575136 4290034611
0.097872749 0.099125803 0.82432884 4285100136
0.10022589 0.099234268 0.82523084 4287468684
0.10259105 0.099349611 0.82619005 4284442206
0.10489251 0.099399656 0.82660621 4291416264
0.10729999 0.099545956 0.82782286 4291415754
0.10970259 0.099681795 0.82895249 4291876305
0.1121393 0.099842541 0.83028924 4292073684
0.11439254 0.099836804 0.83024156 4292599260
0.11714556 0.10025903 0.83375275 4292994018
0.11993434 0.10069522 0.83738011 4293191397
0.12279289 0.10117265 0.84135038 4293717487
0.12524267 0.10130195 0.84242564 4293849843
0.12876031 0.10227481 0.8505159 4294243831
0.055677142 0.10648783 0.86595166 4280623643
0.057440251 0.10539832 0.85709184 4280492827
0.061041635 0.1076353 0.87528276 4278190080
0.063256651 0.10735145 0.87297457 4287993488
0.064586148 0.10563977 0.85905528 4286743934
0.066591419 0.10511439 0.85478288 4287270278
0.068309717 0.10418679 0.84723973 4282270778
0.070448987 0.10394087 0.84524 4287928976
0.072503649 0.10358963 0.84238368 4287271046
0.074395359 0.10303423 0.8378672 4283718737
0.07631427 0.10254842 0.83391666 4288258200
0.078356288 0.10225134 0.83150077 4288521372
0.080546819 0.10215928 0.83075213 4288587165
0.08259663 0.10189865 0.82863271 4288916130
0.084678739 0.10169066 0.82694137 4288916130
0.086909823 0.10166772 0.82675481 4289047716
0.089191936 0.10170411 0.82705075 4287205512
0.091438226 0.10169888 0.82700819 4288850337
0.093571633 0.10157136 0.82597125 4289047716
0.095765069 0.10151345 0.82550037 4289574060
0.097941175 0.10144026 0.82490516 4289310888
0.10023787 0.10149244 0.82532948 4285626480
0.10252146 0.10152936 0.82562971 4284507999
0.10471014 0.10147271 0.82516909 4291613644
0.10716933 0.10167509 0.82681477 4292007891
0.10941069 0.10166673 0.82674682 4288718241
0.11178955 0.10178391 0.82769966 4292467674
0.11394174 0.10169414 0.82696974 4292730844
0.11671281 0.10214951 0.83067274 4292797153
0.11948226 0.10258619 0.83422375 4293388522
0.12243488 0.10316091 0.83889735 4293717487
0.12510897 0.1034842 0.84152633 4293914866
0.063590348 0.11030628 0.87757969 4287861903
0.064889826 0.10848557 0.86309445 4286546555
0.06693881 0.10800136 0.85924214 4287072899
0.068672672 0.10705857 0.85174143 4286152311
0.070660278 0.10656001 0.84777498 4285428588
0.072570086 0.10597938 0.8431555 4285626480
0.074432395 0.1053671 0.83828437 4288060821
0.07639014 0.10492232 0.83474576 4288126614
0.078558847 0.10478462 0.83365023 4288389786
0.080775671 0.10471703 0.83311254 4288652958
0.082888983 0.10452261 0.83156574 4288718751
0.084967896 0.1042963 0.8297652 4288916130
0.08716578 0.10422395 0.82918966 4289047716
0.089418903 0.10421965 0.82915539 4289310888
0.091593578 0.10412637 0.82841331 4289310888
0.093796931 0.10406939 0.82795995 4289574060
0.096105106 0.10412866 0.82843149 4289705646
0.098334014 0.10410129 0.82821381 4290100404
0.10062006 0.10413429 0.82847631 4290560955
0.10279787 0.10405628 0.82785571 4290758335
0.10506111 0.10406624 0.82793492 4287139720
0.10740796 0.10415686 0.82865584 4287335818
0.10959394 0.10409096 0.82813156 4288191127
0.11189912 0.10413864 0.82851088 4292665053
0.11416808 0.1041514 0.82861245 4292665053
0.11695199 0.10462434 0.83237505 4293059811
0.11973245 0.10507628 0.83597058 4293388522
0.12257797 0.10556737 0.83987772 4293585901
0.12546469 0.10607535 0.84391904 4293980659
0.055773437 0.11139391 0.86744934 4280558366
0.058759663 0.11259203 0.87677938 4278190080
0.060799606 0.11195417 0.87181228 4279834644
0.063451916 0.11244947 0.8756693 4287730317
0.065004557 0.11103064 0.86462051 4286941058
0.066890247 0.11025992 0.85861874 4286217590
0.068674155 0.10937914 0.85175985 4287402378
0.070546761 0.10869252 0.84641302 4286219387
0.072421268 0.10805217 0.84142649 4287666063
0.074182309 0.10728697 0.83546776 4287929235
0.076200195 0.10692772 0.83267015 4288126614
0.078394279 0.10682932 0.83190387 4288521372
0.080646947 0.10681404 0.8317849 4288652958
0.082863554 0.10675314 0.83131063 4288850337
0.084962852 0.10654836 0.82971597 4288981923
0.087110877 0.10641371 0.8286674 4289245095
0.089175634 0.1061867 0.82689959 4289310888
0.091293402 0.10603243 0.82569832 4289442474
0.093516298 0.10600475 0.82548279 4289705646
0.095863685 0.10611618 0.82635045 4289837232
0.098174527 0.10618296 0.82687056 4289968818
0.10045427 0.10621388 0.82711124 4290429369
0.10262541 0.10613112 0.82646686 4290626749
0.10489251 0.10614903 0.82660627 4291020994
0.10726055 0.10626617 0.82751852 4291809742
0.109593 0.10634398 0.82812446 4289901745
0.11196285 0.10645422 0.82898283 4292336088
0.11428767 0.10651811 0.82948041 4290559677
0.11684911 0.1067958 0.83164281 4287335820
0.11934687 0.10700584 0.83327848 4293717487
0.12207973 0.1074149 0.83646393 4293520108
0.12498879 0.10796119 0.84071797 4293980659
0.058246683 0.11397459 0.86912495 4280492573
0.059654851 0.11217441 0.85539752 4280887844
0.062863126 0.11376723 0.8675437 4278190080
0.065260783 0.11383081 0.86802852 4287203973
0.067091733 0.112936 0.8612051 4283914835
0.069014758 0.11225136 0.85598427 4286152311
0.07072635 0.11127878 0.84856772 4287337098
0.072506368 0.11047196 0.84241521 4287600270
0.074245967 0.1096549 0.83618468 4287863442
0.076387927 0.10946303 0.83472157 4287929235
0.078647301 0.10944563 0.83458889 4288389786
0.080883972 0.10939851 0.83422953 4288521372
0.083041281 0.10924954 0.83309358 4288916130
0.08512827 0.10901845 0.83133137 4289047716
0.087340824 0.10895596 0.83085483 4288916898
0.089473657 0.10879967 0.8296631 4289180070
0.091641828 0.108693 0.82884967 4289442474
0.093752556 0.10852497 0.82756829 4289574060
0.096085548 0.10861606 0.82826293 4289771439
0.098301575 0.10857379 0.82794058 4289968818
0.10065011 0.10867649 0.82872373 4290297783
0.10277756 0.10854121 0.82769215 4290626749
0.10505821 0.10857005 0.82791203 4291020994
0.10731399 0.10857252 0.82793087 4291546570
0.10971961 0.10872336 0.82908112 4292072914
0.11224668 0.10898605 0.83108431 4291480779
0.1149205 0.10937802 0.83407336 4286348925
0.1175152 0.10968097 0.83638352 4287072394
0.11999845 0.10987037 0.83782774 4293717487
0.1224189 0.10999627 0.83878785 4293454315
0.12538822 0.11060172 0.84340471 4293849073
0.058443666 0.11673355 0.87206423 4280558366
0.062050555 0.11462736 0.8563298 4278190080
0.064950667 0.11564119 0.8639037 4287533964
0.066873394 0.11490479 0.85840237 4285954932
0.068770953 0.11417633 0.85296035 4286086518
0.070597902 0.11338205 0.84702665 4287008133
0.072422855 0.11263488 0.84144491 4287468684
0.074208707 0.11187459 0.83576506 4287929235
0.076372609 0.11171249 0.83455414 4288126614
0.078569509 0.11160664 0.83376336 4288323993
0.08082056 0.1115815 0.83357555 4288587165
0.082893245 0.11131819 0.83160847 4288653728
0.084932946 0.11102576 0.82942384 4288916900
0.087092392 0.11090095 0.82849151 4289048486
0.089279838 0.11081721 0.82786584 4289245865
0.091505967 0.11078441 0.82762086 4289443244
0.093714952 0.11073294 0.82723635 4289639853
0.095971785 0.1107391 0.82728231 4289903025
0.098233216 0.11075015 0.82736486 4290034611
0.10041573 0.11067372 0.82679391 4290231990
0.10261098 0.11061438 0.82635063 4290560956
0.10494944 0.11070865 0.82705492 4291086787
0.10735645 0.11086976 0.82825845 4291415754
0.10977519 0.11103611 0.82950115 4291942098
0.11220797 0.11120966 0.83079767 4292270293
0.11492821 0.11165563 0.83412933 4289244331
0.11754946 0.11199001 0.83662736 4293257706
0.119916 0.11207364 0.83725214 4293060327
0.12229592 0.11216642 0.83794522 4293455085
0.12513283 0.11266726 0.84168679 4293980659
0.058463555 0.1191476 0.872361 4280493086
0.061029922 0.11952371 0.8751148 4280032535
0.062475834 0.11775965 0.86219889 4285230695
0.065027304 0.11813171 0.864923 4284572765
0.067085043 0.11761218 0.86111915 4286612862
0.068946436 0.11679512 0.85513693 4287073926
0.070753232 0.11594195 0.84889024 4287139719
0.072572537 0.1151626 0.84318405 4287468684
0.0745252 0.11463614 0.83932954 4287797650
0.076688729 0.11445572 0.83800858 4288060821
0.078873947 0.11431716 0.83699405 4288389786
0.081014574 0.11412355 0.83557653 4288587165
0.083082244 0.11384056 0.83350456 4288653728
0.085078917 0.11347791 0.83084935 4288916900
0.08726465 0.11337969 0.83013016 4288916900
0.089437865 0.11327057 0.82933122 4289179302
0.091734268 0.11331899 0.82968575 4289311658
0.093976438 0.11329969 0.82954448 4289443244
0.096320614 0.11340141 0.83028919 4289771439
0.098553799 0.11337078 0.83006495 4289968818
0.1007295 0.11327686 0.82937735 4290297783
0.10287121 0.1131497 0.82844633 4290560956
0.10513666 0.11316117 0.82853025 4290955460
0.10749802 0.11327322 0.82935065 4291415754
0.10987221 0.1133939 0.83023423 4291744719
0.11230673 0.11357073 0.8315289 4292138707
0.11507138 0.11406782 0.83516842 4292468188
0.11788206 0.11459039 0.83899456 4292796639
0.12061527 0.11501923 0.84213442 4293125350
0.12302202 0.11512657 0.8429203 4293389292
0.12578617 0.11555831 0.84608138 4294046452
0.065081678 0.12058654 0.86564624 4287204485
0.066920571 0.11966181 0.85900795 4286941313
0.068705983 0.11870712 0.85215461 4287073413
0.070572235 0.11794988 0.84671867 4287337098
0.07249748 0.11733602 0.84231198 4287468684
0.074532136 0.11693145 0.83940768 4287600270
0.076622397 0.11663557 0.83728373 4288126614
0.078666322 0.11628829 0.83479071 4288389786
0.080674201 0.11590872 0.83206594 4288389786
0.082812026 0.11573149 0.83079368 4288653728
0.084885783 0.11547651 0.82896328 4288851107
0.087113015 0.11543813 0.82868773 4289048486
0.089301914 0.11535216 0.82807058 4289311658
0.091519848 0.115307 0.82774645 4289245865
0.093793675 0.11533275 0.82793123 4289509037
0.096096657 0.11539229 0.82835865 4289771439
0.098478027 0.11554108 0.82942677 4290034611
0.10054417 0.11532164 0.82785147 4290231990
0.10269603 0.11520798 0.82703555 4290626236
0.10502335 0.1152918 0.82763731 4290955201
0.10746582 0.11549587 0.82910222 4291349961
0.1098135 0.11559176 0.82979059 4291678926
0.11213833 0.11566022 0.83028203 4292270295
0.1147953 0.11606178 0.83316469 4292402908
0.1174972 0.11649233 0.83625543 4292797155
0.12018608 0.11689386 0.83913785 4292994534
0.12285994 0.11726606 0.84180975 4293389292
0.12560697 0.1176932 0.84487605 4293980659
0.12910205 0.1187933 0.85277325 4294441210
0.063385241 0.12423541 0.87474912 4287861902
0.065363042 0.12347409 0.86938864 4287138180
0.067247793 0.12259633 0.86320829 4286941313
0.06902042 0.12158032 0.85605448 4287073413
0.070841201 0.12071273 0.84994572 4284244314
0.072732486 0.12001634 0.84504241 4287008133
0.074792288 0.11963219 0.84233761 4286415996
0.076846205 0.11926176 0.83972937 4287797649
0.078848094 0.1188343 0.83671963 4288455066
0.08089035 0.11849 0.83429533 4288652445
0.082976319 0.11822676 0.83244187 4288521372
0.0850977 0.11802664 0.83103281 4288981923
0.087305449 0.11795357 0.83051831 4289179302
0.089549758 0.11793233 0.83036876 4289245095
0.091740862 0.11784379 0.82974535 4289507240
0.093994379 0.11783776 0.82970285 4289704619
0.096298255 0.11789366 0.83009648 4289901998
0.098675393 0.11803463 0.83108908 4290034098
0.10079267 0.1178654 0.82989752 4290231477
0.10302395 0.11783399 0.82967639 4290692029
0.10533985 0.11789864 0.83013153 4290955203
0.10776152 0.11807645 0.83138353 4291743438
0.1100963 0.11815371 0.83192754 4292269269
0.11252886 0.11833068 0.83317357 4292729306
0.11509725 0.11864066 0.83535618 4292467674
0.11762354 0.11889608 0.83715463 4292862432
0.12023433 0.11922559 0.83947468 4293060327
0.12295187 0.11964668 0.84243965 4293389292
0.12591304 0.1202851 0.8469348 4293849073
0.060465727 0.12549816 0.86702478 4280032535
0.065573022 0.12624457 0.87218153 4287072133
0.067130774 0.12472831 0.8617062 4286809472
0.069070019 0.12399931 0.85666972 4287204999
0.07085745 0.12305426 0.85014069 4283257419
0.072724089 0.12230218 0.84494483 4284573792
0.07472951 0.12182245 0.84163058 4282138938
0.076674663 0.12127593 0.8378548 4281415215
0.078719318 0.12091383 0.83535314 4288718751
0.080782108 0.12059912 0.83317894 4288521372
0.082823142 0.12027001 0.8309052 4289309348
0.08495985 0.12009361 0.82968658 4286281330
0.087212637 0.1200862 0.82963538 4289901485
0.089591794 0.12024877 0.83075851 4289573031
0.091738872 0.12009951 0.82972735 4289639340
0.093877956 0.11994722 0.82867521 4290099122
0.095998466 0.11977889 0.82751226 4290362037
0.098291166 0.11982819 0.8278529 4290493110
0.10047915 0.1197505 0.82731611 4290691259
0.10282579 0.11986115 0.82808053 4291216063
0.10522563 0.12002773 0.82923138 4291872712
0.10769587 0.12026593 0.83087707 4288977050
0.11010094 0.12042306 0.83196259 4288513678
0.11250299 0.12057062 0.83298206 4288911259
0.11490542 0.12071274 0.83396393 4292664540
0.11719232 0.12073034 0.83408552 4292862432
0.11961553 0.12088504 0.83515424 4293126633
0.12234312 0.12133582 0.83826858 4293455085
0.12552559 0.122213 0.8443287 4293980659
0.060130619 0.12714934 0.86221957 4279900949
0.063196406 0.12861274 0.87214309 4278190080
0.065540962 0.12855552 0.87175512 4287137926
0.067348294 0.12748539 0.86449838 4287007106
0.069369167 0.12687807 0.86037999 4287073413
0.071281902 0.12611908 0.85523319 4283981142
0.073158987 0.12534702 0.8499977 4283718483
0.075226769 0.12493899 0.84723085 4285231722
0.076968387 0.12402966 0.84106451 4280955177
0.079070784 0.12373742 0.83908278 4289112482
0.081117779 0.12337734 0.83664101 4284768091
0.083176158 0.12305375 0.83444673 4286082668
0.085244536 0.12276176 0.83246672 4285881182
0.087476961 0.12271504 0.83214986 4285880412
0.089804061 0.12280013 0.83272684 4286738031
0.091980085 0.12267952 0.831909 4286672238
0.094161876 0.12257222 0.83118141 4287265916
0.096263707 0.12236831 0.82979864 4285883750
0.098418653 0.12223972 0.82892668 4286607986
0.10066008 0.1222219 0.8288058 4286407273
0.10302489 0.1223514 0.82968396 4287985535
0.10540491 0.122493 0.83064419 4287259759
0.10775135 0.12259047 0.83130515 4289497234
0.11018739 0.12278376 0.83261585 4289103759
0.11261234 0.12295716 0.83379167 4292857556
0.11508443 0.12317415 0.83526319 4292664542
0.117482 0.12330452 0.83614725 4292862178
0.12003344 0.12358837 0.83807206 4292994534
0.12248806 0.12376381 0.83926171 4293455085
0.12567285 0.12465708 0.84531915 4294112245
0.067390151 0.12991899 0.86503559 4287072644
0.069336697 0.12915929 0.85997725 4286876034
0.07119666 0.12829319 0.8542105 4287270792
0.073094644 0.12754819 0.84925008 4286415996
0.075126439 0.12707521 0.84610093 4286415996
0.076772757 0.12599772 0.83892673 4283915349
0.078804441 0.12559669 0.83625644 4287796622
0.080769897 0.12511554 0.83305293 4285163362
0.082926206 0.12494827 0.83193916 4287266942
0.085058458 0.12475459 0.83064955 4285683803
0.087371118 0.1248287 0.83114302 4285948002
0.089684591 0.12490019 0.83161902 4285945692
0.091803066 0.12470328 0.83030796 4285814620
0.094021052 0.12464776 0.82993829 4290620076
0.096124984 0.1244472 0.82860285 4286146922
0.098292597 0.12433638 0.827865 4287463295
0.10045836 0.12422822 0.82714492 4286275685
0.10279188 0.12432774 0.82780749 4288843667
0.10511366 0.12440907 0.82834905 4286673268
0.10742111 0.12447039 0.82875729 4288975253
0.10979533 0.12460496 0.82965332 4287595397
0.11225273 0.1248266 0.83112907 4290162864
0.11473469 0.12506627 0.83272481 4292205529
0.11732451 0.12541194 0.83502638 4292796385
0.11995187 0.12578383 0.83750254 4292994534
0.1225376 0.12609902 0.83960116 4293454315
0.12547153 0.12675443 0.84396505 4294309624
0.12902652 0.12800239 0.85227436 4294704382
0.067597389 0.13268015 0.86769575 4287072386
0.069440179 0.13169616 0.86126077 4286876034
0.071362436 0.13092223 0.85619938 4287139206
0.07322558 0.13009222 0.85077137 4287205512
0.075251788 0.12959392 0.8475126 4287600270
0.077091441 0.12881355 0.84240913 4287666063
0.079043575 0.12826078 0.83879411 4288126614
0.080958508 0.12768035 0.83499831 4288521372
0.083010942 0.12734257 0.83278924 4288849824
0.08519648 0.12722148 0.83199745 4289244068
0.087539166 0.12733527 0.83274156 4289507240
0.089835189 0.12737715 0.83301544 4289637800
0.091918468 0.12712276 0.83135176 4288781464
0.094174787 0.12711413 0.83129537 4290164657
0.096434943 0.12711097 0.83127475 4290164144
0.098690748 0.12710236 0.83121836 4290427830
0.10081131 0.12692386 0.830051 4290822588
0.10311227 0.12697533 0.83038765 4290888638
0.10542682 0.12704097 0.83081686 4291151810
0.10772891 0.12708914 0.83113194 4291611850
0.10999557 0.1270944 0.83116639 4291875022
0.11250541 0.12737477 0.83299989 4292204500
0.11505603 0.12768933 0.83505702 4292336602
0.11775351 0.12815152 0.83807969 4292731875
0.12041902 0.12856202 0.84076416 4292929254
0.12308002 0.12895249 0.84331775 4293389292
0.12590207 0.12949429 0.84686106 4293914866
0.12923507 0.1305327 0.85365194 4294835709
0.067483209 0.13481367 0.86623013 4287203459
0.06927304 0.13371764 0.85918772 4286941313
0.071158804 0.13287233 0.85375625 4287073413
0.073036656 0.13206616 0.84857637 4287205512
0.075042099 0.13153309 0.84515107 4287468684
0.077056944 0.13104768 0.84203219 4287666063
0.078980051 0.13043882 0.83811998 4288060821
0.080946185 0.12993319 0.83487117 4288192407
0.082918309 0.12946454 0.83185989 4288587165
0.085242175 0.12955539 0.83244365 4288784544
0.087459631 0.12948401 0.831985 4288981410
0.089658193 0.12938896 0.83137423 4288916130
0.091628909 0.12897786 0.82873285 4289442474
0.093881026 0.12897311 0.82870227 4289705646
0.096192472 0.12904817 0.82918459 4289705646
0.098522216 0.12914379 0.82979894 4290034611
0.1006922 0.12903038 0.82907027 4290231990
0.10303227 0.12913513 0.82974333 4290560955
0.10537757 0.12924181 0.83042878 4290955714
0.10773002 0.12935258 0.83114058 4291218375
0.11002609 0.1293925 0.831397 4291613133
0.11244114 0.12956792 0.83252412 4291941844
0.11494067 0.12983181 0.83421975 4292271322
0.11755437 0.13021196 0.83666235 4292666082
0.12021376 0.1306273 0.83933109 4292994534
0.12312893 0.13129991 0.84365284 4293520108
0.12603657 0.13194001 0.84776574 4294046452
0.067030691 0.13625148 0.86042154 4278190080
0.069289833 0.1360891 0.85939604 4287204485
0.071261972 0.13539203 0.85499406 4287073413
0.073157169 0.13459748 0.8499766 4287205512
0.075261526 0.13422468 0.84762233 4287468684
0.077379704 0.13389796 0.84555912 4287666063
0.079349868 0.13334139 0.84204441 4287863442
0.081305444 0.13279223 0.83857656 4288323993
0.083190218 0.13216059 0.83458775 4288456349
0.085507251 0.132231 0.83503234 4288785314
0.087656669 0.13204525 0.83385938 4288981923
0.089890331 0.13199259 0.83352679 4289179302
0.091897689 0.1316184 0.83116376 4289376168
0.094102189 0.13153775 0.83065456 4289310888
0.096425772 0.13162345 0.83119565 4289639853
0.098764479 0.13172537 0.83183938 4289837232
0.10107101 0.13178079 0.83218932 4290166197
0.10327403 0.13170177 0.83169031 4290495163
0.10566426 0.13185976 0.83268803 4290889921
0.10803498 0.13198729 0.83349329 4291152839
0.1104531 0.13216628 0.83462363 4291547597
0.11280537 0.13226086 0.83522087 4291744978
0.11525924 0.13246846 0.83653188 4292271322
0.11779369 0.13275884 0.83836561 4292600289
0.12036254 0.13307621 0.84036982 4292929254
0.12319248 0.13366504 0.84408826 4293455087
0.12627247 0.13449866 0.84935248 4293981431
0.069207385 0.1382634 0.8583734 4284768604
0.07107915 0.13736574 0.85280055 4287859593
0.073043652 0.13669842 0.84865767 4287598730
0.075099863 0.13623838 0.84580159 4287141002
0.077237688 0.13594936 0.84400725 4287600270
0.07915882 0.13530663 0.84001702 4287929235
0.081287779 0.13504526 0.83839434 4288323993
0.083233334 0.13450179 0.83502036 4288587165
0.085539646 0.13455467 0.83534867 4288784544
0.087478109 0.13404118 0.83216077 4288981923
0.089695267 0.13396986 0.83171803 4289113509
0.091803245 0.13374299 0.83030957 4289245095
0.09407559 0.13376074 0.83041972 4289508267
0.096273243 0.13367394 0.82988083 4289639853
0.098536693 0.13368039 0.82992089 4289837232
0.10082229 0.13371591 0.83014143 4290100404
0.1030529 0.13367856 0.8299095 4290560443
0.1054899 0.13390477 0.83131397 4290889408
0.10788793 0.13407308 0.83235884 4291283914
0.1103469 0.13430862 0.83382118 4291415500
0.11261079 0.13430202 0.83378017 4291876051
0.11501069 0.13445468 0.83472794 4292599006
0.11753757 0.134747 0.83654273 4292796128
0.1201485 0.13512276 0.83887547 4293058787
0.12301041 0.13576147 0.84284079 4294241780
0.12613207 0.13665824 0.8484081 4294964990
0.071353167 0.14022535 0.85608822 4282787629
0.073284782 0.13946712 0.85145921 4285357916
0.075311705 0.13893121 0.84818745 4288518803
0.077358045 0.13846193 0.84532243 4288651159
0.07929597 0.13783132 0.84147245 4288586138
0.081446901 0.13759595 0.84003556 4288652958
0.083431222 0.13709965 0.83700562 4288849824
0.08558201 0.13689601 0.83576238 4289376168
0.087576158 0.13645886 0.83309346 4289245349
0.089873739 0.13650464 0.83337295 4289245095
0.092141137 0.13650343 0.83336562 4289442474
0.094399393 0.13648908 0.833278 4289639853
0.096624777 0.136429 0.83291113 4289836719
0.09883754 0.13635424 0.83245474 4289903026
0.1010984 0.1363477 0.83241487 4290099892
0.10323246 0.13617419 0.83135551 4290625466
0.10565386 0.13637902 0.83260608 4291020224
0.10809137 0.13659561 0.83392835 4291217605
0.11059792 0.13688873 0.83571792 4291940304
0.11301026 0.13705581 0.83673793 4292663000
0.11531503 0.13708837 0.83693677 4293123553
0.11784779 0.1373855 0.83875072 4293781483
0.12036705 0.13765587 0.84040135 4294437617
0.12323003 0.13830192 0.84434557 4294961141
0.12642629 0.13929151 0.8503871 4290739862
0.069590628 0.14372742 0.86312675 4282267704
0.071177833 0.14220507 0.85398459 4283965485
0.073078431 0.14138533 0.84906179 4284357674
0.075006597 0.14066754 0.84475124 4283635491
0.077067122 0.14023329 0.84214342 4283247404
0.078918509 0.13945456 0.8374669 4285553755
0.081192054 0.13944459 0.83740705 4287397499
0.083269127 0.13910696 0.83537942 4288913048
0.085473411 0.13899413 0.83470184 4289900456
0.0874964 0.13859996 0.83233476 4289704617
0.089729384 0.13854994 0.83203435 4290033069
0.09200035 0.13855958 0.83209229 4290295730
0.094171531 0.1384221 0.83126664 4290427829
0.096364081 0.13832173 0.83066392 4290493622
0.098510653 0.13816148 0.82970154 4290953146
0.10077436 0.13816901 0.82974672 4291215805
0.10299858 0.13812326 0.82947206 4291873735
0.10543744 0.13836114 0.83090061 4291939528
0.10778847 0.13847619 0.83159149 4291082679
0.11023726 0.13870953 0.83299273 4290291880
0.11267798 0.13892348 0.83427763 4288446854
0.11508112 0.13908359 0.83523911 4286665055
0.1176737 0.13946201 0.83751166 4287248211
0.12034864 0.1399218 0.84027278 4288624474
0.12338161 0.14077294 0.84538418 4289478243
0.12666641 0.14187497 0.8520022 4291387780
0.067138605 0.14585321 0.86180669 4292467422
0.071485355 0.14515382 0.85767418 4281341723
0.073274285 0.14408135 0.85133731 4284359728
0.075177461 0.14329238 0.84667552 4284816940
0.077155054 0.14268799 0.8431043 4285078572
0.079032145 0.14193799 0.83867276 4285274411
0.081196673 0.14173184 0.83745468 4285471531
0.083323404 0.14147277 0.83592391 4285471531
0.085601069 0.14147694 0.83594853 4285404710
0.087813675 0.14137614 0.83535296 4285797928
0.090026818 0.14128128 0.83479238 4285863979
0.092171684 0.14108656 0.83364189 4285995567
0.094255619 0.14081019 0.8320089 4286323251
0.096437164 0.14068918 0.83129388 4286585140
0.098628089 0.14058708 0.83069062 4286848055
0.10087665 0.14056988 0.830589 4286848053
0.10310112 0.1405206 0.83029783 4287176250
0.10549098 0.14069401 0.83132243 4287307323
0.10778044 0.14072907 0.83152956 4287964996
0.11029523 0.14105082 0.83343071 4288096841
0.11282576 0.14137934 0.83537185 4289016914
0.11536604 0.14170685 0.83730704 4289608540
0.1179185 0.14203635 0.8392539 4290068836
0.12054951 0.14244615 0.84167528 4290069865
0.12358999 0.14331548 0.84681195 4289480810
0.12701626 0.14459215 0.85435545 4288304236
0.071434103 0.14738241 0.85705924 4280425502
0.073350184 0.14655009 0.8522191 4280490006
0.075180858 0.14560337 0.84671378 4281143057
0.077230662 0.14512475 0.84393048 4282190353
0.078989372 0.14414257 0.83821887 4283896606
0.081088088 0.14381857 0.83633476 4284815653
0.083213523 0.14355835 0.83482158 4285735215
0.085578375 0.14371404 0.83572692 4285996077
0.087837689 0.14368902 0.83558136 4286719287
0.089998029 0.14350744 0.83452547 4286916409
0.092003599 0.14309408 0.83212167 4286916154
0.09405949 0.14277697 0.83027762 4286916154
0.096186243 0.14257978 0.82913089 4287178558
0.098505124 0.1426699 0.82965499 4287441217
0.10077126 0.1426813 0.82972127 4287901254
0.10309187 0.14276764 0.83022338 4288031811
0.10544911 0.1428999 0.83099252 4288293959
0.10765821 0.14283009 0.83058649 4287769155
0.11012232 0.14309451 0.83212417 4287901768
0.1126361 0.14341152 0.83396763 4286258226
0.11532728 0.14393739 0.8370257 4285536045
0.11790768 0.14430732 0.83917695 4284880684
0.12056926 0.14476065 0.84181315 4283573295
0.12374447 0.14580227 0.84787041 4283317825
0.074432328 0.15106589 0.86479205 4280295969
0.075838692 0.14920209 0.85412258 4279769363
0.077781565 0.14847329 0.84995043 4279966229
0.079549782 0.14746282 0.84416586 4280031506
0.081470951 0.14678463 0.84028357 4279900688
0.083535738 0.14639518 0.83805412 4279769102
0.085861444 0.14647155 0.83849126 4280031247
0.088229932 0.14661503 0.83931267 4279965452
0.090384148 0.14640421 0.8381058 4280031245
0.092342183 0.14589381 0.83518398 4280162831
0.094399482 0.14556101 0.83327878 4279965452
0.096548617 0.14538209 0.83225459 4280227854
0.098944351 0.14557421 0.83335435 4280425235
0.10117996 0.14552741 0.83308643 4280359442
0.10348448 0.14557958 0.83338511 4280557591
0.10577001 0.14560337 0.83352137 4280557591
0.10799161 0.14554003 0.83315873 4280689177
0.11050606 0.14586584 0.83502382 4281148960
0.11300614 0.14615992 0.83670735 4281149476
0.11582953 0.1468523 0.84067094 4281807406
0.11841647 0.14722387 0.84279805 4281939250
0.12114394 0.14775273 0.84582555 4282137399
0.12446149 0.14896813 0.85278326 4282006072
0.076169752 0.15218824 0.85785109 4279769621
0.078161299 0.15152276 0.85409993 4279900949
0.080071636 0.15074283 0.84970361 4279769363
0.08187563 0.1498121 0.84445739 4279966740
0.083772898 0.14909823 0.84043342 4279900947
0.085837394 0.14871201 0.83825636 4279966740
0.08821363 0.1488719 0.83915764 4280032276
0.090433888 0.14876711 0.83856702 4280032276
0.092457421 0.14835185 0.83622622 4280032276
0.094451852 0.14791097 0.83374107 4280228885
0.096681118 0.14784989 0.83339679 4280294678
0.099123485 0.14811002 0.83486307 4280229655
0.10149296 0.14825201 0.8356635 4280492827
0.10369094 0.1481428 0.83504784 4280558620
0.10612464 0.14836778 0.83631605 4280624413
0.10850433 0.14850941 0.83711439 4280755745
0.11110122 0.14893638 0.83952105 4280952610
0.11339795 0.14895186 0.83960837 4280953637
0.11601198 0.1493753 0.84199518 4281151016
0.118964 0.15020907 0.84669501 4281677361
0.12220998 0.15137529 0.85326868 4282006072
0.076525584 0.15524492 0.86185855 4281151017
0.078244425 0.154011 0.8550083 4281809459
0.080354109 0.15359542 0.85270119 4279638804
0.082368597 0.15302634 0.84954184 4279638804
0.084326424 0.15238592 0.84598649 4279967255
0.086186893 0.15160829 0.84166944 4279573011
0.08845979 0.15157764 0.84149927 4279507219
0.090692885 0.15148206 0.84096861 4279638035
0.092967056 0.1514581 0.84083563 4279572242
0.094918594 0.1509223 0.83786106 4279901207
0.097093508 0.15075848 0.83695161 4279901207
0.099142686 0.15041141 0.83502483 4280098841
0.10161132 0.15070201 0.83663809 4280296220
0.10387034 0.15067579 0.83649254 4280230427
0.10649019 0.15116291 0.8391968 4280362013
0.10889917 0.15133651 0.84016055 4280427806
0.11164037 0.15195516 0.84359509 4280954150
0.11396952 0.15199934 0.84384036 4280624930
0.11646189 0.15225515 0.8452605 4282532927
0.11927159 0.15290788 0.84888422 4281414446
0.12252766 0.15409717 0.85548669 4281809976
0.076468073 0.15747222 0.86121088 4280295967
0.077996977 0.15584366 0.85230428 4281414701
0.0801543 0.15552853 0.85058087 4280888871
0.082018785 0.15467882 0.84593385 4280757798
0.084093429 0.15426105 0.84364903 4283323212
0.085916929 0.15341702 0.83903307 4279967769
0.088142164 0.15331548 0.83847779 4283915349
0.090170562 0.15288533 0.83612531 4280033048
0.092347264 0.15272161 0.83522993 4282664768
0.094233111 0.15209632 0.83181018 4279967255
0.096490994 0.15208676 0.8317579 4283454284
0.098580986 0.15181907 0.83029389 4280164634
0.10104485 0.15212625 0.83197391 4282993733
0.103439 0.15231732 0.83301884 4280690978
0.10603321 0.15278848 0.83559555 4284309593
0.10852449 0.15309462 0.8372699 4280493344
0.11102553 0.15340167 0.83894914 4283782994
0.11339617 0.15351981 0.8395952 4281348653
0.11583624 0.15372542 0.84071964 4284901477
0.11832809 0.15399045 0.84216911 4281282862
0.12153821 0.15516236 0.84857833 4282072894
0.12507272 0.15669702 0.85697126 4282862412
0.074824072 0.16132538 0.86934346 4280032286
0.076208681 0.15927409 0.85828954 4280953895
0.077877261 0.15792063 0.85099614 4279770390
0.079916522 0.15737534 0.84805763 4279507218
0.081829168 0.1566183 0.84397817 4279376145
0.083978817 0.15634386 0.84249926 4281152556
0.085883699 0.15564041 0.83870858 4279836696
0.088093475 0.15551163 0.8380146 4282994247
0.090130597 0.15509225 0.83575469 4279507218
0.092414126 0.1551071 0.83583468 4282402110
0.094423287 0.15467179 0.83348888 4279967769
0.096677221 0.15464845 0.83336318 4283060040
0.098713957 0.15428673 0.83141387 4280362013
0.10118568 0.15460584 0.83313346 4282401596
0.1036431 0.15488958 0.8346625 4280362013
0.10625884 0.15539268 0.83737361 4283190857
0.10845764 0.15527773 0.83675414 4280361758
0.11081187 0.15538545 0.83733463 4281545521
0.11313181 0.15544173 0.8376379 4280295197
0.11584265 0.15602225 0.84076619 4281084970
0.11841054 0.15639149 0.84275591 4281150763
0.12171894 0.15770613 0.84984022 4282138173
0.12528577 0.15930036 0.8584311 4278190080
0.073988646 0.16186383 0.85963708 4279506453
0.075803041 0.16074988 0.85372102 4281414446
0.077635147 0.15973864 0.84835047 4282203962
0.079704642 0.15926014 0.84580916 4281941559
0.081654534 0.15857622 0.84217703 4281415728
0.083663344 0.15804096 0.83933431 4282600002
0.08565446 0.15750162 0.83646995 4281152556
0.08783824 0.1573353 0.83558661 4280230941
0.090058267 0.15724066 0.83508402 4280494113
0.092196696 0.15701172 0.83386815 4279573011
0.094177723 0.15653217 0.8313213 4280296220
0.096324846 0.1563447 0.83032566 4279704083
0.098601677 0.15637153 0.83046818 4280164634
0.10112365 0.15677722 0.83262277 4280296220
0.10356891 0.15704881 0.83406508 4281085481
0.10600369 0.15729317 0.83536291 4281348653
0.10825992 0.1572679 0.83522868 4283716690
0.1106044 0.15736924 0.83576691 4282334526
0.11290184 0.15740092 0.83593518 4282334526
0.11529814 0.15756644 0.83681422 4285097832
0.11792365 0.15803273 0.83929056 4281282351
0.12116574 0.15929189 0.84597784 4281940794
0.1251734 0.16149178 0.85766113 4278190080
0.0759186 0.16332208 0.85502255 4279901209
0.077703446 0.16219017 0.84909678 4279901207
0.079548918 0.16124654 0.84415668 4279375632
0.081644289 0.16084822 0.84207135 4279376145
0.083643302 0.16028699 0.83913326 4280955177
0.085800298 0.1600503 0.83789414 4282271037
0.087934114 0.15978375 0.83649868 4281612594
0.090229139 0.15981618 0.83666843 4282336317
0.092350431 0.15954687 0.8352586 4280691492
0.094437368 0.15923257 0.83361322 4283323212
0.096588157 0.15903816 0.83259541 4280691492
0.098927833 0.15915656 0.83321524 4281743666
0.10141637 0.15950377 0.83503294 4281283115
0.10389089 0.15981418 0.836658 4281151529
0.10633217 0.16006126 0.83795148 4282006583
0.10864346 0.16010639 0.83818781 4282861381
0.11102466 0.16025057 0.83894259 4281611316
0.11323647 0.16014937 0.83841276 4280952873
0.11555675 0.16020255 0.83869117 4280953386
0.11803892 0.16047375 0.84011096 4281084972
0.12158301 0.1621509 0.8488912 4282137919
0.079502352 0.16344835 0.8436625 4282006838
0.081502996 0.16285776 0.84061408 4281941559
0.083485596 0.16226435 0.83755106 4280559906
0.085735053 0.16220737 0.83725697 4280230941
0.087899171 0.16199605 0.83616626 4279968282
0.090075627 0.16181757 0.83524495 4279310352
0.092145406 0.16146095 0.83340424 4279770903
0.094264083 0.16120508 0.83208358 4279638804
0.09640608 0.16100018 0.8310259 4279573011
0.098744102 0.16112453 0.83166778 4279836183
0.10107691 0.16123499 0.8322379 4279836183
0.10353184 0.16153115 0.83376658 4280822309
0.10585254 0.16160963 0.83417171 4280361758
0.10844781 0.16209525 0.83667827 4283190857
0.11096133 0.16244121 0.83846402 4280558626
0.11338598 0.16264574 0.83951974 4280624419
0.11551887 0.16243196 0.83841622 4280953384
0.1178213 0.16246022 0.83856213 4281348655
0.12080367 0.16340715 0.84344983 4282072380
0.081567578 0.16527653 0.84128016 4279967255
0.083743304 0.16505185 0.84013653 4280164634
0.086057149 0.16510409 0.84040242 4281612848
0.08812058 0.16468564 0.83827245 4282270524
0.090130299 0.16419047 0.83575195 4279901976
0.092290327 0.16398676 0.83471501 4280954664
0.094550073 0.16396575 0.83460808 4281152043
0.096817896 0.1639594 0.83457577 4281809973
0.099028856 0.16385926 0.83406609 4280954150
0.10125804 0.16379309 0.83372927 4280625185
0.10358188 0.16387959 0.83416951 4282664768
0.10595996 0.16404633 0.83501828 4282598975
0.1084255 0.16433865 0.83650619 4282861892
0.11089703 0.16462784 0.83797818 4280690723
0.11341517 0.16497315 0.83973593 4280888102
0.08983884 0.16592684 0.83304936 4279573265
0.10111015 0.16581973 0.8325116 4280362527
0.10335508 0.16578616 0.83234304 4280362013
0.10561757 0.16578157 0.83232003 4280559392
