# .PCD v0.7 - Point Cloud Data file format
VERSION 0.7
FIELDS x y z rgba
SIZE 4 4 4 4
TYPE F F F U
COUNT 1 1 1 1
WIDTH 1046
HEIGHT 1
VIEWPOINT 0 0 0 1 0 0 0
POINTS 1046
DATA ascii
-0.041027851 0.15326411 0.84590834 4294901500
-0.039325893 0.15343519 0.84689641 4294901500
-0.03764417 0.15343821 0.84688139 4294901500
-0.035962451 0.15344125 0.84686637 4294901500
-0.034252994 0.15361235 0.84785438 4294901500
-0.032510173 0.1539515 0.84984541 4294901501
-0.03079134 0.15412261 0.85083336 4294901502
-0.084934629 0.1562238 0.85435802 4289045403
-0.083186522 0.1558872 0.85233575 4289638054
-0.08144591 0.15555057 0.85031354 4290164399
-0.079689912 0.15504409 0.84728789 4290493109
-0.077966176 0.15470743 0.84526581 4290756281
-0.076288201 0.15471046 0.84525084 4291151039
-0.074592978 0.15454364 0.84423238 4291545797
-0.072886109 0.15420695 0.84221047 4291743176
-0.071186744 0.15387025 0.84018868 4292072141
-0.069506511 0.15370339 0.83917034 4292401106
-0.067830034 0.15353654 0.83815199 4292532692
-0.066165186 0.15353954 0.83813715 4292795865
-0.064500339 0.15354255 0.83812225 4293059294
-0.062835492 0.15354554 0.83810741 4293322722
-0.061170649 0.15354855 0.83809251 4293520101
-0.059505805 0.15355155 0.83807766 4293783273
-0.057842448 0.15338467 0.8370595 4293914861
-0.056179475 0.15338767 0.8370446 4294177777
-0.054516505 0.15339068 0.83702976 4294440949
-0.052846421 0.15356357 0.83801818 4294506742
-0.051172588 0.15373647 0.83900654 4294769914
-0.049505867 0.15373948 0.83899164 4294835707
-0.047839146 0.15374248 0.83897674 4294901500
-0.046157811 0.15391539 0.83996505 4294901500
-0.044472732 0.15408832 0.84095329 4294901501
-0.042765535 0.15443116 0.84294468 4294901502
-0.041050844 0.15477403 0.84493601 4294901502
-0.039350759 0.15494697 0.84592414 4294901502
-0.037670918 0.15495001 0.84590918 4294901502
-0.036016934 0.1547831 0.84489107 4294901502
-0.034311228 0.15495606 0.84587914 4294901502
-0.032572161 0.15529896 0.84787023 4294901502
-0.030825596 0.15564188 0.84986126 4294901502
-0.084965922 0.15809035 0.85539269 4289111197
-0.08321593 0.15775 0.85337037 4289506468
-0.08147344 0.15740962 0.85134804 4290098606
-0.079715557 0.15689752 0.84832227 4290361523
-0.077989936 0.15655711 0.84630018 4290887867
-0.076310091 0.15656014 0.84628516 4291151039
-0.07461299 0.15639144 0.84526664 4291414211
-0.072904244 0.15605101 0.84324467 4291677383
-0.071202993 0.15571056 0.84122276 4292072141
-0.069509245 0.15537012 0.83920091 4292335313
-0.067842528 0.15537311 0.83918601 4292598742
-0.066175804 0.15537612 0.83917111 4292796378
-0.064509086 0.15537913 0.83915621 4293191136
-0.062842362 0.15538214 0.83914131 4293520101
-0.061175644 0.15538514 0.83912647 4293783273
-0.059508536 0.1552164 0.83810818 4294112238
-0.057843689 0.15521939 0.83809334 4294375155
-0.056178842 0.1552224 0.83807844 4294506742
-0.054513998 0.1552254 0.8380636 4294704121
-0.052849151 0.15522841 0.8380487 4294835707
-0.051175319 0.15540318 0.83903712 4294901500
-0.049508598 0.15540619 0.83902222 4294901500
-0.047829144 0.15558097 0.84001058 4294835707
-0.046145938 0.15575577 0.84099889 4294901501
-0.044458985 0.15593056 0.84198719 4294901502
-0.042749923 0.15627716 0.84397858 4294901502
-0.041033361 0.15662378 0.84596997 4294901502
-0.039353516 0.15662681 0.84595495 4294901502
-0.037673671 0.15662983 0.84593999 4294901502
-0.035993826 0.15663287 0.84592497 4294901502
-0.03431398 0.1566359 0.84590995 4294901502
-0.032545313 0.15715437 0.84890425 4294901502
-0.03079688 0.15750103 0.85089535 4294901502
-0.084968708 0.15978706 0.85542381 4289111197
-0.083218709 0.15944295 0.85340142 4289374882
-0.081451446 0.15892524 0.85037541 4289967020
-0.079718322 0.15858111 0.84835315 4290361523
-0.078013711 0.15841055 0.84733456 4290822074
-0.076331988 0.15841357 0.84731954 4291085246
-0.074615739 0.15806942 0.8452974 4291414211
-0.072906986 0.15772523 0.84327537 4291611590
-0.07119222 0.15720743 0.8402499 4292006348
-0.06951198 0.15703683 0.83923149 4292269777
-0.067835495 0.15686621 0.83821309 4292598998
-0.066178538 0.15704283 0.83920169 4292796378
-0.064517833 0.15721947 0.84019023 4293059550
-0.062849239 0.15722248 0.84017533 4293454566
-0.061178379 0.15705186 0.83915704 4293717737
-0.059511263 0.15688123 0.83813876 4293980909
-0.057847902 0.15671059 0.83712047 4294309876
-0.056184929 0.15671359 0.83710563 4294507255
-0.054521959 0.1567166 0.83709079 4294704377
-0.052851882 0.15689324 0.83807921 4294901500
-0.051178053 0.15706989 0.8390677 4294901500
-0.049511332 0.1570729 0.8390528 4294901500
-0.047831882 0.15724955 0.84004116 4294901500
-0.04614868 0.15742622 0.84102952 4294901501
-0.044461727 0.15760291 0.84201783 4294901502
-0.042771026 0.15777959 0.84300613 4294901502
-0.041056346 0.15812995 0.84499758 4294901502
-0.039356269 0.15830664 0.84598577 4294901502
-0.037676428 0.15830967 0.84597081 4294901502
-0.035996582 0.15831271 0.84595579 4294901502
-0.034289006 0.15848942 0.84694391 4294901502
-0.032518473 0.15901351 0.84993827 4294901502
-0.030768171 0.15936393 0.85192943 4294901502
-0.028876951 0.16040914 0.85793287 4294901502
-0.085000008 0.16165923 0.8564586 4289110940
-0.08322148 0.16113591 0.85343248 4289505956
-0.08145421 0.16061257 0.85040641 4289900972
-0.079721078 0.16026469 0.84838408 4290229937
-0.078016467 0.16009225 0.84736538 4290822074
-0.076334745 0.16009529 0.84735036 4291085246
-0.074618489 0.15974738 0.84532821 4291282625
-0.072909735 0.15939943 0.84330606 4291743176
-0.071208477 0.15905149 0.84128404 4292072141
-0.069526359 0.15887903 0.84026557 4292269776
-0.067857765 0.15888204 0.84025067 4292598998
-0.06618917 0.15888505 0.84023577 4292862171
-0.064526595 0.15906355 0.84122431 4293125343
-0.062856123 0.15906656 0.84120941 4293454308
-0.061183382 0.15889408 0.84019107 4293717737
-0.059514388 0.15872157 0.83917272 4293980909
-0.05784915 0.15854907 0.83815438 4294244081
-0.056184303 0.15855208 0.83813953 4294507254
-0.054519456 0.15855508 0.83812463 4294638585
-0.052854612 0.15855809 0.83810979 4294835964
-0.051171809 0.15891212 0.8401016 4294901500
-0.049503211 0.15891513 0.8400867 4294967036
-0.047821891 0.15909368 0.84107512 4294901500
-0.046136815 0.15927222 0.84206349 4294901502
-0.044464469 0.15927525 0.84204853 4294901502
-0.042773772 0.15945379 0.84303683 4294901502
-0.041079324 0.15963235 0.84402514 4294901502
-0.039359026 0.15998648 0.84601659 4294901502
-0.037655205 0.16016506 0.84700483 4294901502
-0.035973486 0.1601681 0.84698981 4294901502
-0.034208585 0.1606978 0.84998429 4294901502
-0.032432437 0.16122752 0.85297871 4294901502
-0.030676514 0.16158171 0.85496986 4294835966
-0.02881304 0.16246261 0.85997033 4294901758
-0.085002787 0.16335781 0.85648978 4288979354
-0.083250903 0.1630062 0.85446721 4289505956
-0.081456974 0.16229992 0.85043734 4289834922
-0.079723842 0.16194828 0.84841496 4290295730
-0.078019224 0.16177396 0.84739625 4290756281
-0.076337509 0.161777 0.84738123 4291151039
-0.074638516 0.16160268 0.84636259 4291414211
-0.072927877 0.16125101 0.84434038 4291743176
-0.071238257 0.16107666 0.84332186 4292072141
-0.069552392 0.16090234 0.84230334 4292269777
-0.067870274 0.16072798 0.84128481 4292598999
-0.066199802 0.16073099 0.84126991 4292862171
-0.06452933 0.16073401 0.84125501 4293125343
-0.062863007 0.16091439 0.84224355 4293454308
-0.061188392 0.16074003 0.84122515 4293783018
-0.059517521 0.16056566 0.84020674 4294177777
-0.057848927 0.16056867 0.84019184 4294309363
-0.056183681 0.1603943 0.8391735 4294572535
-0.05451696 0.16039731 0.83915859 4294769914
-0.052850239 0.16040032 0.83914369 4294901500
-0.051174544 0.16058071 0.84013224 4294901500
-0.049495097 0.16076113 0.84112066 4294901500
-0.047811903 0.16094154 0.84210908 4294901501
-0.046139557 0.16094457 0.84209412 4294901502
-0.044467211 0.16094758 0.84207922 4294901502
-0.042776518 0.16112801 0.84306759 4294901502
-0.041061848 0.16148587 0.84505916 4294901502
-0.039361779 0.16166632 0.8460474 4294901502
-0.037610013 0.16220161 0.84904218 4294901502
-0.035898697 0.1623821 0.8500303 4294901502
-0.034128182 0.16291744 0.8530249 4294901502
-0.032316819 0.16363022 0.85702252 4294901502
-0.030584875 0.16381073 0.85801053 4294901502
-0.028715793 0.16470101 0.86301112 4294901502
-0.085005574 0.16505639 0.85652095 4289110684
-0.083227038 0.16452183 0.85349458 4289439906
-0.081459746 0.16398725 0.85046828 4289966508
-0.079726599 0.16363186 0.84844583 4290295730
-0.078021981 0.16345568 0.84742713 4290690488
-0.07632111 0.16327949 0.84640843 4291085246
-0.074623995 0.1631033 0.84538978 4291414211
-0.072930627 0.16292709 0.84437114 4291677383
-0.071241006 0.16275088 0.84335256 4291940555
-0.069555134 0.16257466 0.84233397 4292138191
-0.067873009 0.16239844 0.84131545 4292533206
-0.066202544 0.16240145 0.84130055 4292862171
-0.064532071 0.16240448 0.84128565 4293059550
-0.062861599 0.16240749 0.84127069 4293388515
-0.06119113 0.1624105 0.84125578 4293717481
-0.059520259 0.16223425 0.84023738 4294046191
-0.057851661 0.16223726 0.84022248 4294309363
-0.056186415 0.16206101 0.83920407 4294638328
-0.054524917 0.16188475 0.83818573 4294769914
-0.052852973 0.16206703 0.83917427 4294901500
-0.051177282 0.1622493 0.84016281 4294901500
-0.049497839 0.16243158 0.8411513 4294901500
-0.047814645 0.16261388 0.84213978 4294901501
-0.046142299 0.16261689 0.84212482 4294901502
-0.044469956 0.16261992 0.84210986 4294901502
-0.042779263 0.16280222 0.84309828 4294901502
-0.041064601 0.16316383 0.84508991 4294901502
-0.039364535 0.16334616 0.84607828 4294901502
-0.037612777 0.16388708 0.84907305 4294901502
-0.035901461 0.16406943 0.8500613 4294901502
-0.034103237 0.16478969 0.85405922 4294901502
-0.032319605 0.16533068 0.85705376 4294901502
-0.030556198 0.16569237 0.85904497 4294901502
-0.0287186 0.16641271 0.86304253 4294967295
-0.026830783 0.1673124 0.86804312 4294966783
-0.08500836 0.16675498 0.85655212 4287466117
-0.083256461 0.16639587 0.85452938 4289110942
-0.081487291 0.16585566 0.85150301 4289900715
-0.079752266 0.16549653 0.84948045 4290164144
-0.078024738 0.1651374 0.84745795 4290690488
-0.076343022 0.16514042 0.84744292 4291085246
-0.074644022 0.16496235 0.84642422 4291282625
-0.072948776 0.16478428 0.84540558 4291546310
-0.071243748 0.16442509 0.84338325 4291875275
-0.069569528 0.16442811 0.84336829 4292204241
-0.067885533 0.16425002 0.84234971 4292467413
-0.066205278 0.16407192 0.84133118 4292796378
-0.064534813 0.16407493 0.84131628 4293125343
-0.062864341 0.16407795 0.84130132 4293388515
-0.061193869 0.16408096 0.84128642 4293717225
-0.059522994 0.16390283 0.84026796 4293980398
-0.057854399 0.16390584 0.84025306 4294243570
-0.05618915 0.16372773 0.83923465 4294506742
-0.054522429 0.16373073 0.83921975 4294769914
-0.052848611 0.16391487 0.84020835 4294901500
-0.051171046 0.16409904 0.84119689 4294901500
-0.049500577 0.16410205 0.84118193 4294901500
-0.047804669 0.16446738 0.84317386 4294901501
-0.046130449 0.16447039 0.8431589 4294901502
-0.044439759 0.16465457 0.84414732 4294901502
-0.042763665 0.16465759 0.84413236 4294901502
-0.041047134 0.16502295 0.84612405 4294901502
-0.039323103 0.16538833 0.84811574 4294901502
-0.037591573 0.16575372 0.85010731 4294901502
-0.035878386 0.16593793 0.85109556 4294901502
-0.034078296 0.1666657 0.85509354 4294901502
-0.032292802 0.16721232 0.8580882 4294769916
-0.030558992 0.16739659 0.85907626 4293322470
-0.028688064 0.16830562 0.86407715 4294177780
-0.085011147 0.16845356 0.8565833 4284374103
-0.083285898 0.16827366 0.8555643 4288321940
-0.081514843 0.16772784 0.85253781 4289703593
-0.079755031 0.167182 0.84951138 4290230193
-0.078048527 0.16700207 0.84849256 4290559158
-0.076345779 0.16682214 0.8474738 4290953917
-0.074646778 0.16664219 0.84645504 4291348931
-0.072936118 0.16627926 0.84443265 4291612104
-0.071246497 0.16609931 0.84341401 4291875276
-0.069560617 0.16591933 0.84239537 4292138448
-0.067878492 0.16573937 0.84137678 4292401620
-0.06620802 0.16574238 0.84136182 4292862171
-0.064537548 0.16574539 0.84134692 4293125343
-0.062867083 0.1657484 0.84133202 4293454308
-0.06119661 0.16575143 0.84131706 4293717482
-0.059525322 0.16538842 0.83929503 4294046191
-0.057858601 0.16539143 0.83928013 4294309363
-0.056195222 0.16521142 0.83826172 4294572535
-0.054530378 0.16521442 0.83824682 4294769914
-0.052858442 0.16540045 0.83923542 4294901500
-0.051173788 0.1657695 0.84122753 4294901500
-0.049503315 0.16577251 0.84121257 4294901500
-0.047820132 0.16595855 0.84220111 4294901501
-0.046133194 0.16614461 0.8431896 4294901502
-0.044442508 0.16633067 0.84417808 4294901502
-0.042748075 0.16651672 0.8451665 4294901502
-0.041029673 0.16688584 0.84715825 4294901502
-0.039303772 0.16725495 0.84915 4294901502
-0.037594341 0.16744106 0.85013825 4294901502
-0.035881158 0.16762714 0.85112655 4294901502
-0.034081079 0.16836242 0.85512471 4294901502
-0.032295592 0.16891466 0.85811943 4294901502
-0.030530322 0.16928385 0.86011076 4294309365
-0.028657535 0.17020227 0.86511189 4294835709
-0.085042469 0.17033698 0.85761827 4287006080
-0.083315343 0.17015521 0.85659927 4288848541
-0.081517614 0.16941893 0.85256881 4289572520
-0.079780705 0.1690523 0.85054612 4290098865
-0.078051291 0.16868566 0.84852344 4290493622
-0.076348536 0.16850384 0.84750462 4290888380
-0.07463225 0.16813718 0.84548211 4291151553
-0.072938867 0.16795535 0.84446341 4291546311
-0.071235709 0.16758867 0.84244096 4291875276
-0.069551699 0.16740681 0.84142232 4292138448
-0.067881227 0.16740982 0.84140742 4292401620
-0.066210762 0.16741285 0.84139246 4292862171
-0.064540289 0.16741586 0.84137756 4293125343
-0.062869817 0.16741887 0.84136266 4293520101
-0.061197061 0.167237 0.84034407 4293783018
-0.059527647 0.16687025 0.83832198 4294046191
-0.057864264 0.16668837 0.83730352 4294309363
-0.056201294 0.16669138 0.83728868 4294506998
-0.054538321 0.16669437 0.83727384 4294704121
-0.052868262 0.16688226 0.8382625 4294901500
-0.051185489 0.16725506 0.84025466 4294901500
-0.049516894 0.16725807 0.84023976 4294901500
-0.047835585 0.16744599 0.84122831 4294901500
-0.046150528 0.16763391 0.84221685 4294901502
-0.04446172 0.16782184 0.84320539 4294901502
-0.042769164 0.16800977 0.84419388 4294901502
-0.04103243 0.16856755 0.84718913 4294901502
-0.039306536 0.16894042 0.84918088 4294901502
-0.037597109 0.16912839 0.85016924 4294901502
-0.035883926 0.16931635 0.85115749 4294769916
-0.034111574 0.16987419 0.8541525 4294704123
-0.0322688 0.17080192 0.85915399 4294901502
-0.03050166 0.17117488 0.86114538 4294901502
-0.028627012 0.17210266 0.86614662 4294901502
-0.085102327 0.17241085 0.85965723 4288453781
-0.083371446 0.1722272 0.85863817 4288848797
-0.081545174 0.17129672 0.85360366 4289243556
-0.079783469 0.17073964 0.85057706 4289901486
-0.078054048 0.17036924 0.84855431 4290427830
-0.076370455 0.17037228 0.84853929 4290888382
-0.074652284 0.17000186 0.84651667 4291217347
-0.072957031 0.16981816 0.84549791 4291546311
-0.071265526 0.16963446 0.84447914 4291875276
-0.069577768 0.16945074 0.84346044 4292138448
-0.067893758 0.16926703 0.8424418 4292467413
-0.066213496 0.16908331 0.84142315 4292796378
-0.064549066 0.16927306 0.84241188 4293059550
-0.062876724 0.16927607 0.84239697 4293388772
-0.061202087 0.16909234 0.84137833 4293651945
-0.059530791 0.16872185 0.83935618 4293980911
-0.05786553 0.16853809 0.83833766 4294178290
-0.056200683 0.1685411 0.83832276 4294441462
-0.05453584 0.1685441 0.83830792 4294704634
-0.052863907 0.16873388 0.83929658 4294901756
-0.051179267 0.16911042 0.84128881 4294901500
-0.049508795 0.16911344 0.8412739 4294901500
-0.047838327 0.16911645 0.84125894 4294901500
-0.04615327 0.16930625 0.84224755 4294901502
-0.044448007 0.16968283 0.84423959 4294901502
-0.042753577 0.16987264 0.84522808 4294901502
-0.041014981 0.17043605 0.84822345 4294901502
-0.039287217 0.17081268 0.85021526 4294901502
-0.037599873 0.17081572 0.85020018 4294901502
-0.035860863 0.17119238 0.85219193 4294704123
-0.034086645 0.17175584 0.85518694 4294769916
-0.032271594 0.17250614 0.85918528 4294901502
-0.030473003 0.17306966 0.86218005 4294901502
-0.028596496 0.17400682 0.86718148 4294901502
-0.085105121 0.17411505 0.85968852 4288585112
-0.08337424 0.17392954 0.8586694 4287861389
-0.081572741 0.17317827 0.85463864 4286545529
-0.079786234 0.17242697 0.85060799 4289309093
-0.078035772 0.17186423 0.84758139 4290362037
-0.076354049 0.17186727 0.84756637 4290822588
-0.074655041 0.1716817 0.84654748 4291085760
-0.072959781 0.17149612 0.84552866 4291480518
-0.071268275 0.17131054 0.8445099 4291875276
-0.06958051 0.17112496 0.84349114 4292204241
-0.0678965 0.17093937 0.84247243 4292467413
-0.066216238 0.17075376 0.84145379 4292730585
-0.064545766 0.17075679 0.84143883 4293059550
-0.062875301 0.1707598 0.84142393 4293454308
-0.061202534 0.17057417 0.84040534 4293717738
-0.059533104 0.17019993 0.83838308 4293980911
-0.057868261 0.17020293 0.83836818 4294244083
-0.056203414 0.17020594 0.83835334 4294441462
-0.054538567 0.17020895 0.83833843 4294573048
-0.052866641 0.17040059 0.83932716 4294835964
-0.051190961 0.17059223 0.84031588 4294901500
-0.049522366 0.17059524 0.84030098 4294901500
-0.047841065 0.17078692 0.84128958 4294836221
-0.046156012 0.17097858 0.84227824 4294901502
-0.044434298 0.17154758 0.84527385 4294901502
-0.042737998 0.17173927 0.84626234 4294967295
-0.041017741 0.17211963 0.84825432 4294967295
-0.039289985 0.17250001 0.85024619 4294835709
-0.037578687 0.17269173 0.85123456 4294835709
-0.035863638 0.17288345 0.85222292 4294901502
-0.034089427 0.17345254 0.85521805 4294901502
-0.032244809 0.17439903 0.8602199 4294836222
-0.030444352 0.17496817 0.86321485 4294901758
-0.028565986 0.1759147 0.8682164 4294901502
-0.085136458 0.17600971 0.86072373 4288650648
-0.083377033 0.17563188 0.85870063 4288321940
-0.08157552 0.1748731 0.85466969 4286150772
-0.079789005 0.1741143 0.85063899 4286677116
-0.078059569 0.17373641 0.84861612 4289769900
-0.076375976 0.17373945 0.84860104 4290822588
-0.074657798 0.17336154 0.8465783 4291085760
-0.072962537 0.17317408 0.84555948 4291414725
-0.071271017 0.17298663 0.84454066 4291743690
-0.06958326 0.17279917 0.84352189 4292204241
-0.067899242 0.1726117 0.84250313 4292533206
-0.0662269 0.17261472 0.84248817 4292927964
-0.064548507 0.17242724 0.84146947 4293191136
-0.062878035 0.17243026 0.84145457 4293520101
-0.061205272 0.17224276 0.84043592 4293717481
-0.059536256 0.17205527 0.83941734 4293980909
-0.057869535 0.17205828 0.83940244 4294244083
-0.056202814 0.17206128 0.83938754 4294507255
-0.054530889 0.1722548 0.84037632 4294704634
-0.052862294 0.17225781 0.84036142 4294836220
-0.051193699 0.17226082 0.84034646 4294836220
-0.049514275 0.17245436 0.84133518 4294836220
-0.047843803 0.17245737 0.84132028 4294836222
-0.046144176 0.17284144 0.84331244 4294835709
-0.044420596 0.17341608 0.84630817 4294769916
-0.042722423 0.17360964 0.84729671 4293848814
-0.041000299 0.17399377 0.8492887 4293651435
-0.039270673 0.17437789 0.85128069 4294835709
-0.037557501 0.17457148 0.85226905 4294901502
-0.035840582 0.1747651 0.85325742 4294901502
-0.034064509 0.17533982 0.85625267 4294901502
-0.032218028 0.17629567 0.86125463 4294901502
-0.030415706 0.17687044 0.86424965 4294901502
-0.028535482 0.17782636 0.86925137 4294901502
-0.085167803 0.17790812 0.86175901 4288518804
-0.083406493 0.17752653 0.85973579 4288387733
-0.081603095 0.17676027 0.85570478 4286479736
-0.079837613 0.17618631 0.85267776 4285164133
-0.078083381 0.17561235 0.84965092 4289309349
-0.076397911 0.17561539 0.84963584 4290756795
-0.074677847 0.17523372 0.84761304 4291085760
-0.072965287 0.17485204 0.84559023 4291480518
-0.071273766 0.17466272 0.84457141 4291809483
-0.069586001 0.17447339 0.84355259 4292138448
-0.067911781 0.1744764 0.84353763 4292533206
-0.066237561 0.17447942 0.84352267 4292927964
-0.064557292 0.17429008 0.84250391 4293191136
-0.062880777 0.17410071 0.8414852 4293388773
-0.06120801 0.17391135 0.84046656 4293717738
-0.059539411 0.17391436 0.84045166 4294046704
-0.057870816 0.17391737 0.8404367 4294309876
-0.056202222 0.17392038 0.8404218 4294441462
-0.054528426 0.17411578 0.84141058 4294704634
-0.052857954 0.1741188 0.84139568 4294836220
-0.051187485 0.17412181 0.84138077 4294836220
-0.049517013 0.17412482 0.84136581 4294836220
-0.047833841 0.17432024 0.84235454 4294901502
-0.046146922 0.17451566 0.8433432 4294901502
-0.044423353 0.17509592 0.84633899 4293454056
-0.042725183 0.17529136 0.84732753 4291019715
-0.041003063 0.17567922 0.84931964 4291677645
-0.039273445 0.1760671 0.85131162 4294243572
-0.037536327 0.17645499 0.85330361 4294835709
-0.035817534 0.17665048 0.85429198 4294901502
-0.034039594 0.17723083 0.85728729 4294901502
-0.032191254 0.17819606 0.86228949 4294901502
-0.030418517 0.17858402 0.86428112 4294901502
-0.028504983 0.17974176 0.87028641 4294967038
-0.085142054 0.17942187 0.86078632 4288584854
-0.083382614 0.17903654 0.8587631 4288650905
-0.081605874 0.17845698 0.8557359 4287269252
-0.079817459 0.17768319 0.85170484 4287796110
-0.078086145 0.1772978 0.84968185 4290033072
-0.076381497 0.17710662 0.84866285 4290822588
-0.074663304 0.1767212 0.84663993 4291217346
-0.072952613 0.17633578 0.84461713 4291414725
-0.071249418 0.17595035 0.84259439 4291809483
-0.069577076 0.17595336 0.84257942 4292072655
-0.067904726 0.17595638 0.84256446 4292533206
-0.066232383 0.17595939 0.84254956 4292862172
-0.064553984 0.17576817 0.8415308 4293191395
-0.062883519 0.17577118 0.84151584 4293389031
-0.061210744 0.17557994 0.84049714 4293652203
-0.059541721 0.17538869 0.83947849 4294046704
-0.057873555 0.17558596 0.84046733 4294309876
-0.056204956 0.17558897 0.84045243 4294507255
-0.054536361 0.17559198 0.84043753 4294704634
-0.052867766 0.17559499 0.84042263 4294836220
-0.051199172 0.175598 0.84040773 4294836220
-0.049530577 0.17560101 0.84039277 4294836220
-0.047849283 0.1757983 0.84138155 4294836221
-0.046149667 0.17618987 0.84337389 4294901502
-0.044442553 0.17658146 0.84536618 4294309365
-0.042746261 0.17677878 0.84635478 4290493371
-0.041026022 0.1771704 0.84834695 4291611852
-0.039298285 0.17756201 0.85033906 4294835709
-0.037563048 0.17795366 0.8523311 4294901502
-0.035846137 0.17815101 0.85331953 4294901502
-0.034070078 0.17873698 0.85631496 4294901502
-0.032194059 0.17990589 0.86232084 4294901502
-0.030389881 0.18049192 0.86531603 4294901246
-0.028507812 0.18146659 0.87031806 4294967039
-0.085173406 0.18132403 0.86182171 4288584598
-0.083412081 0.18093495 0.85979837 4288782748
-0.081633464 0.18034978 0.85677105 4289046176
-0.079866089 0.17976457 0.85374385 4289835692
-0.078109957 0.17917936 0.85071677 4290362037
-0.076384261 0.1787902 0.84869373 4290822588
-0.074666061 0.17840104 0.84667075 4291151553
-0.072955362 0.17801186 0.84464788 4291546311
-0.071265712 0.17781879 0.843629 4291743690
-0.069591492 0.1778218 0.84361404 4292072655
-0.067917272 0.17782483 0.84359908 4292533206
-0.066243052 0.17782785 0.84358412 4292796378
-0.064562783 0.17763475 0.8425653 4293257187
-0.062890433 0.17763777 0.84255034 4293454567
-0.061215784 0.17744465 0.84153157 4293717739
-0.059544884 0.17725153 0.84051287 4294112497
-0.057876289 0.17725454 0.84049797 4294309876
-0.056207694 0.17725755 0.84048301 4294573048
-0.054539099 0.17726056 0.84046811 4294770427
-0.052870505 0.17726357 0.84045321 4294836220
-0.051201906 0.17726658 0.84043831 4294836220
-0.049533311 0.17726959 0.84042341 4294836220
-0.047852021 0.17746876 0.84141219 4294901501
-0.046152413 0.17786409 0.84340459 4294901502
-0.044445306 0.17825943 0.845397 4294901502
-0.042730696 0.17865478 0.84738928 4293585642
-0.041008592 0.17905015 0.84938145 4294111986
-0.039301053 0.17924936 0.85037005 4294901502
-0.037565824 0.17964475 0.85236216 4294835709
-0.035848912 0.17984398 0.85335058 4294901758
-0.034045171 0.18063174 0.85734969 4294901502
-0.032196864 0.18161573 0.86235219 4294966782
-0.030392693 0.18220738 0.8653475 4294901246
-0.028510639 0.18319142 0.87034971 4294901245
-0.085204758 0.18322995 0.8628571 4287598217
-0.083441556 0.18283713 0.8608337 4288454039
-0.081636243 0.18204837 0.85680223 4289309348
-0.079868861 0.18145753 0.85377491 4289901485
-0.078112729 0.18086669 0.8507477 4290296243
-0.076387025 0.18047379 0.8487246 4290691001
-0.074668817 0.18008088 0.84670156 4291085759
-0.072958112 0.17968796 0.84467864 4291546310
-0.071282014 0.17969097 0.84466362 4291809483
-0.069605917 0.179694 0.84464866 4292138448
-0.067920022 0.17949905 0.84362978 4292401620
-0.066245802 0.17950206 0.84361482 4292796378
-0.064571582 0.17950508 0.84359986 4293191393
-0.062897362 0.1795081 0.8435849 4293520360
-0.061220832 0.17931312 0.84256607 4293783532
-0.059548054 0.17911813 0.84154731 4294046704
-0.057877585 0.17912114 0.84153235 4294244083
-0.056207113 0.17912416 0.84151745 4294507255
-0.054541834 0.17892915 0.84049875 4294770427
-0.052873239 0.17893216 0.84048384 4294836220
-0.051195703 0.17913319 0.84147269 4294836220
-0.049525231 0.1791362 0.84145778 4294836221
-0.047854763 0.17913923 0.84144282 4294835965
-0.046155158 0.17953829 0.84343535 4294901502
-0.044431616 0.18013541 0.84643143 4294901502
-0.042733457 0.18033649 0.8474201 4294835709
-0.041031547 0.18053757 0.84840876 4294967295
-0.039303821 0.18093669 0.85040098 4294835709
-0.037568595 0.18133584 0.85239315 4294967295
-0.035851687 0.18153693 0.85338163 4294901502
-0.034020271 0.18253025 0.85838449 4294901502
-0.032170102 0.18352363 0.86338711 4294966782
-0.030395508 0.18392283 0.86537898 4294966782
-0.028513469 0.18491626 0.87038136 4294900732
-0.085207567 0.18493979 0.86288846 4284638044
-0.083444357 0.18454321 0.860865 4286348663
-0.081639029 0.18374695 0.85683334 4289375141
-0.07987164 0.1831505 0.85380596 4289835692
-0.078115493 0.18255402 0.85077864 4290362036
-0.076389782 0.18215738 0.84875548 4290888380
-0.074671574 0.18176071 0.84673238 4291151553
-0.072976291 0.1815639 0.84571338 4291480518
-0.071284764 0.18136707 0.84469438 4292006862
-0.069608666 0.18137009 0.84467942 4292204241
-0.067932576 0.1813731 0.84466445 4292467413
-0.066248544 0.18117628 0.84364551 4292796379
-0.064574324 0.18117929 0.84363055 4293125602
-0.062900104 0.18118231 0.84361559 4293586153
-0.061223574 0.18098545 0.84259677 4293783532
-0.059550792 0.18078859 0.84157795 4293980911
-0.057880323 0.1807916 0.84156305 4294244083
-0.056209851 0.18079461 0.84154809 4294507255
-0.054544572 0.18059774 0.84052932 4294770427
-0.052875977 0.18060075 0.84051442 4294836221
-0.051198442 0.18080366 0.84150332 4294836222
-0.049527973 0.18080667 0.84148842 4294836222
-0.047844812 0.18100959 0.84247726 4294901502
-0.046143342 0.18141241 0.84446979 4294901502
-0.044434372 0.18181525 0.84646225 4294901502
-0.042736214 0.18201821 0.84745097 4294901502
-0.041034307 0.18222114 0.84843963 4294901502
-0.039306588 0.18262403 0.85043192 4294967295
-0.037547432 0.18322684 0.85342783 4294901502
-0.03582865 0.18342982 0.85441637 4294966782
-0.033995375 0.18443252 0.85941935 4294966782
-0.032143347 0.18543527 0.86442214 4294901502
-0.030366885 0.18583822 0.86641401 4294966781
-0.028482987 0.18684103 0.87141657 4294966526
-0.083473839 0.186451 0.86190045 4285822319
-0.081666626 0.18564723 0.85786867 4289375141
-0.079897352 0.18504517 0.85484111 4289835692
-0.07813932 0.18444307 0.85181367 4290427829
-0.076411732 0.18404268 0.84979045 4290756794
-0.074691638 0.18364227 0.84776729 4291151553
-0.072994478 0.18344358 0.84674823 4291349189
-0.071301073 0.18324488 0.84572917 4291809483
-0.069623105 0.18324791 0.84571415 4292072655
-0.067935325 0.1830492 0.84469521 4292533207
-0.066259228 0.18305223 0.84468025 4292664795
-0.064577073 0.18285351 0.84366131 4293125602
-0.062902853 0.18285652 0.84364635 4293389287
-0.061228629 0.18285954 0.84363139 4293717996
-0.05955397 0.1826608 0.8426125 4294046704
-0.057883061 0.18246207 0.84159368 4294244083
-0.056212593 0.18246508 0.84157872 4294441462
-0.054542121 0.18246809 0.84156382 4294704634
-0.052871652 0.18247111 0.84154892 4294836221
-0.051192246 0.18267588 0.84253782 4294836222
-0.0495199 0.18267891 0.84252286 4294835967
-0.047834869 0.18288369 0.8435117 4294901502
-0.046131529 0.18329029 0.84550428 4294901502
-0.044420689 0.18369688 0.84749681 4294967038
-0.04273897 0.18369991 0.84748179 4294966782
-0.041016884 0.18410653 0.84947425 4294901246
-0.039287295 0.18451315 0.8514666 4294966782
-0.037526276 0.1851216 0.85446256 4294966782
-0.035779811 0.18552825 0.85645479 4294836222
-0.033970486 0.18633853 0.86045426 4294901502
-0.032116599 0.18735065 0.86545724 4294966526
-0.030338267 0.18775737 0.86744916 4294965757
-0.0284192 0.18897136 0.87345546 4294964987
-0.083449952 0.18795538 0.86092758 4285954161
-0.081644602 0.18714412 0.85689569 4289112482
-0.07987719 0.18653642 0.85386807 4289704363
-0.078121029 0.18592869 0.85084057 4290362036
-0.076395303 0.18552455 0.84881729 4290822588
-0.07467708 0.18512039 0.84679401 4291151553
-0.072981797 0.18491982 0.84577495 4291480518
-0.071290262 0.18471923 0.84475589 4291809483
-0.069614165 0.18472226 0.84474093 4292138448
-0.067928255 0.18452168 0.84372193 4292467413
-0.066254035 0.18452469 0.84370697 4292730586
-0.064579815 0.18452771 0.843692 4293125602
-0.062905595 0.18453074 0.84367704 4293388774
-0.061229058 0.18433012 0.8426581 4293717739
-0.059556272 0.18412952 0.84163922 4294046704
-0.057887234 0.18392889 0.8406204 4294309876
-0.056215331 0.18413554 0.84160942 4294573048
-0.054544862 0.18413855 0.84159446 4294704635
-0.05287439 0.18414156 0.84157956 4294836222
-0.051194988 0.18434823 0.84256846 4294836222
-0.049522642 0.18435125 0.84255356 4294836222
-0.047837615 0.18455791 0.8435424 4294901502
-0.046134282 0.18496825 0.8455351 4294901502
-0.044439878 0.18517493 0.84652388 4294966782
-0.042741731 0.18538162 0.84751266 4294966526
-0.041039828 0.18558832 0.84850138 4294966526
-0.039290067 0.18620236 0.85149759 4294900732
-0.037505124 0.18702011 0.85549742 4294833913
-0.035782598 0.18722683 0.85648596 4294966015
-0.033945601 0.18824829 0.86148924 4294965502
-0.032089856 0.1892698 0.86649239 4294700789
-0.030309655 0.18968026 0.86848438 4293909989
-0.083452746 0.18966146 0.86095887 4287467657
-0.081622571 0.18863724 0.85592264 4288980896
-0.079857022 0.18802391 0.85289496 4289836205
-0.07810273 0.18741056 0.84986734 4290296501
-0.076378874 0.18700266 0.847844 4290691259
-0.074662514 0.18659475 0.84582072 4291019967
-0.072969101 0.18639231 0.8448016 4291414982
-0.071293011 0.18639532 0.84478664 4291809740
-0.069605224 0.18619287 0.84376758 4292138448
-0.067931004 0.18619588 0.84375262 4292401620
-0.066256784 0.18619891 0.84373766 4292665050
-0.064582564 0.18620193 0.8437227 4293191395
-0.062908344 0.18620494 0.84370774 4293520360
-0.061231803 0.18600246 0.8426888 4293783532
-0.05955901 0.18579997 0.84166986 4294112497
-0.057889972 0.18559748 0.84065098 4294309876
-0.056221377 0.18560049 0.84063607 4294573048
-0.0545476 0.18580902 0.84162509 4294770428
-0.052870076 0.18601754 0.84261411 4294836222
-0.0511888 0.18622608 0.84360307 4294836222
-0.049514581 0.18622911 0.84358811 4294835966
-0.047827683 0.18643765 0.84457701 4294901502
-0.046137035 0.18664621 0.84556586 4294901502
-0.044442635 0.18685476 0.8465547 4294966782
-0.042744488 0.18706334 0.84754354 4294966783
-0.041022412 0.18747744 0.84953606 4294966526
-0.039270781 0.18809712 0.85253233 4293912555
-0.037483975 0.18892236 0.85653228 4293911786
-0.035759579 0.18913098 0.85752088 4294370284
-0.033920724 0.19016181 0.86252433 4294236901
-0.032063123 0.19119269 0.8675276 4293512408
-0.030218195 0.19201803 0.87152702 4294238184
-0.083482243 0.19157487 0.86199445 4288783517
-0.08162535 0.19033395 0.85595375 4289178275
-0.079859801 0.189715 0.85292596 4289770412
-0.078105494 0.18909602 0.84989828 4290230708
-0.076381631 0.18868437 0.84787488 4290625466
-0.074665271 0.18827271 0.84585148 4291020224
-0.072987296 0.18827574 0.84583652 4291414982
-0.071295761 0.18807141 0.8448174 4291678154
-0.069619663 0.18807444 0.84480244 4292072912
-0.067943566 0.18807745 0.84478742 4292401878
-0.066267475 0.18808047 0.84477246 4292730844
-0.064591378 0.1880835 0.8447575 4293257188
-0.06291528 0.18808652 0.84474254 4293651946
-0.061236866 0.18788217 0.84372354 4293849325
-0.059561752 0.18747044 0.84170055 4294046704
-0.057892706 0.18726607 0.84068161 4294309876
-0.056220811 0.18747647 0.84167069 4294638841
-0.054545164 0.18768686 0.84265971 4294770428
-0.052865766 0.18789728 0.84364873 4294836222
-0.051173694 0.18831508 0.84564161 4294836222
-0.049506526 0.18811071 0.84462273 4294901502
-0.047830429 0.18811373 0.84460777 4294901502
-0.046139784 0.18832417 0.84559667 4294901502
-0.044445388 0.1885346 0.84658551 4294966782
-0.042747244 0.18874504 0.84757435 4294966526
-0.041005 0.18937032 0.8505708 4294966526
-0.039273556 0.18978821 0.85256338 4294505206
-0.037486762 0.19062094 0.85656345 4293648614
-0.03576237 0.19083144 0.85755205 4293514205
-0.033923529 0.19187164 0.86255568 4294634226
-0.032065939 0.19291189 0.86755913 4294437103
-0.083458349 0.19307363 0.86102146 4288651931
-0.081628136 0.19203065 0.85598493 4289178275
-0.079839624 0.19119687 0.85195273 4289836205
-0.078087181 0.19057226 0.84892493 4290296500
-0.076384388 0.19036609 0.8479057 4290757052
-0.07466802 0.18995067 0.8458823 4291086017
-0.0729746 0.18974447 0.84486312 4291349189
-0.07129851 0.1897475 0.84484816 4291743947
-0.069622412 0.18975052 0.84483314 4292007119
-0.067946315 0.18975355 0.84481817 4292533465
-0.066270225 0.18975657 0.84480321 4292730844
-0.064588055 0.18955034 0.84378415 4293191395
-0.062913835 0.18955337 0.84376919 4293586153
-0.061239611 0.18955639 0.84375423 4293783532
-0.05956449 0.1891409 0.84173119 4294112497
-0.057895444 0.18893465 0.84071219 4294375669
-0.056223549 0.18914692 0.84170133 4294573048
-0.054547906 0.1893592 0.84269041 4294770428
-0.052868512 0.18957148 0.84367943 4294836222
-0.051185369 0.18978378 0.84466845 4294836222
-0.049520072 0.18957752 0.84364951 4294901502
-0.047845852 0.18958054 0.84363455 4294901502
-0.046157084 0.18979284 0.84462351 4294901502
-0.044464566 0.19000515 0.84561247 4294901502
-0.042750001 0.19042675 0.84760523 4294966525
-0.041027937 0.19084837 0.84959793 4294966782
-0.039298374 0.19126999 0.85159057 4294768634
-0.037537392 0.19190094 0.85458696 4294635766
-0.035790954 0.1923226 0.85657942 4294833146
-0.033954006 0.19337218 0.86158323 4294965502
-0.032068759 0.1946311 0.86759067 4294966527
-0.083487846 0.19499078 0.86205709 4288849310
-0.081630915 0.19372736 0.85601604 4289309861
-0.079865344 0.19309716 0.852988 4289836205
-0.0781321 0.19267803 0.85096437 4290362550
-0.076425552 0.19246998 0.84994507 4290757052
-0.074705429 0.19205083 0.84792155 4291086017
-0.072992802 0.19163166 0.84589809 4291349189
-0.071314834 0.19163468 0.84588307 4291678155
-0.069636866 0.19163771 0.84586811 4291941328
-0.067968719 0.19185185 0.84685725 4292336086
-0.066280924 0.19164377 0.84583813 4292665051
-0.064596877 0.19143568 0.84481901 4293191395
-0.062920779 0.1914387 0.84480399 4293586153
-0.061242357 0.1912306 0.84378493 4293783532
-0.059567682 0.19102249 0.84276593 4294112497
-0.05789534 0.19102551 0.84275097 4294375669
-0.056222994 0.19102852 0.84273601 4294573048
-0.054545477 0.19124268 0.84372509 4294770427
-0.052864213 0.19145684 0.84471416 4294836221
-0.051188119 0.19145986 0.8446992 4294836222
-0.049512021 0.19146289 0.84468424 4294901502
-0.047848597 0.19125476 0.8436653 4294901502
-0.04614529 0.19168009 0.84565824 4294901502
-0.04443448 0.19210543 0.84765106 4294901502
-0.042734466 0.19231963 0.84863997 4294966782
-0.041010533 0.192745 0.85063273 4294966782
-0.039279103 0.19317037 0.85262543 4294966525
-0.037516251 0.19380695 0.85562193 4294966526
-0.035767946 0.19423234 0.85761446 4294901502
-0.033929136 0.19529131 0.86261839 4294966783
-0.032042038 0.19656149 0.868626 4294966783
-0.083490647 0.19669874 0.86208844 4288849054
-0.081633702 0.19542408 0.85604715 4289244068
-0.079868115 0.19478825 0.85301906 4289901998
-0.078155942 0.19457833 0.85199964 4290296756
-0.076447517 0.19436841 0.85098028 4290691259
-0.074725516 0.19394551 0.84895664 4291086017
-0.073011011 0.1935226 0.84693313 4291480775
-0.071331166 0.19352563 0.84691811 4291743948
-0.069651321 0.19352865 0.84690309 4292007121
-0.06798131 0.19374467 0.84789228 4292467672
-0.06629163 0.19353472 0.8468731 4292796637
-0.064605705 0.19332476 0.84585392 4293191395
-0.062923528 0.19311479 0.84483474 4293586153
-0.061245102 0.19290482 0.84381562 4293915118
-0.059570424 0.19269483 0.84279656 4294244083
-0.057898082 0.19269784 0.84278166 4294507256
-0.056225736 0.19270086 0.8427667 4294638843
-0.054548223 0.19291689 0.84375584 4294770429
-0.052874003 0.19291991 0.84374088 4294836222
-0.051199783 0.19292293 0.84372592 4294836222
-0.049525563 0.19292594 0.84371096 4294901502
-0.047851343 0.19292897 0.843696 4294901502
-0.046148039 0.19335805 0.845689 4294901502
-0.044437237 0.19378714 0.84768194 4294901502
-0.042718936 0.19421625 0.84967482 4294901502
-0.0410133 0.19443233 0.85066366 4294901502
-0.039259836 0.1950745 0.85366035 4294966782
-0.037495118 0.19571669 0.85665691 4294966782
-0.035744946 0.19614586 0.85864955 4294901502
-0.033904277 0.1972142 0.86365366 4294966782
-0.081636481 0.19712079 0.85607827 4289243811
-0.07989385 0.19669417 0.85405445 4289770412
-0.078158714 0.19626755 0.85203063 4290230963
-0.076450288 0.19605576 0.85101122 4290757052
-0.074728273 0.19562909 0.84898752 4291086017
-0.073013768 0.19520244 0.84696394 4291283397
-0.071333922 0.19520546 0.84694892 4291809742
-0.069654077 0.19520849 0.8469339 4292138707
-0.067974232 0.19521153 0.84691888 4292401879
-0.066294387 0.19521455 0.84690392 4292796380
-0.064608455 0.19500272 0.84588468 4293125602
-0.062922068 0.194576 0.84386134 4293520103
-0.061245512 0.19436415 0.84284222 4293783533
-0.059572708 0.19415228 0.8418231 4294178292
-0.057902239 0.19415531 0.8418082 4294507257
-0.056228478 0.19437319 0.8427974 4294638844
-0.054550968 0.1945911 0.84378654 4294835967
-0.052876748 0.19459412 0.84377158 4294836222
-0.051211443 0.19438225 0.84275258 4294836222
-0.049539097 0.19438526 0.84273762 4294836222
-0.047854088 0.19460317 0.84372669 4294901502
-0.046150792 0.19503601 0.84571975 4294901502
-0.044439994 0.19546886 0.84771281 4294901502
-0.042739987 0.1956868 0.84870178 4294901502
-0.040995903 0.19633459 0.85169864 4294901502
-0.039262611 0.19676746 0.8536914 4294901502
-0.037473992 0.1976302 0.857692 4294901502
-0.03572195 0.19806312 0.85968465 4294901502
-0.033879422 0.19914083 0.86468893 4294901502
-0.081688941 0.19925091 0.85811824 4289309091
-0.079919584 0.19860384 0.85508984 4289573033
-0.078182571 0.19817346 0.85306597 4290230707
-0.076472268 0.1979598 0.85204655 4290625979
-0.074748375 0.19752941 0.85002273 4291086017
-0.073031984 0.197099 0.84799904 4291480518
-0.071336672 0.1968853 0.84697974 4291809740
-0.069656834 0.19688833 0.84696472 4292072914
-0.067986824 0.19710809 0.84795398 4292467672
-0.066305101 0.19711113 0.84793895 4292730587
-0.064611211 0.19668068 0.8459155 4293256675
-0.062929027 0.19646695 0.84489626 4293520873
-0.061248258 0.19603649 0.84287286 4293849839
-0.059575912 0.1960395 0.84285796 4294243828
-0.057902154 0.19625928 0.84384716 4294572793
-0.056227934 0.1962623 0.84383219 4294638843
-0.054553714 0.19626531 0.84381723 4294770686
-0.052879494 0.19626833 0.84380227 4294770686
-0.051205274 0.19627136 0.84378731 4294836222
-0.049531054 0.19627437 0.84377235 4294901502
-0.047844175 0.19649416 0.84476149 4294901502
-0.046139009 0.19693075 0.84675461 4294836222
-0.044426344 0.19736734 0.84874767 4294901502
-0.042724464 0.19758716 0.84973663 4294901502
-0.040978514 0.19824058 0.85273361 4294967295
-0.039221317 0.19889401 0.85573047 4294901502
-0.03742896 0.19976425 0.85973114 4294836222
-0.035673175 0.20020093 0.86172384 4294836222
-0.081691727 0.20095137 0.85814941 4289702309
-0.079922363 0.20029868 0.85512096 4290686894
-0.078185342 0.19986455 0.85309702 4291017657
-0.076475039 0.19964901 0.85207748 4291019197
-0.074733801 0.19899628 0.84904933 4291217346
-0.073019274 0.1985621 0.84702557 4291480519
-0.071325839 0.19834653 0.84600621 4292006605
-0.069647871 0.19834957 0.84599119 4292138705
-0.067979738 0.19857119 0.84698051 4292271063
-0.066299893 0.19857423 0.84696555 4292730844
-0.064613961 0.19835864 0.84594625 4293256675
-0.062931776 0.19814305 0.84492701 4293783019
-0.061251 0.19770882 0.84290355 4293980911
-0.059578653 0.19771184 0.84288859 4294113267
-0.057904899 0.19793348 0.84387785 4294310646
-0.056230679 0.19793651 0.84386295 4294573562
-0.054556459 0.19793953 0.84384799 4294704893
-0.052882239 0.19794254 0.84383303 4294836222
-0.051199112 0.19816421 0.84482217 4294836222
-0.049523018 0.19816723 0.84480721 4294901502
-0.047834266 0.1983889 0.84579635 4294901502
-0.046141762 0.19861059 0.84678543 4294901502
-0.044429105 0.19905093 0.84877855 4294901502
-0.042727228 0.19927263 0.84976757 4294967295
-0.040981289 0.19993167 0.85276461 4294901502
-0.039224099 0.20059071 0.85576159 4294966782
-0.037431754 0.20146847 0.85976243 4294967295
-0.035675976 0.20190889 0.86175519 4294835709
-0.081719354 0.20287229 0.8591851 4285935166
-0.079948112 0.20221397 0.85615653 4286794325
-0.078188114 0.20155564 0.85312802 4288904835
-0.076477803 0.20133822 0.85210848 4290947242
-0.074736558 0.20067985 0.8490802 4291804349
-0.073037498 0.20046242 0.84806079 4292463305
-0.071342185 0.20024498 0.84704137 4292530639
-0.06966234 0.200248 0.84702635 4292399567
-0.067982495 0.20025103 0.84701133 4292663253
-0.06630265 0.20025407 0.84699637 4292992988
-0.06461671 0.2000366 0.84597701 4293322211
-0.062934525 0.19981913 0.84495777 4293782505
-0.061256085 0.19960165 0.84393853 4294045934
-0.059581865 0.19960468 0.84392357 4294309106
-0.057907645 0.1996077 0.84390861 4294572279
-0.056233425 0.19961071 0.84389365 4294835708
-0.054554049 0.19983424 0.84488291 4294967038
-0.052877955 0.19983727 0.84486789 4294966782
-0.051192954 0.20006081 0.84585708 4294966526
-0.049514987 0.20006384 0.84584212 4294966782
-0.04782436 0.20028739 0.84683126 4294836222
-0.046129987 0.20051095 0.8478204 4294901502
-0.044415459 0.20095505 0.84981358 4294901503
-0.042711712 0.20117863 0.8508026 4294901503
-0.040963907 0.20184329 0.8537997 4294901503
-0.039226882 0.20228742 0.8557927 4294966783
-0.037434552 0.20317267 0.85979366 4294966270
-0.035704557 0.20339629 0.8607825 4294965501
-0.081746995 0.20479695 0.86022079 4287046461
-0.079950891 0.20391068 0.85618764 4287111226
-0.078190893 0.20324673 0.85315907 4286914360
-0.076461352 0.20280509 0.85113502 4286916928
-0.074756667 0.20258579 0.85011554 4287118157
-0.073055729 0.20236647 0.84909606 4288701810
-0.071358539 0.20214716 0.84807658 4290087057
-0.069676816 0.2021502 0.84806156 4291339948
-0.067995094 0.20215322 0.84804654 4292459969
-0.066305406 0.20193389 0.84702718 4293382612
-0.064619467 0.20171456 0.84600782 4294108132
-0.062941492 0.20171759 0.8459928 4294372075
-0.061261177 0.20149824 0.8449735 4294569455
-0.059585083 0.20150127 0.84495854 4294898934
-0.057908989 0.20150429 0.84494358 4294965755
-0.056232892 0.20150732 0.84492862 4294965754
-0.054551646 0.20173272 0.84591788 4294966268
-0.052866649 0.20195813 0.84690708 4294966270
-0.051186807 0.20196117 0.84689212 4294966270
-0.049496185 0.2021866 0.84788126 4294966526
-0.047801815 0.20241202 0.8488704 4294966527
-0.046103694 0.20263746 0.84985954 4294966271
-0.044401824 0.20286292 0.85084862 4294966271
-0.042696204 0.20308837 0.85183764 4294966271
-0.040966686 0.20353624 0.85383075 4294965758
-0.039229665 0.20398414 0.85582381 4294964989
-0.037461247 0.20465446 0.85882086 4294695141
-0.035707355 0.20510238 0.8608138 4292515500
-0.081749789 0.20650116 0.86025208 4285865780
-0.0799307 0.20538318 0.85521424 4286718520
-0.078172565 0.2047136 0.85218555 4287505983
-0.076444902 0.2042682 0.85016149 4288030530
-0.074742079 0.20404702 0.84914196 4288226883
-0.073058486 0.20405006 0.84912694 4288292162
-0.071361296 0.20382887 0.84810746 4288490312
-0.069679573 0.20383191 0.84809244 4288360010
-0.067997858 0.20383494 0.84807742 4288559957
-0.066308163 0.20361373 0.847058 4288563038
-0.064622216 0.20339252 0.84603858 4289355891
-0.062944248 0.20339555 0.84602362 4290279559
-0.061263926 0.20317432 0.84500426 4291071129
-0.059587356 0.2029531 0.84398496 4291598757
-0.057911739 0.20318037 0.84497434 4292455607
-0.056235641 0.2031834 0.84495938 4293377222
-0.054559547 0.20318642 0.84494436 4293640908
-0.052876428 0.20341371 0.84593368 4294167509
-0.05118956 0.203641 0.84692293 4294496989
-0.049498942 0.2038683 0.84791213 4294497760
-0.047804575 0.20409562 0.84890133 4294234075
-0.046120983 0.20409866 0.84888625 4293904340
-0.044404592 0.20455025 0.85087955 4293442249
-0.042698976 0.20477758 0.85186863 4292914109
-0.040989608 0.20500492 0.85285771 4292647857
-0.039254468 0.20545655 0.85485083 4291918231
-0.037487935 0.2061325 0.85784799 4292172675
-0.035735924 0.20658416 0.85984099 4292500356
-0.081777431 0.20843145 0.86128789 4282653215
-0.080002412 0.20775627 0.85825902 4284094500
-0.078217536 0.20685498 0.85422564 4285471790
-0.076486118 0.20640585 0.85220146 4286981179
-0.074779548 0.20618281 0.85118186 4287703362
-0.073076725 0.20595975 0.85016233 4288490055
-0.071391255 0.20596279 0.85014725 4288685894
-0.069705784 0.20596583 0.85013217 4289080138
-0.068010464 0.20574276 0.84911269 4289606482
-0.066318892 0.20551968 0.84809321 4289737042
-0.064631075 0.20529661 0.84707379 4290262361
-0.06295123 0.20529963 0.84705877 4290196312
-0.06126903 0.20507653 0.84603941 4290459484
-0.059590582 0.20485343 0.84502006 4290525278
-0.057913091 0.2050826 0.84600943 4290657891
-0.05623512 0.20508562 0.84599441 4291053163
-0.054557148 0.20508865 0.84597945 4291053163
-0.052872159 0.20531781 0.84696871 4291514742
-0.051174525 0.20577313 0.84896225 4291843963
-0.049490929 0.20577617 0.84894723 4291909757
-0.047794692 0.20600535 0.84993643 4291975294
-0.046109222 0.20600839 0.84992135 4292172417
-0.044407357 0.20623758 0.85091054 4292304260
-0.042701744 0.20646679 0.85189962 4292698761
-0.040952094 0.20714833 0.85489708 4292896140
-0.03921321 0.20760372 0.85689026 4292961676
-0.037442934 0.2082853 0.85988748 4292698504
-0.035687178 0.20874071 0.86188048 4292238466
-0.080051161 0.20991266 0.86029941 4281211930
-0.078262523 0.20900387 0.85626584 4281998109
-0.07652735 0.20855099 0.85424155 4283177762
-0.074799664 0.20809811 0.85221738 4284357416
-0.073094971 0.20787318 0.85119772 4285537840
-0.071394019 0.20764825 0.85017818 4286784057
-0.069708548 0.20765129 0.8501631 4287702335
-0.068023086 0.20765433 0.85014802 4288753740
-0.066321649 0.20720139 0.84812409 4289345363
-0.064633824 0.20697643 0.84710461 4290264925
-0.062953979 0.20697947 0.84708959 4290526558
-0.061274137 0.20698249 0.84707457 4290855009
-0.059593812 0.20675753 0.84605521 4291446634
-0.057914447 0.20698856 0.84704459 4291577964
-0.056234602 0.20699158 0.84702957 4291775087
-0.05455476 0.20699462 0.84701455 4292235382
-0.052867897 0.20722567 0.84800386 4292500095
-0.051168393 0.20768473 0.84999746 4292565889
-0.049472157 0.2079158 0.85098672 4292894854
-0.047772169 0.20814686 0.85197592 4292895368
-0.046082951 0.20814991 0.85196084 4292895881
-0.044393733 0.20815295 0.8519457 4292896138
-0.042686246 0.20838404 0.85293484 4293093517
-0.04093473 0.2090712 0.85593235 4292698759
-0.039149947 0.20998643 0.85993397 4291253879
-0.037350167 0.21090169 0.86393541 4289348192
-0.08007694 0.21184669 0.86133528 4280623389
-0.078307524 0.21116026 0.85830623 4280885790
-0.076568589 0.21070364 0.85628182 4281082142
-0.074819796 0.21001716 0.85325295 4281475359
-0.073113218 0.20979036 0.85223329 4281802269
-0.071424 0.20979342 0.85221815 4282326303
-0.069734782 0.20979646 0.85220307 4282914333
-0.068035707 0.20956965 0.85118347 4283897891
-0.066332392 0.20911297 0.84915942 4284882220
-0.06464269 0.20888613 0.84813988 4285604145
-0.062960967 0.20888917 0.84812486 4286325302
-0.061279252 0.20889221 0.84810984 4287047485
-0.059597049 0.20866536 0.84709042 4288098890
-0.057917204 0.2086684 0.8470754 4288361549
-0.056237359 0.20867142 0.84706038 4288689488
-0.054552373 0.20890434 0.84804976 4289544285
-0.052856624 0.20936716 0.85004342 4289874022
-0.051162265 0.20960009 0.85103273 4289874022
-0.049464159 0.20983303 0.85202199 4289873765
