# .PCD v0.7 - Point Cloud Data file format
VERSION 0.7
FIELDS x y z rgba
SIZE 4 4 4 4
TYPE F F F U
COUNT 1 1 1 1
WIDTH 1047
HEIGHT 1
VIEWPOINT 0 0 0 1 0 0 0
POINTS 1047
DATA ascii
-0.023377312 0.16043429 0.86788607 4294901502
-0.021451937 0.16129655 0.8728857 4294901500
-0.081798159 0.16135547 0.86442602 4288256402
-0.079993002 0.16066419 0.86039633 4286414456
-0.078202851 0.15997289 0.85636675 4286019698
-0.076485112 0.15980236 0.85534805 4289572520
-0.074736603 0.15928462 0.85232222 4290099120
-0.073014721 0.15894046 0.85030007 4290362549
-0.07130035 0.15859629 0.84827799 4290691514
-0.069605112 0.15842572 0.84725946 4291086016
-0.067913629 0.15825513 0.84624094 4291480775
-0.066225894 0.15808454 0.84522247 4291875533
-0.064535886 0.15774032 0.84320056 4292204498
-0.062857524 0.15756972 0.84218222 4292533463
-0.061185181 0.15757275 0.84216726 4292796637
-0.059512835 0.15757576 0.8421523 4293125602
-0.057840489 0.15757877 0.8421374 4293520360
-0.056168143 0.15758179 0.84212244 4293849325
-0.0544958 0.1575848 0.84210747 4294112497
-0.052816346 0.15776147 0.8430959 4294441462
-0.051142126 0.15776448 0.84308094 4294638841
-0.049467906 0.1577675 0.84306598 4294836220
-0.047806419 0.15759687 0.84204775 4294836220
-0.046134073 0.15759988 0.84203279 4294836221
-0.044445246 0.15777656 0.84302109 4294901502
-0.042752672 0.15795325 0.84400934 4294901502
-0.041036114 0.15830362 0.84600079 4294901502
-0.039334163 0.15848032 0.84698898 4294901502
-0.037652444 0.15848334 0.84697396 4294901502
-0.035944872 0.15866005 0.84796208 4294901502
-0.034178086 0.15918414 0.8509565 4294901502
-0.032400053 0.15970825 0.8539508 4294901502
-0.030673731 0.15988499 0.85493875 4294901502
-0.028876951 0.16040914 0.85793287 4294901502
-0.02703369 0.16110699 0.86192995 4294901502
-0.025175434 0.16180487 0.86592692 4294901502
-0.023380134 0.16215537 0.86791766 4294901502
-0.021413922 0.16320071 0.87392044 4294901502
-0.081800967 0.16306905 0.86445743 4287664264
-0.079995804 0.16237028 0.86042762 4286480248
-0.078205638 0.16167147 0.85639793 4285624940
-0.076487899 0.16149907 0.85537916 4289638313
-0.074739374 0.16097569 0.85235327 4290098864
-0.073017493 0.1606278 0.85033101 4290428086
-0.071303107 0.16027987 0.84830886 4290823100
-0.069619514 0.16028291 0.84829384 4290033328
-0.067926154 0.16011046 0.84727526 4290625466
-0.066228643 0.1597625 0.84525323 4291678154
-0.064544655 0.15959004 0.84423476 4292204498
-0.062864415 0.15941755 0.84321636 4292533463
-0.061187923 0.15924507 0.84219795 4292796635
-0.059515182 0.15907259 0.84117955 4293125600
-0.05784471 0.1590756 0.84116465 4293520359
-0.056170885 0.15925412 0.84215313 4293849325
-0.054498542 0.15925714 0.84213817 4294178290
-0.052819092 0.15943567 0.8431266 4294375669
-0.051144872 0.1594387 0.84311163 4294638841
-0.049470652 0.15944172 0.84309667 4294836220
-0.047796432 0.15944473 0.84308171 4294836221
-0.046107609 0.1596233 0.84407008 4294901502
-0.044415038 0.15980186 0.84505838 4294901502
-0.042737067 0.15980488 0.84504336 4294901502
-0.041018642 0.16015899 0.84703487 4294901502
-0.039314821 0.16033757 0.84802306 4294901502
-0.037631225 0.16034061 0.84800804 4294901502
-0.035921779 0.1605192 0.84899616 4294901502
-0.034180857 0.16087335 0.85098749 4294901502
-0.032373231 0.16157864 0.85498506 4294901502
-0.030645037 0.16175726 0.85597301 4294901502
-0.028846391 0.16228703 0.85896724 4294901502
-0.027036496 0.16281682 0.86196131 4294901502
-0.02517825 0.1635222 0.86595845 4294901502
-0.02334398 0.16405202 0.86895233 4294901502
-0.021375911 0.16510862 0.8749553 4294901500
-0.081803776 0.16478263 0.8644889 4287335301
-0.079998598 0.16407636 0.86045891 4286743421
-0.078229442 0.16354741 0.85743272 4285427561
-0.076490678 0.16319577 0.85541028 4289309348
-0.074742146 0.16266678 0.85238427 4290164913
-0.073020257 0.16231513 0.850362 4290494135
-0.071319394 0.16214082 0.8493433 4289901998
-0.069633923 0.16214386 0.84932828 4287796623
-0.067938678 0.16196953 0.84830964 4289638571
-0.066247188 0.1617952 0.84729111 4290559673
-0.064553425 0.16144349 0.84526902 4292007119
-0.062871307 0.16126914 0.84425056 4292533463
-0.061192937 0.16109478 0.8432321 4292796636
-0.059518319 0.16092043 0.84221369 4293257188
-0.057845972 0.16092345 0.84219873 4292730844
-0.05617363 0.16092646 0.84218377 4293651689
-0.054501284 0.16092949 0.84216887 4294178034
-0.052821837 0.16110989 0.84315729 4294441462
-0.051138643 0.1612903 0.84414572 4294836220
-0.049462546 0.16129333 0.84413075 4294836220
-0.047773726 0.16147377 0.84511912 4294836222
-0.046095759 0.16147679 0.84510416 4294901502
-0.044384837 0.16183464 0.84709579 4294901502
-0.042703118 0.16183767 0.84708077 4294901502
-0.041001175 0.16201812 0.84806901 4294901502
-0.039317582 0.16202116 0.84805393 4294901502
-0.037633985 0.1620242 0.84803891 4294901502
-0.035924543 0.16220465 0.8490271 4294901502
-0.034183629 0.16256256 0.85101849 4294901502
-0.032376014 0.16327535 0.85501617 4294901502
-0.030647824 0.16345586 0.85600418 4294901502
-0.028815838 0.16416869 0.86000162 4294901502
-0.027004076 0.1647041 0.86299586 4294901502
-0.025143968 0.16541699 0.86699307 4294901502
-0.023307834 0.16595244 0.86998701 4294835709
-0.021337908 0.16702028 0.87599021 4294901500
-0.081806585 0.16649622 0.86452031 4288387733
-0.080001399 0.16578244 0.8604902 4288124817
-0.078211203 0.16506864 0.85646027 4286480249
-0.076474309 0.16471326 0.85443777 4288322453
-0.074727647 0.16417864 0.85141164 4289967534
-0.073007628 0.16382323 0.84938931 4290494135
-0.071308628 0.16364704 0.84837061 4290165170
-0.069625035 0.16365008 0.84835559 4288388503
-0.067931667 0.16347387 0.84733695 4289046434
-0.066242047 0.16329767 0.84631836 4289046435
-0.064556174 0.16312145 0.84529984 4291414984
-0.062874056 0.16294523 0.84428132 4292138707
-0.061195683 0.162769 0.84326279 4291283398
-0.05952106 0.16259277 0.84224433 4288388506
-0.05785019 0.16241652 0.84122592 4289309351
-0.056176372 0.1625988 0.84221447 4293585640
-0.054504026 0.16260181 0.8421995 4294177777
-0.05283168 0.16260484 0.8421846 4294506742
-0.051141392 0.1629664 0.84417647 4294836220
-0.049465295 0.16296941 0.84416151 4294836219
-0.047789201 0.16297244 0.84414655 4294836220
-0.046098508 0.16315475 0.84513491 4294901500
-0.044404067 0.16333707 0.84612328 4294901501
-0.042705879 0.16351938 0.84711158 4294901502
-0.041003935 0.16370171 0.84809989 4294901502
-0.039320342 0.16370474 0.84808487 4294901502
-0.037636749 0.16370778 0.84806979 4294901502
-0.035953153 0.16371082 0.84805477 4294901502
-0.034186397 0.16425177 0.85104948 4294901502
-0.032408394 0.16479275 0.85404408 4294901502
-0.030650608 0.16515444 0.85603535 4294901502
-0.028818635 0.16587476 0.86003298 4294901502
-0.027006883 0.16641581 0.86302722 4294901502
-0.025183883 0.16695686 0.86602145 4294901502
-0.023349632 0.16749795 0.86901551 4294901502
-0.0213816 0.16857703 0.87501889 4294769914
-0.081809394 0.16820979 0.86455178 4288519319
-0.080004193 0.16748853 0.8605215 4288716954
-0.07821399 0.16676722 0.85649139 4288980383
-0.076496243 0.1665892 0.85547251 4289440933
-0.074730411 0.16586785 0.85144264 4289967277
-0.073010392 0.1655087 0.84942019 4290427829
-0.071324922 0.16551174 0.84940517 4290691258
-0.069627799 0.16533366 0.84838647 4290822844
-0.067944206 0.1653367 0.84837145 4291151810
-0.066244803 0.16497751 0.84634918 4291086018
-0.064558931 0.16479942 0.8453306 4291743949
-0.062880956 0.16480245 0.84531564 4292007121
-0.061202988 0.16480547 0.84530061 4288849057
-0.059524614 0.16462736 0.84428209 4286348923
-0.057849988 0.16444926 0.84326363 4289375401
-0.056175768 0.16445227 0.84324867 4293191139
-0.054501548 0.16445529 0.8432337 4294243571
-0.052827328 0.16445832 0.84321874 4294440950
-0.051144138 0.16464248 0.84420723 4294901500
-0.0494572 0.16482666 0.84519565 4294901499
-0.047779232 0.16482969 0.84518069 4294901500
-0.046086669 0.16501386 0.84616911 4294901500
-0.044390354 0.16519806 0.84715748 4294901502
-0.042708635 0.1652011 0.84714246 4294901502
-0.041006695 0.16538529 0.84813076 4294901502
-0.039323103 0.16538833 0.84811574 4294901502
-0.037615541 0.16557254 0.84910399 4294901502
-0.035930071 0.16557558 0.84908897 4294901502
-0.034189168 0.16594099 0.85108042 4294901502
-0.032381579 0.16666877 0.8550784 4294901502
-0.030621927 0.16703421 0.85706973 4294901502
-0.028788092 0.16776204 0.86106747 4294901502
-0.026974473 0.16830871 0.86406183 4294901502
-0.025112515 0.1690366 0.86805934 4294901502
-0.023274524 0.16958331 0.87105352 4294835709
-0.02130276 0.17067365 0.87705708 4294638071
-0.081812203 0.16992338 0.86458319 4288453782
-0.079984084 0.16901165 0.85954905 4288848797
-0.078216776 0.16846581 0.85652256 4289177762
-0.076479875 0.16810293 0.85449994 4289638313
-0.074733183 0.16755706 0.85147363 4290033071
-0.073013157 0.16719416 0.84945112 4290427830
-0.071314156 0.16701421 0.84843242 4290691002
-0.069630556 0.16701725 0.84841734 4291020224
-0.067946963 0.16702029 0.84840232 4291283396
-0.066255465 0.16684033 0.84738362 4291678154
-0.064567715 0.16666037 0.84636497 4292138706
-0.06288787 0.16666341 0.84635001 4291678156
-0.061208021 0.16666643 0.84633499 4288191127
-0.05952777 0.16648646 0.84531641 4288191127
-0.057851266 0.16630648 0.84429789 4292665051
-0.056175172 0.16630949 0.84428287 4293454312
-0.054499079 0.16631252 0.8442679 4294111986
-0.052822985 0.16631554 0.84425294 4294111986
-0.051146887 0.16631857 0.84423798 4294177779
-0.049470793 0.16632159 0.84422302 4294769916
-0.0477947 0.16632462 0.844208 4294901501
-0.046104014 0.16651067 0.84519649 4294901502
-0.044409577 0.16669673 0.84618491 4294901502
-0.042711392 0.1668828 0.84717327 4294901502
-0.04100946 0.16706888 0.84816164 4294901502
-0.039325863 0.16707191 0.84814662 4294901502
-0.037594341 0.16744106 0.85013825 4294901502
-0.035881158 0.16762714 0.85112655 4294901502
-0.034136508 0.1679963 0.85311806 4294901502
-0.032354772 0.16854854 0.85611284 4294901502
-0.030593252 0.16891773 0.85810423 4294901502
-0.028790891 0.16947 0.86109883 4294901502
-0.026942069 0.17020535 0.86509657 4294901502
-0.025041159 0.17112382 0.8700974 4294901502
-0.023238393 0.17149308 0.87208837 4294966782
-0.081815019 0.17163697 0.86461461 4288387733
-0.079986878 0.17071585 0.85958034 4288651161
-0.07819853 0.16997956 0.85554993 4289111969
-0.076482654 0.16979776 0.85453099 4289704106
-0.074735954 0.16924627 0.85150462 4290098864
-0.073015913 0.16887961 0.84948206 4290427830
-0.071316913 0.1686978 0.8484633 4290756795
-0.06963332 0.16870084 0.84844822 4291020224
-0.067939937 0.16851901 0.84742951 4291349189
-0.066250309 0.16833718 0.84641081 4291809741
-0.064570464 0.16834021 0.84639579 4292138707
-0.062890619 0.16834323 0.84638083 4292270293
-0.06120849 0.16816139 0.84536219 4291612363
-0.059530523 0.16816442 0.84534717 4290691261
-0.057854015 0.16798256 0.84432864 4292928224
-0.056177922 0.16798559 0.84431362 4293783534
-0.054496612 0.16817349 0.84530222 4294046706
-0.05282573 0.16799162 0.8442837 4293519849
-0.0511586 0.16780975 0.84326518 4289111718
-0.04948438 0.16781278 0.84325022 4293980400
-0.04781016 0.16781579 0.84323531 4294901502
-0.046121351 0.16800372 0.8442238 4294901502
-0.044428796 0.16819166 0.84521228 4294901502
-0.042732488 0.1683796 0.8462007 4294901502
-0.04103243 0.16856755 0.84718913 4294901502
-0.039328624 0.1687555 0.84817749 4294901502
-0.037597109 0.16912839 0.85016924 4294901502
-0.035858091 0.16950129 0.85216087 4294901502
-0.034083862 0.17005913 0.85515583 4294901502
-0.032298386 0.170617 0.85815066 4294901502
-0.030564582 0.17080501 0.85913879 4294901502
-0.028760357 0.17136291 0.86213344 4294901502
-0.026909672 0.17210576 0.86613131 4294901502
-0.025043989 0.17284866 0.87012899 4294901502
-0.023241227 0.17322166 0.87212008 4294901502
-0.081817828 0.17335054 0.86464608 4288387474
-0.079989679 0.17242007 0.85961157 4288519575
-0.078222349 0.17186299 0.85658491 4288914590
-0.076504596 0.17167932 0.85556591 4289572520
-0.074756011 0.17112221 0.85253942 4290033071
-0.073034093 0.17075181 0.85051674 4290362037
-0.071333215 0.17056812 0.84949791 4290691002
-0.069647744 0.17057116 0.84948283 4290954431
-0.067942701 0.17020072 0.84746039 4291349189
-0.066260979 0.17020376 0.84744537 4291678155
-0.064579256 0.17020679 0.84743029 4291941328
-0.062897541 0.17020983 0.84741527 4292401879
-0.061213531 0.17002611 0.84639663 4292665051
-0.059533689 0.17002913 0.8463816 4292401879
-0.057855304 0.1698454 0.84536296 4293125603
-0.056177333 0.16984843 0.845348 4293849327
-0.054494154 0.17003822 0.8463366 4294046706
-0.052821394 0.16985449 0.84531802 4290296505
-0.051152386 0.16967075 0.8442995 4291414730
-0.049476292 0.16967377 0.84428447 4294506744
-0.047812905 0.16949001 0.84326601 4294901502
-0.046124101 0.16967981 0.84425455 4294901502
-0.044415087 0.1700564 0.84624654 4294901502
-0.042716909 0.17024623 0.84723502 4294901502
-0.041014981 0.17043605 0.84822345 4294901502
-0.0393093 0.17062588 0.84921181 4294901502
-0.037575915 0.17100252 0.85120362 4294901502
-0.035860863 0.17119238 0.85219193 4294901502
-0.034086645 0.17175584 0.85518694 4294901502
-0.032301176 0.17231932 0.85818189 4294901502
-0.030535918 0.17269602 0.8601734 4294901502
-0.028729828 0.17325956 0.86316812 4294901502
-0.02687728 0.17400992 0.8671661 4294901502
-0.025009735 0.17476031 0.87116396 4294901502
-0.023166146 0.1753239 0.87415838 4294901502
-0.079992473 0.17412427 0.85964286 4288716441
-0.078225136 0.17356157 0.85661608 4289045920
-0.076507375 0.17337604 0.85559702 4289572520
-0.074776076 0.1730019 0.85357422 4290164657
-0.07305228 0.17262775 0.85155153 4290362037
-0.071335979 0.17225358 0.84952885 4290691002
-0.069650508 0.17225662 0.84951377 4291019967
-0.067945458 0.17188244 0.8474912 4291349189
-0.066255823 0.17169686 0.84647244 4291743948
-0.064575978 0.17169988 0.84645742 4292007121
-0.062896132 0.17170291 0.84644246 4292401879
-0.061216287 0.17170595 0.84642744 4292730845
-0.059536025 0.17152034 0.84540874 4293059809
-0.057858057 0.17152336 0.84539378 4293520360
-0.056180086 0.17152639 0.84537876 4293783532
-0.05449691 0.17171806 0.84636742 4293388774
-0.052824147 0.17153245 0.84534878 4290033076
-0.051155135 0.17134683 0.84433019 4294177779
-0.049489871 0.1711612 0.84331167 4294901502
-0.047815651 0.17116421 0.84329671 4294901502
-0.04612685 0.1713559 0.84428531 4294835709
-0.044434298 0.17154758 0.84527385 4294901502
-0.042737998 0.17173927 0.84626234 4294901502
-0.041037947 0.17193097 0.84725082 4294901502
-0.039312065 0.17231134 0.84924275 4294901502
-0.037578687 0.17269173 0.85123456 4294901502
-0.035863638 0.17288345 0.85222292 4294901502
-0.034089427 0.17345254 0.85521805 4294901502
-0.03230397 0.17402166 0.85821313 4294901502
-0.030538715 0.1744021 0.8602047 4294901502
-0.028699305 0.17515995 0.86420292 4294901502
-0.026844895 0.17591782 0.86820102 4294901502
-0.024975486 0.17667571 0.872199 4294901502
-0.023168989 0.17705624 0.87419015 4294901502
-0.080018185 0.17601894 0.86067802 4288913820
-0.078248963 0.17545062 0.85765111 4289111713
-0.076529324 0.17526321 0.85663205 4289638569
-0.074778855 0.17469485 0.85360527 4289967535
-0.073070467 0.17450742 0.85258633 4290362037
-0.071365826 0.17432 0.85156739 4290691002
-0.06966494 0.17413257 0.85054851 4291019967
-0.067958005 0.17375463 0.84852588 4291283396
-0.066258572 0.17337668 0.84650326 4291743947
-0.064578727 0.17337972 0.84648824 4292007120
-0.062898889 0.17338274 0.84647328 4292336086
-0.06121904 0.17338577 0.84645826 4292730844
-0.059539195 0.17338881 0.84644324 4293191395
-0.057859354 0.17339183 0.84642822 4293586153
-0.056179509 0.17339486 0.84641325 4293915118
-0.054504868 0.17320739 0.84539455 4293849325
-0.0528269 0.17321041 0.84537959 4293651947
-0.051157884 0.17302291 0.84436095 4294704636
-0.049481787 0.17302594 0.84434599 4294901758
-0.047805693 0.17302896 0.84433103 4294638330
-0.046115018 0.17322251 0.84531963 4293848814
-0.044420596 0.17341608 0.84630817 4294835709
-0.042740751 0.1734191 0.84629315 4294901502
-0.041020501 0.17380323 0.8482852 4294901502
-0.039292753 0.17418735 0.85027719 4294901502
-0.037581455 0.17438094 0.85126555 4294901502
-0.03586641 0.17457454 0.85225397 4294901502
-0.03409221 0.17514926 0.85524923 4294901502
-0.032306761 0.175724 0.85824436 4294901502
-0.030572966 0.17591763 0.85923254 4294901502
-0.028702116 0.17687353 0.86423433 4294901502
-0.026812516 0.17782947 0.86923599 4294901502
-0.024978321 0.17840429 0.87223071 4294835709
-0.023171829 0.17878856 0.87422192 4294901502
-0.021194533 0.17993516 0.88022649 4284242523
-0.080066822 0.17810971 0.86271721 4288716441
-0.078272797 0.17734341 0.85868621 4289111456
-0.076551281 0.17715414 0.85766709 4289572520
-0.074798927 0.17658016 0.85464025 4289967279
-0.073088661 0.17639087 0.85362124 4290493623
-0.071382143 0.17620157 0.85260224 4290691002
-0.069667704 0.1758199 0.85057944 4290888638
-0.067970566 0.17563058 0.84956056 4291217603
-0.066269249 0.17524889 0.84753788 4291612361
-0.064581484 0.17505956 0.84651911 4292007120
-0.062901638 0.17506258 0.84650409 4292401879
-0.061221797 0.17506561 0.84648907 4292796637
-0.059542377 0.17526102 0.84747779 4293257188
-0.057862107 0.17507167 0.84645903 4293586153
-0.056182262 0.1750747 0.84644407 4293849325
-0.054507621 0.17488535 0.84542537 4294112497
-0.052836727 0.17469597 0.84440666 4294309876
-0.051151682 0.1748914 0.84539539 4294770429
-0.04947371 0.17489442 0.84538037 4294309878
-0.04778304 0.17508985 0.84636903 4292599004
-0.046088621 0.17528529 0.84735763 4291611852
-0.044390451 0.17548074 0.84834617 4293059298
-0.042706858 0.17548376 0.84833115 4294704123
-0.041003063 0.17567922 0.84931964 4294901502
-0.039295521 0.17587468 0.85030812 4294901502
-0.037560277 0.17626257 0.85230011 4294901502
-0.035843357 0.17645805 0.85328847 4294901502
-0.034094993 0.17684597 0.85528034 4294901502
-0.032309551 0.17742632 0.85827559 4294901502
-0.030544313 0.17781428 0.86026728 4294901502
-0.028704925 0.17858711 0.8642658 4294901502
-0.02685054 0.17935997 0.86826414 4294901502
-0.024981156 0.18013288 0.87226242 4294966782
-0.02317467 0.18052089 0.87425375 4294967039
-0.021197392 0.18167874 0.88025844 4282531905
-0.080046706 0.17962532 0.86174458 4288913050
-0.078254536 0.17885153 0.85771346 4289045406
-0.076534897 0.17866038 0.85669434 4289440677
-0.074801706 0.178275 0.85467136 4289901485
-0.07307601 0.1778896 0.85264838 4290296244
-0.071371369 0.17769842 0.85162938 4290625209
-0.069670476 0.17750724 0.85061044 4290822588
-0.067973331 0.17731604 0.84959149 4291217603
-0.066272013 0.17693059 0.84756875 4291612361
-0.06457819 0.17654514 0.84554607 4292007120
-0.062900223 0.17654817 0.84553111 4292336086
-0.06122455 0.17674544 0.84651989 4292796637
-0.059544705 0.17674848 0.84650487 4293257188
-0.057866309 0.17655724 0.8454861 4293520360
-0.056188341 0.17656028 0.84547114 4293849325
-0.05451557 0.17636904 0.84445238 4294112497
-0.052839473 0.17637207 0.84443742 4294441462
-0.051163379 0.17637509 0.84442246 4294770428
-0.049487285 0.17637812 0.8444075 4294638843
-0.047785796 0.17676969 0.84639984 4293651948
-0.046091378 0.176967 0.84738845 4292599004
-0.044409659 0.17697003 0.84737343 4291546059
-0.04272794 0.17697306 0.84735841 4294177779
-0.041026022 0.1771704 0.84834695 4294901502
-0.039298285 0.17756201 0.85033906 4294901502
-0.037563048 0.17795366 0.8523311 4294901502
-0.035846137 0.17815101 0.85331953 4294901502
-0.03412547 0.17834838 0.85430795 4294901502
-0.032341916 0.17893435 0.85730332 4294901502
-0.030578556 0.17932604 0.85929507 4294901502
-0.028741056 0.18010639 0.86329377 4294901502
-0.026888557 0.18088675 0.86729228 4294966783
-0.025021061 0.18166713 0.87129068 4294966782
-0.023216456 0.1820589 0.87328207 4294440438
-0.021241071 0.18322799 0.87928706 4281281324
-0.080072433 0.18152937 0.86277992 4288782232
-0.078299433 0.18094417 0.85975266 4288980382
-0.076576039 0.18075116 0.85873348 4289309604
-0.074821785 0.18016593 0.85570639 4289901742
-0.073094212 0.17977679 0.85368335 4290295988
-0.071374141 0.17938763 0.85166037 4290559416
-0.06967324 0.17919457 0.85064137 4290954174
-0.067976095 0.1790015 0.84962243 4291283139
-0.06627477 0.17861231 0.84759963 4291481032
-0.064586997 0.17841922 0.84658074 4291810512
-0.062907152 0.17842226 0.84656572 4292205270
-0.061229609 0.17862141 0.8475545 4292599771
-0.05954789 0.17862444 0.84753948 4293125602
-0.057867616 0.17843135 0.84652066 4293520360
-0.056191094 0.17823824 0.8455019 4293915118
-0.054513123 0.17824127 0.84548694 4294178290
-0.052842222 0.17804815 0.84446818 4294441462
-0.051166128 0.17805117 0.84445322 4294836221
-0.049479213 0.17825034 0.84544194 4294835966
-0.047788549 0.17844953 0.84643066 4293520106
-0.046094134 0.17864871 0.84741932 4292401624
-0.044395972 0.17884791 0.84840792 4293914607
-0.042712379 0.17885093 0.8483929 4294835709
-0.041008592 0.17905015 0.84938145 4294901502
-0.039278984 0.17944552 0.85137361 4294901502
-0.037541881 0.17984092 0.85336572 4294901502
-0.035823092 0.18004015 0.85435414 4294901502
-0.034072865 0.18043557 0.85634613 4294901502
-0.032315135 0.180831 0.85833806 4294901502
-0.030549908 0.18122645 0.86032987 4294901502
-0.028710546 0.18201427 0.86432868 4294901502
-0.026856184 0.18280214 0.86832732 4294901503
-0.024986826 0.18359004 0.87232584 4294900989
-0.023180351 0.18398556 0.87431729 4292269269
-0.021284744 0.18477349 0.87831557 4280294686
-0.019502213 0.18497284 0.87930346 4290426551
-0.080098167 0.18343717 0.86381531 4288452495
-0.078323282 0.18284635 0.86078799 4289242527
-0.076578826 0.1824535 0.85876471 4289506214
-0.074824572 0.18186264 0.85573751 4290032558
-0.073096991 0.18146975 0.85371441 4290361524
-0.071390465 0.18127482 0.85269535 4290756282
-0.069676012 0.1808819 0.8506723 4291085247
-0.067978859 0.18068697 0.8496533 4291282883
-0.066285454 0.18049201 0.84863436 4291677898
-0.064595804 0.18029705 0.84761542 4292072401
-0.062914088 0.18030009 0.8476004 4292336343
-0.061232369 0.18030313 0.84758538 4292665307
-0.059550647 0.18030615 0.84757036 4293059809
-0.057870373 0.18011118 0.84655148 4293454567
-0.056190528 0.18011421 0.84653652 4293849325
-0.054515876 0.17991923 0.84551769 4294244083
-0.052837905 0.17992225 0.84550273 4294441462
-0.051159937 0.17992528 0.84548771 4294770427
-0.049481966 0.1799283 0.84547269 4294836221
-0.047791306 0.18012936 0.84646147 4294638843
-0.046096895 0.18033043 0.84745014 4294507257
-0.044415176 0.18033345 0.84743512 4294770429
-0.042733457 0.18033649 0.8474201 4294901502
-0.041031547 0.18053757 0.84840876 4294901502
-0.039303821 0.18093669 0.85040098 4294901502
-0.037544657 0.18153387 0.85339677 4294901502
-0.035825871 0.18173498 0.85438526 4294901502
-0.034075648 0.18213415 0.8563773 4294901502
-0.032288361 0.18273139 0.85937285 4294901502
-0.030521266 0.18313059 0.86136472 4294901502
-0.028713355 0.18372786 0.86436009 4294901502
-0.026859008 0.18452322 0.86835885 4294966782
-0.024952596 0.18551669 0.87336105 4294966782
-0.023144253 0.18591596 0.87535256 4289637549
-0.021287598 0.18651332 0.87834746 4279044362
-0.080100976 0.18514888 0.86384672 4286078560
-0.078305021 0.18435259 0.85981518 4287134843
-0.07658162 0.18415582 0.85879594 4289175965
-0.074844658 0.1837592 0.85677266 4289768359
-0.073099762 0.1831627 0.85374546 4289900458
-0.071379676 0.18276605 0.85172236 4290163887
-0.069678776 0.18256924 0.8507033 4291085247
-0.067981623 0.18237242 0.84968424 4291414213
-0.066288218 0.18217559 0.84866524 4291809229
-0.064604625 0.18217863 0.84865022 4292072401
-0.062921032 0.18218167 0.84863514 4292401366
-0.061237436 0.18218471 0.84862012 4292730587
-0.059553407 0.18198787 0.84760118 4293191395
-0.057873126 0.18179102 0.84658229 4293520360
-0.056193281 0.18179405 0.84656733 4293915118
-0.054513436 0.18179707 0.84655231 4294178034
-0.052840658 0.18160021 0.84553349 4294441206
-0.051162686 0.18160324 0.84551847 4294835965
-0.049484719 0.18160626 0.84550351 4294835965
-0.047806747 0.18160929 0.84548849 4294901758
-0.046114214 0.18181223 0.84647727 4294836222
-0.044417933 0.18201517 0.84746599 4294836222
-0.042736214 0.18201821 0.84745097 4294836222
-0.041034307 0.18222114 0.84843963 4294836222
-0.039306588 0.18262403 0.85043192 4294901502
-0.037571371 0.18302691 0.8524242 4294901502
-0.035854463 0.18322989 0.85341269 4294901502
-0.034078434 0.18383273 0.85640848 4294901502
-0.032291155 0.18443559 0.85940409 4294901502
-0.030524066 0.18483855 0.86139607 4294901502
-0.028682854 0.18564138 0.86539513 4294901502
-0.026791457 0.1866442 0.87039757 4294966782
-0.024881311 0.18764704 0.87539989 4294900989
-0.023069225 0.18805006 0.8773914 4286611071
-0.080126718 0.18706229 0.86488223 4287259240
-0.078328878 0.18625852 0.86085057 4287655283
-0.076584414 0.18585816 0.85882717 4286999150
-0.074847445 0.18545778 0.85680383 4287790462
-0.073117979 0.1850574 0.85478055 4288448905
-0.071396008 0.18465699 0.85275739 4288910484
-0.06969323 0.18445832 0.85173827 4290754228
-0.067984387 0.18405788 0.84971517 4291150271
-0.066298917 0.18406092 0.84970009 4291677386
-0.064613447 0.18406396 0.84968507 4291809485
-0.062927976 0.184067 0.84966999 4290428089
-0.06124251 0.18407004 0.84965491 4291612363
-0.059557043 0.18407309 0.84963989 4292138707
-0.057873007 0.18387437 0.84862095 4292533465
-0.056189414 0.18387741 0.84860587 4293914606
-0.054511007 0.18367867 0.84758699 4294177779
-0.052829288 0.18368171 0.84757197 4294901502
-0.051156502 0.18348297 0.84655309 4294440951
-0.049476657 0.183486 0.84653813 4294835709
-0.047796816 0.18348904 0.84652311 4294901502
-0.046102408 0.18369384 0.84751189 4294835965
-0.044404257 0.18389866 0.84850061 4294836220
-0.042702351 0.18410349 0.84948927 4294836220
-0.040996697 0.18430832 0.85047793 4294836220
-0.039287295 0.18451315 0.8514666 4294901501
-0.037526276 0.1851216 0.85446256 4294901502
-0.035831433 0.18512465 0.85444742 4294901502
-0.034053538 0.18573312 0.85744327 4294901502
-0.032264393 0.18634161 0.860439 4294901502
-0.030495433 0.18674831 0.86243105 4294901502
-0.028619051 0.18776047 0.86743379 4294966782
-0.026759103 0.18857084 0.87143278 4294966782
-0.02481004 0.18978488 0.87743884 4294966782
-0.022955278 0.19039349 0.88043398 4283716179
-0.080129527 0.18877588 0.8649137 4287527802
-0.078310609 0.18776101 0.85987771 4287986301
-0.076568015 0.1873569 0.85785425 4287655027
-0.074832916 0.18695277 0.85583091 4288771967
-0.07310532 0.18654862 0.85380757 4288441463
-0.07138522 0.18614447 0.85178435 4288046192
-0.069684312 0.18594392 0.85076517 4288970117
-0.067977332 0.18553974 0.84874207 4288974225
-0.066293739 0.18554276 0.84872699 4291609540
-0.064610146 0.1855458 0.84871197 4291019456
-0.062926553 0.18554884 0.84869695 4285361772
-0.061242957 0.18555188 0.84868187 4286283130
-0.059559364 0.18555492 0.84866685 4287533197
-0.057877202 0.18535432 0.84764791 4290691261
-0.056195483 0.18535735 0.84763288 4292336087
-0.054513764 0.18536039 0.84761781 4290427835
-0.052839104 0.18515977 0.84659892 4292072403
-0.051159259 0.18516281 0.8465839 4291875024
-0.049479414 0.18516584 0.84656894 4294440951
-0.047786888 0.18537252 0.84755772 4294901502
-0.04609061 0.18557921 0.8485465 4294967295
-0.044390585 0.1857859 0.84953529 4294901502
-0.042705115 0.18578894 0.84952021 4294901502
-0.040979285 0.18619932 0.85151267 4294901502
-0.039268009 0.18640603 0.85250133 4294901502
-0.037529055 0.18681642 0.85449368 4294901502
-0.035834212 0.18681949 0.85447854 4294901502
-0.034056325 0.18743359 0.85747445 4294901502
-0.032267191 0.18804769 0.86047029 4294901502
-0.030498238 0.18845814 0.8624624 4294901502
-0.028655175 0.18927599 0.86646169 4294901502
-0.026726754 0.19050124 0.87246811 4294966782
-0.02481289 0.19152284 0.87747073 4294967039
-0.080132335 0.19048946 0.86494511 4288583315
-0.078313403 0.18946522 0.859909 4289370776
-0.076570801 0.18905737 0.85788548 4288117885
-0.074835695 0.18864948 0.85586202 4287522926
-0.073092654 0.18803611 0.85283452 4288376183
-0.071387991 0.18783368 0.85181534 4287718253
-0.069687076 0.18763125 0.85079616 4289364619
-0.067980096 0.18722332 0.84877294 4289170577
-0.066288561 0.18702087 0.84775388 4291016376
-0.06461291 0.18722939 0.84874284 4291742409
-0.06292931 0.18723242 0.84872782 4285295465
-0.061245717 0.18723546 0.8487128 4286480253
-0.059562124 0.1872385 0.84869772 4287138439
-0.057879962 0.18703604 0.84767872 4289770159
-0.056198243 0.18703906 0.8476637 4291283399
-0.05451652 0.1870421 0.84764868 4290756800
-0.052841857 0.18683961 0.84662974 4291151301
-0.051162012 0.18684265 0.84661472 4291151301
-0.049482167 0.18684568 0.84659976 4294506744
-0.047789644 0.18705423 0.8475886 4294901502
-0.046078816 0.18746832 0.84958124 4294901502
-0.044393349 0.18747136 0.84956622 4294901502
-0.042689577 0.18767995 0.85055494 4294901502
-0.040961877 0.18809406 0.85254747 4294901502
-0.039248727 0.18830267 0.85353613 4294901502
-0.037531834 0.18851127 0.85452479 4294901502
-0.035811186 0.18871987 0.85551339 4294901502
-0.034059115 0.18913405 0.85750568 4294901502
-0.032269988 0.18975379 0.86050159 4294901502
-0.030438187 0.1905791 0.86450112 4294901502
-0.028657991 0.19099332 0.86649317 4294901502
-0.026729589 0.19222982 0.87249982 4294901502
-0.024778688 0.19346637 0.87850624 4294967037
-0.080135144 0.19220304 0.86497653 4288322710
-0.078337274 0.19137678 0.86094445 4288914333
-0.076611981 0.19117251 0.85992503 4289240731
-0.074855804 0.19055353 0.85689729 4289370263
-0.073110871 0.18993455 0.85386968 4291146675
-0.07140433 0.18973024 0.85285044 4290357673
-0.069701537 0.18952593 0.8518312 4290620590
-0.0680025 0.18932162 0.85081202 4290160809
-0.066307209 0.1891173 0.8497929 4291215807
-0.064615667 0.18891297 0.84877372 4291480521
-0.062932074 0.18891601 0.8487587 4285757556
-0.061250802 0.18912642 0.84974772 4286744450
-0.059565332 0.18912947 0.84973264 4289178791
-0.057881292 0.18892512 0.84871358 4290955203
-0.056197695 0.18892816 0.84869856 4290559677
-0.054519281 0.1887238 0.84767956 4291020228
-0.052844614 0.18851945 0.84666055 4291941330
-0.051164769 0.18852249 0.84664553 4291151557
-0.04947412 0.18873291 0.84763443 4294506744
-0.047779728 0.18894334 0.84862334 4294901502
-0.04608158 0.18915379 0.84961218 4294901502
-0.044379689 0.18936424 0.85060096 4294901502
-0.042674042 0.18957469 0.85158974 4294901502
-0.040964648 0.18978515 0.85257846 4294901502
-0.039229456 0.19020304 0.85457098 4294901502
-0.037510686 0.19041352 0.85555965 4294901502
-0.035788171 0.19062401 0.85654825 4294901502
-0.034034226 0.19104193 0.85854065 4294901502
-0.032243237 0.1916673 0.86153668 4294901502
-0.030409573 0.19250011 0.86553633 4294901502
-0.028627509 0.19291809 0.86752838 4294901502
-0.026732424 0.1939584 0.87253153 4294901502
-0.080137953 0.19391663 0.865008 4288322456
-0.078340068 0.19308285 0.86097574 4288652445
-0.076614775 0.19287671 0.85995626 4289243811
-0.074858591 0.19225211 0.85692847 4289834666
-0.07311365 0.1916275 0.85390073 4290623925
-0.071393527 0.1912121 0.85187727 4290689976
-0.069704309 0.19121514 0.85186219 4291018941
-0.068005264 0.19100896 0.85084295 4291413955
-0.066309974 0.19080277 0.84982377 4291546054
-0.064618431 0.19059657 0.84880465 4291547595
-0.062934838 0.19059961 0.84878957 4291416265
-0.061251242 0.19060263 0.84877455 4291876560
-0.059567645 0.19060567 0.84875953 4292271061
-0.057885475 0.19039945 0.84774041 4292402648
-0.056203756 0.19040249 0.84772539 4292468442
-0.054527212 0.19019626 0.84670639 4291218120
-0.052847367 0.19019929 0.84669137 4293191397
-0.051167522 0.19020231 0.84667635 4292994018
-0.049487676 0.19020535 0.84666139 4294770172
-0.047795162 0.19041765 0.84765029 4294901502
-0.046098892 0.19062997 0.84863919 4294901502
-0.044415299 0.190633 0.84862411 4294901502
-0.042695109 0.19105461 0.85061687 4294901502
-0.040987596 0.19126695 0.85160565 4294901502
-0.039254282 0.19168858 0.85359824 4294901502
-0.037513468 0.19211023 0.85559076 4294901502
-0.035790954 0.1923226 0.85657942 4294901502
-0.03403702 0.19274426 0.85857183 4294901502
-0.032246038 0.19337526 0.86156797 4294901502
-0.030443808 0.19400626 0.864564 4294901502
-0.028663624 0.19442798 0.86655623 4294901502
-0.026735257 0.19568698 0.87256324 4294901502
-0.080163717 0.1958413 0.86604369 4288256406
-0.078363948 0.19500004 0.86201131 4288717212
-0.076636776 0.19479202 0.86099178 4289440421
-0.0748787 0.1941618 0.85796386 4289900972
-0.073147327 0.19374266 0.85594022 4290493109
-0.071423456 0.19332352 0.8539167 4290822075
-0.069718786 0.19311547 0.85289735 4291019454
-0.068017863 0.19290741 0.85187811 4291414469
-0.066320688 0.19269934 0.85085887 4291743690
-0.064627267 0.19249126 0.84983963 4292007119
-0.062937595 0.19228318 0.84882045 4292270549
-0.061254002 0.19228622 0.84880543 4292600028
-0.059570406 0.19228926 0.84879041 4292995043
-0.057888236 0.19208117 0.84777129 4293324008
-0.056206513 0.19208419 0.84775627 4293718254
-0.054529965 0.1918761 0.84673721 4293981427
-0.05285012 0.19187912 0.84672219 4294507257
-0.051161356 0.1920933 0.84771121 4294638843
-0.049479637 0.19209634 0.84769619 4294836222
-0.047785249 0.19231051 0.84868509 4294901502
-0.046087109 0.1925247 0.84967399 4294901502
-0.044401642 0.19252774 0.84965897 4294901502
-0.042697877 0.19274195 0.85064781 4294901502
-0.040990364 0.19295616 0.85163665 4294901502
-0.039257057 0.19338155 0.85362929 4294901502
-0.037492335 0.19401811 0.8566258 4294901502
-0.035767946 0.19423234 0.85761446 4294901502
-0.033984475 0.19486895 0.86061072 4294901502
-0.032189753 0.19550557 0.86360693 4294901502
-0.030352363 0.19635341 0.86760682 4294901502
-0.028566562 0.19677888 0.86959904 4294836222
-0.026667757 0.19783795 0.8746025 4294836222
-0.080166534 0.19755675 0.86607516 4288519578
-0.078345664 0.19649503 0.86103833 4288783004
-0.07662037 0.19628513 0.86001879 4289177762
-0.074881487 0.19586226 0.85799503 4289769899
-0.073150113 0.19543938 0.85597134 4290296243
-0.07143981 0.19522946 0.85495198 4290493880
-0.069733262 0.19501953 0.85393262 4291019967
-0.068020634 0.19459662 0.8519091 4291349189
-0.066323459 0.19438668 0.8508898 4291612618
-0.064630032 0.19417672 0.84987056 4291942096
-0.062940359 0.19396678 0.84885138 4292271062
-0.061254431 0.1937568 0.8478322 4292600028
-0.059572712 0.19375984 0.84781718 4293060579
-0.057892408 0.19354987 0.84679806 4293389544
-0.056212567 0.1935529 0.84678304 4293784047
-0.054532722 0.19355592 0.84676802 4294113013
-0.052845836 0.19377197 0.84775704 4294638843
-0.051155198 0.19398803 0.84874606 4294836222
-0.049471602 0.19399107 0.84873104 4294836222
-0.047775343 0.19420713 0.84972 4294836222
-0.046089873 0.19421017 0.84970492 4294836222
-0.044404406 0.19421321 0.8496899 4294901502
-0.042700645 0.19442928 0.85067874 4294901502
-0.040993135 0.19464538 0.85166764 4294901502
-0.039259836 0.1950745 0.85366035 4294901502
-0.037471205 0.19592974 0.85766083 4294901502
-0.035744946 0.19614586 0.85864955 4294901502
-0.033931941 0.19700114 0.8626498 4294901502
-0.032133479 0.1976434 0.86564606 4294901502
-0.030323768 0.19828567 0.86864221 4294901502
-0.028536098 0.1987149 0.8706345 4294836222
-0.02660027 0.19999641 0.87664187 4294835967
-0.080146387 0.19905737 0.86510229 4288387221
-0.07832738 0.19798626 0.86006528 4288585369
-0.076603957 0.1977745 0.85904574 4289177762
-0.074849613 0.19713302 0.85601765 4289901485
-0.073137432 0.19692123 0.85499823 4290362293
-0.071429007 0.19670944 0.85397881 4290625466
-0.069736041 0.19671249 0.85396367 4290954431
-0.068023406 0.19628583 0.8519401 4291349446
-0.066318266 0.19585915 0.84991658 4291613131
-0.064620629 0.19543245 0.84789306 4292007891
-0.062938906 0.19543548 0.84787804 4292402393
-0.061257187 0.19543852 0.84786302 4292797151
-0.05957501 0.19522667 0.84684384 4293191908
-0.057895165 0.19522971 0.84682888 4293455337
-0.05621532 0.19523273 0.84681386 4293718254
-0.054535475 0.19523576 0.84679884 4294113013
-0.052855629 0.1952388 0.84678382 4294704636
-0.051157959 0.19567162 0.84877694 4294901502
-0.049463574 0.19588955 0.84976596 4294901757
-0.047765441 0.19610749 0.85075492 4294836220
-0.046078101 0.19611053 0.8507399 4294901501
-0.04440717 0.19589867 0.84972078 4294901502
-0.042703412 0.19611663 0.85070974 4294901502
-0.040995903 0.19633459 0.85169864 4294901502
-0.039240573 0.19698238 0.85469538 4294901502
-0.037473992 0.1976302 0.857692 4294901502
-0.03572195 0.19806312 0.85968465 4294901502
-0.033934746 0.19871098 0.86268115 4294901502
-0.032136291 0.19935885 0.86567754 4294901502
-0.030295178 0.20022169 0.86967766 4294901502
-0.028505638 0.20065467 0.87166995 4294901503
-0.080172159 0.20098767 0.8661381 4288583316
-0.078330174 0.19969048 0.86009657 4288847513
-0.076606743 0.19947682 0.85907698 4289242528
-0.07486973 0.19904646 0.8570531 4289900715
-0.073155679 0.1988328 0.85603362 4290230450
-0.071445368 0.19861913 0.85501415 4290691002
-0.069750525 0.19862218 0.85499901 4290954432
-0.06802617 0.19797504 0.85197109 4291414470
-0.06632103 0.1975446 0.84994745 4291743693
-0.064629473 0.19733091 0.84892815 4292138964
-0.062941663 0.19711719 0.84790891 4292402649
-0.061259948 0.19712023 0.84789389 4292862687
-0.059578229 0.19712326 0.84787887 4293257188
-0.057896506 0.1971263 0.84786385 4293717482
-0.056214787 0.19712932 0.84784883 4293980399
-0.054538231 0.1969156 0.84682965 4294309108
-0.052851349 0.1971354 0.84781879 4294704637
-0.051151808 0.19757196 0.84981197 4294836222
-0.049455553 0.19779179 0.85080099 4294836222
-0.047755551 0.19801161 0.85178995 4294770686
-0.046066333 0.19801465 0.85177487 4294836223
-0.044377111 0.1980177 0.85175979 4294901502
-0.042669609 0.19823752 0.85274869 4294901502
-0.040958356 0.19845736 0.85373759 4294966782
-0.039221317 0.19889401 0.85573047 4294901502
-0.037452869 0.19954745 0.85872722 4294967295
-0.035698958 0.19998413 0.86071986 4294901502
-0.033909891 0.20063761 0.86371642 4294901502
-0.03210957 0.20129111 0.86671293 4294901502
-0.030266594 0.20216146 0.87071317 4294901502
-0.028475188 0.2025982 0.87270552 4294966783
-0.080152005 0.20248455 0.86516517 4286010972
-0.078332968 0.20139468 0.86012787 4288777357
-0.076609537 0.20117916 0.85910821 4289636003
-0.074855179 0.20052645 0.85607988 4289303443
-0.07314299 0.2003109 0.8550604 4290554795
-0.071434557 0.20009536 0.85404092 4291740095
-0.069729879 0.19987981 0.85302144 4291806916
-0.0680191 0.19944564 0.85099775 4291873480
-0.066323794 0.19923006 0.84997839 4292071629
-0.064626142 0.19879587 0.84795481 4292401622
-0.06294442 0.19879891 0.84793979 4292533978
-0.061262704 0.19880193 0.84792477 4292928223
-0.059580985 0.19880497 0.84790969 4293388004
-0.057899266 0.198808 0.84789467 4293782762
-0.056220829 0.19859241 0.84687549 4294111985
-0.054540984 0.19859543 0.84686047 4294375414
-0.052861139 0.19859846 0.84684545 4294900733
-0.05116348 0.19903879 0.84883875 4294966782
-0.049479887 0.19904183 0.84882367 4294966782
-0.047783636 0.19926351 0.84981275 4294966782
-0.046083633 0.1994852 0.85080177 4294901502
-0.044379883 0.19970691 0.85179079 4294901502
-0.042690665 0.19970995 0.85177571 4294901503
-0.040961131 0.20015033 0.85376865 4294835711
-0.039224099 0.20059071 0.85576159 4294901503
-0.037455663 0.20124979 0.85875845 4294966783
-0.035727538 0.20147154 0.85974717 4294966015
-0.033940352 0.20213065 0.86274385 4294966527
-0.03214192 0.20278977 0.86574048 4294966014
-0.03030083 0.2036676 0.86974084 4294967039
-0.028511303 0.20410809 0.87173331 4294966015
-0.080177784 0.20441858 0.86620104 4285013553
-0.078335762 0.20309889 0.8601591 4286193462
-0.076612331 0.2028815 0.85913944 4286127925
-0.074875303 0.20244363 0.85711545 4286326842
-0.07314577 0.20200574 0.85509151 4286528330
-0.071423747 0.20156784 0.85306758 4287849066
-0.069720931 0.20135041 0.85204816 4289036678
-0.068012029 0.20091249 0.85002434 4291143339
-0.066326559 0.20091553 0.85000932 4292197567
-0.064634994 0.20069808 0.84898996 4292726478
-0.062951401 0.20070112 0.84897488 4293647837
-0.061267804 0.20070414 0.84895986 4293976803
-0.059584212 0.20070718 0.84894484 4294306281
-0.057902023 0.20048971 0.84792554 4294504686
-0.056220304 0.20049275 0.84791052 4294768116
-0.054543741 0.20027527 0.84689128 4294834167
-0.052863896 0.2002783 0.84687626 4294965499
-0.051175147 0.20050184 0.84786546 4294966270
-0.049493428 0.20050488 0.84785044 4294966526
-0.047799055 0.20072845 0.84883952 4294966526
-0.046100929 0.20095201 0.8498286 4294966013
-0.044382654 0.20139611 0.85182178 4294966271
-0.042693432 0.20139916 0.85180664 4294966527
-0.040963907 0.20184329 0.8537997 4294966527
-0.039226882 0.20228742 0.8557927 4294966015
-0.037458453 0.20295212 0.85878962 4294965246
-0.035730332 0.20317574 0.85977846 4294964477
-0.033943158 0.20384048 0.86277527 4294762219
-0.032144733 0.20450523 0.86577195 4292845750
-0.030303655 0.20539056 0.86977249 4291389833
-0.028480856 0.20605536 0.87276894 4291451520
-0.078359656 0.20502543 0.86119485 4285537585
-0.07663434 0.20480618 0.86017513 4286652727
-0.074878089 0.20414221 0.85714662 4287243324
-0.073148549 0.20370057 0.85512257 4287505469
-0.071412921 0.20303658 0.85209423 4287504700
-0.069711983 0.20281726 0.85107476 4287767359
-0.068014793 0.20259795 0.85005528 4288097095
-0.066329323 0.20260099 0.85004026 4287639369
-0.064643852 0.20260403 0.85002518 4287972441
-0.062958382 0.20260707 0.8500101 4288765550
-0.061272915 0.20261011 0.84999508 4289622656
-0.059587445 0.20261315 0.84998 4290349202
-0.057903379 0.20239381 0.84896064 4291271845
-0.056219786 0.20239684 0.84894562 4293048770
-0.054541342 0.20217749 0.84792632 4293379020
-0.052859623 0.20218053 0.8479113 4293971415
-0.051177904 0.20218356 0.84789628 4294300894
-0.049485408 0.202409 0.84888548 4294498016
-0.047789164 0.20263442 0.84987462 4294498530
-0.046089169 0.20285988 0.8508637 4294497761
-0.044369023 0.20330773 0.85285687 4294101975
-0.042677928 0.20331079 0.85284179 4293443789
-0.040946532 0.20375866 0.85483485 4293046978
-0.039207641 0.20420656 0.85682791 4292517297
-0.037461247 0.20465446 0.85882086 4291454856
-0.035707355 0.20510238 0.8608138 4291582079
-0.033945963 0.20555031 0.86280662 4291645561
-0.032118019 0.20644312 0.8668074 4291973755
-0.03024368 0.20755838 0.87181211 4292434049
-0.028417142 0.20822881 0.87480861 4292172674
-0.07836245 0.20673153 0.86122614 4282651677
-0.076617911 0.20628616 0.85920191 4284487976
-0.074880876 0.2058408 0.85717773 4285799472
-0.07313586 0.20517118 0.85414922 4286914873
-0.071415693 0.20472579 0.85212523 4287833922
-0.06970302 0.20428036 0.85010129 4288490569
-0.068007708 0.20405917 0.84908181 4288555334
-0.066332087 0.20428644 0.85007113 4289080139
-0.064646617 0.20428948 0.85005611 4289211211
-0.062961146 0.20429254 0.85004103 4289671764
-0.06127568 0.20429558 0.85002595 4289605971
-0.059589732 0.20407435 0.84900659 4289868887
-0.05790614 0.20407739 0.84899157 4290000474
-0.056222547 0.20408043 0.84897649 4290527589
-0.054544099 0.20385921 0.84795719 4290659432
-0.052869406 0.20363797 0.84693789 4290988654
-0.05118956 0.203641 0.84692293 4291252083
-0.049498942 0.2038683 0.84791213 4291383412
-0.047804575 0.20409562 0.84890133 4291514742
-0.046106458 0.20432293 0.84989047 4291843707
-0.044388194 0.20477453 0.85188371 4291908986
-0.042680703 0.20500186 0.85287279 4292040059
-0.040969461 0.20522921 0.85386181 4292566917
-0.039232448 0.20568085 0.85585493 4292830604
-0.037487935 0.2061325 0.85784799 4292961164
-0.035735924 0.20658416 0.85984099 4293026442
-0.033948764 0.20726015 0.86283797 4292895112
-0.032120835 0.20816045 0.86683893 4292631426
-0.030246513 0.2092851 0.87184376 4291316593
-0.028386712 0.21018545 0.87584442 4285676877
-0.078470759 0.20956805 0.86628014 4281276953
-0.07669761 0.20889287 0.86325127 4281276953
-0.074935712 0.20821767 0.86022246 4282127642
-0.073185064 0.20754245 0.85719377 4283241245
-0.071459271 0.2070933 0.85516959 4284552998
-0.069752701 0.20687026 0.85415 4286128180
-0.068040021 0.20642109 0.852126 4287046716
-0.066342823 0.20619802 0.85110646 4288030787
-0.064655483 0.20620106 0.85109144 4288949836
-0.062972367 0.20643023 0.85208076 4289343310
-0.061283149 0.20643328 0.85206562 4289869142
-0.059593931 0.20643632 0.85205054 4290855012
-0.057904713 0.20643938 0.85203546 4291117928
-0.056215495 0.20644242 0.85202038 4291183722
-0.054536566 0.20599319 0.84999669 4291447407
-0.052851096 0.20599623 0.84998161 4291776372
-0.051165629 0.20599927 0.84996653 4291841909
-0.049480159 0.20600231 0.84995151 4292105081
-0.047769401 0.20645764 0.85194492 4292500095
-0.046065662 0.20668685 0.85293406 4292566402
-0.044341777 0.20714222 0.85492736 4292763781
-0.042646933 0.20714527 0.85491222 4292830087
-0.040911801 0.20760065 0.8569054 4293027722
-0.03919119 0.20782989 0.85789442 4293027723
-0.037442934 0.2082853 0.85988748 4292370563
-0.035687178 0.20874071 0.86188048 4290989423
-0.033868637 0.2096485 0.86588168 4289149529
-0.032035097 0.21055633 0.8698827 4287836236
-0.030092377 0.21214272 0.87689579 4284364866
-0.076777332 0.21151458 0.86730087 4280556824
-0.074990571 0.21060579 0.86326736 4280556824
-0.07323429 0.20992495 0.86023849 4280818970
-0.07148926 0.20924409 0.85720974 4281277467
-0.069778934 0.20901917 0.85619009 4281932573
-0.068052649 0.20833828 0.85316145 4282520603
-0.066353574 0.20811334 0.85214192 4283438110
-0.064664356 0.2081164 0.85212684 4284684327
-0.062975138 0.20811944 0.8521117 4285865008
-0.06128592 0.20812249 0.85209662 4286651957
-0.059597183 0.20835353 0.85308594 4288360523
-0.057904694 0.20858459 0.85407519 4289082964
-0.056214996 0.20835963 0.85305572 4289214294
-0.054529045 0.20813467 0.85203624 4289674847
-0.052839827 0.20813772 0.85202116 4290332520
-0.051150609 0.20814076 0.85200608 4290266727
-0.049461387 0.20814382 0.851991 4290529899
-0.047746886 0.20860291 0.85398448 4290530925
-0.046039402 0.20883399 0.85497355 4290596205
-0.044328164 0.20906508 0.85596269 4290728047
-0.042613182 0.20929618 0.85695177 4290400110
-0.040894449 0.20952728 0.85794079 4289809256
-0.039171964 0.20975839 0.85892975 4289152352
-0.037397947 0.2104456 0.86192709 4286986573
-0.035638448 0.21090478 0.86392015 4286005325
-0.033788528 0.21204811 0.86892557 4284957000
-0.031919859 0.21319149 0.87393081 4284105284
-0.076799385 0.21346174 0.86833692 4280361244
-0.075010739 0.21254547 0.86430329 4280295450
-0.073252566 0.211859 0.8612743 4280295450
-0.071505651 0.21117252 0.85824543 4280623645
-0.069781713 0.21071589 0.8562212 4280819998
-0.068065278 0.21025923 0.85419703 4280951070
-0.066364326 0.21003242 0.85317737 4281081884
-0.064667128 0.20980561 0.85215783 4281278749
-0.06297791 0.20980865 0.85214269 4281869088
-0.061288688 0.2098117 0.85212761 4282393123
-0.059599955 0.21004462 0.85311693 4283639340
-0.057907473 0.21027754 0.85410625 4284164402
-0.056214504 0.2102806 0.85409111 4284624441
-0.054521535 0.21028365 0.85407603 4285018430
-0.052828565 0.21028671 0.85406089 4285281602
-0.051144488 0.21005987 0.85304141 4285478468
-0.04944263 0.21029282 0.85403061 4285807433
-0.047749661 0.21029587 0.85401553 4285742923
-0.046027668 0.21075873 0.85600895 4285678670
-0.044298172 0.21122161 0.85800236 4285613904
-0.042579439 0.21145459 0.85899144 4285484371
-0.040836822 0.21191747 0.86098468 4285157459
-0.039108716 0.21215047 0.8619737 4284764241
-0.037352972 0.21261339 0.86396682 4284305487
-0.035589729 0.21307632 0.86595994 4283977291
-0.033763714 0.21399912 0.86996132 4283779913
-0.031893186 0.21515189 0.87496668 4283386182
-0.078563638 0.21564128 0.87039316 4280887845
-0.076802202 0.21518095 0.86836851 4280295965
-0.075013541 0.21425718 0.8643347 4280164634
-0.073255368 0.2135651 0.86130559 4280164634
-0.07152205 0.21310471 0.85928118 4280230427
-0.069796234 0.21264432 0.85725689 4280361757
-0.068077922 0.21218392 0.8552326 4280361500
-0.066383079 0.21218698 0.85521746 4280558110
-0.064682119 0.21195829 0.8541978 4280886304
-0.062989153 0.21196134 0.85418266 4281149217
-0.061296184 0.2119644 0.85416758 4281674792
-0.059603218 0.21196745 0.85415244 4281806378
-0.057908863 0.21220227 0.85514176 4282135343
-0.05621402 0.21220532 0.85512662 4282464052
-0.054514039 0.21244013 0.85611588 4282793018
-0.052817319 0.2124432 0.85610074 4282990397
-0.05112949 0.21221448 0.8550812 4283187776
-0.049434647 0.21221755 0.85506606 4283385155
-0.047739804 0.21222061 0.85505092 4283451205
-0.046015937 0.21268722 0.8570444 4283846476
-0.044251803 0.2136174 0.86104649 4284043855
