# .PCD v0.7 - Point Cloud Data file format
VERSION 0.7
FIELDS x y z rgba
SIZE 4 4 4 4
TYPE F F F U
COUNT 1 1 1 1
WIDTH 135
HEIGHT 1
VIEWPOINT 0 0 0 1 0 0 0
POINTS 135
DATA ascii
0.095719352 0.0880123 0.84496319 10331290
0.1052195 0.087615535 0.84474331 10660257
0.1154778 0.087955989 0.84642541 11910068
0.12232178 0.087423638 0.84867334 12962245
0.087374508 0.092361823 0.84875709 9213063
0.094773315 0.095634148 0.84677398 9212809
0.10479306 0.095741339 0.84394264 10923428
0.115628 0.095298372 0.84568638 12239033
0.12330907 0.094591066 0.84803629 13488847
0.095451131 0.10578893 0.84728575 9608082
0.1050539 0.10519197 0.84603643 9213067
0.11529744 0.10521067 0.84681594 11646897
0.12284814 0.10679638 0.84965384 13357262
0.095890343 0.11487743 0.84815037 10199962
0.10479631 0.11456604 0.84592247 10857892
0.11475567 0.11450301 0.84737873 11778484
0.12239656 0.11521225 0.84919083 13423312
0.097051203 0.12462943 0.84904528 8549235
0.10505494 0.12480067 0.84759593 10394519
0.11426906 0.12463234 0.84850186 12107706
0.096659675 0.1331532 0.8481375 10593438
0.10578701 0.13555209 0.84822267 10389641
0.11233834 0.13580801 0.84886819 11771553
0.098397903 0.14124109 0.84819555 7807543
0.10534159 0.14213189 0.84833926 6298922
0.11354 0.14141011 0.8492105 9644612
0.078654528 0.086978883 0.85948962 9870480
0.085067987 0.087533824 0.85349542 10068116
0.091793567 0.086137459 0.85117495 10199193
0.11367571 0.086041957 0.85023129 10462622
0.12708727 0.087117724 0.85169554 13488078
0.13337907 0.087983243 0.85787678 14343133
0.078612685 0.093946919 0.85903239 8620926
0.084401488 0.095276698 0.85261011 9344650
0.091680549 0.097600423 0.85012698 10331546
0.12677588 0.095383406 0.85099757 13883350
0.13314897 0.094824821 0.85639048 14804198
0.086006843 0.10481242 0.85430837 9476239
0.092502117 0.10382652 0.85059011 9870740
0.11968257 0.10706709 0.8518092 12765380
0.12654677 0.10517742 0.85238314 13883352
0.1328571 0.10262567 0.85828233 14738404
0.086201958 0.11530344 0.85523438 9607312
0.092337221 0.1144736 0.85085177 10068377
0.11956236 0.1139067 0.85095358 12831174
0.12637796 0.11533894 0.85362703 13818072
0.13244371 0.11035974 0.85939604 14738920
0.069337606 0.12447969 0.85998851 0
0.086717166 0.12529762 0.85599375 8353396
0.094179727 0.12515128 0.85181707 9209474
0.11895116 0.12487447 0.85072035 12962762
0.12543163 0.12506428 0.85483992 13883610
0.13008967 0.12437959 0.85929698 14409955
0.088029832 0.13476034 0.855914 8942964
0.094512872 0.1358857 0.85183126 9532791
0.10272887 0.13585405 0.85060662 9732738
0.11681601 0.13504879 0.85170543 12033443
0.12441181 0.13443887 0.85541272 13285312
0.13012289 0.13532923 0.85951632 13544122
0.087715603 0.1414789 0.85663736 7216428
0.094880901 0.14540184 0.85518938 3217944
0.10443535 0.14754963 0.85350269 2039063
0.1146578 0.1458185 0.85469306 3940899
0.12404434 0.14348564 0.85700601 7483201
0.088015154 0.15482561 0.85952353 3093292
0.094960384 0.15484479 0.85575593 2764327
0.10466175 0.15466718 0.85220468 3291184
0.11429731 0.15452127 0.85379577 2171933
0.12070008 0.15473922 0.85905111 2829863
0.095410012 0.16156225 0.85597599 1909275
0.10480862 0.16184525 0.85336721 2830120
0.11369742 0.16156872 0.85559446 2171933
0.12064546 0.16168031 0.85866237 2632231
0.077366643 0.087166861 0.86605281 9278344
0.085211113 0.085348889 0.86669225 8488829
0.1354866 0.086784236 0.86691725 14145753
0.076844104 0.094255343 0.8654784 8686719
0.13815945 0.092341036 0.86589962 15461614
0.078513846 0.1049944 0.86656356 9147274
0.081234097 0.10600837 0.86203951 9212811
0.13484338 0.10677461 0.86351418 15067114
0.079437122 0.11540791 0.8680414 9080712
0.081155643 0.11410998 0.86120689 9212554
0.1344045 0.11453848 0.86446327 15067371
0.067413934 0.120544 0.86534089 8883334
0.079275094 0.12067354 0.86627078 6841696
0.081734531 0.12455535 0.86320698 7694952
0.13302118 0.12493726 0.86314315 15133421
0.067695893 0.13523856 0.8689602 8751233
0.079414614 0.13033348 0.86779535 8949639
0.0829999 0.13580133 0.86418092 8747381
0.13354683 0.1360452 0.86655396 14731731
0.085160241 0.14506942 0.86490411 3676185
0.12648097 0.14774418 0.86257434 3420207
0.13097863 0.14407384 0.86516881 8469074
0.086589292 0.15486121 0.86534512 1777945
0.092402942 0.15296623 0.86227036 1711382
0.1177861 0.15344423 0.86053455 2434850
0.12420303 0.15430114 0.86532277 2830123
0.087071091 0.16108893 0.86176008 1909018
0.12396607 0.16179161 0.86551917 2764330
0.073808692 0.087063365 0.87604094 9146248
0.074826807 0.094789833 0.87404203 8883588
0.076066263 0.10516562 0.87459183 8159610
0.077318147 0.11435677 0.87466633 8225916
0.066572867 0.12505406 0.87487334 8816515
0.078598663 0.12579626 0.87375772 7633009
0.068339132 0.13891111 0.87721694 8619134
0.076475643 0.13566338 0.87476724 8354679
0.078399159 0.14372227 0.87534243 4466729
0.083574548 0.14796686 0.87429571 1776405
0.083937645 0.15464699 0.87394059 2106911
0.12838358 0.15698241 0.8715204 3159346
0.13041213 0.15562576 0.87719727 1710874
0.083492994 0.16089329 0.87344468 1514517
0.12730052 0.16186208 0.8722356 3093552
0.13057563 0.16179176 0.87829697 3225139
0.077127934 0.084471226 0.88216114 8356220
0.080687515 0.084427536 0.88170493 8553599
0.073585942 0.097755112 0.88287681 8751233
0.073825613 0.10651432 0.88575232 8290684
0.069061115 0.11866383 0.8864845 0
0.075366378 0.11686014 0.88502306 8752260
0.075327955 0.12522519 0.8845309 6316894
0.067381561 0.13381146 0.88559073 8684928
0.074666902 0.13440455 0.88348705 7631727
0.074227475 0.14349435 0.88487542 8947329
0.08096645 0.14973666 0.88475293 1776150
0.077759035 0.15051901 0.88937569 7960180
0.081864499 0.15539263 0.88406175 2500903
0.08084546 0.16153513 0.88343078 2500647
0.074329287 0.11937474 0.8917954 9409677
0.071817733 0.12408347 0.89074939 0
0.074457601 0.13537988 0.89333493 0
0.074185699 0.14821444 0.89007264 8684414
