# .PCD v0.7 - Point Cloud Data file format
VERSION 0.7
FIELDS x y z rgba
SIZE 4 4 4 4
TYPE F F F U
COUNT 1 1 1 1
WIDTH 158
HEIGHT 1
VIEWPOINT 0 0 0 1 0 0 0
POINTS 158
DATA ascii
0.084743977 0.088257231 0.82760507 11252135
0.095517181 0.087807558 0.82338828 12041909
0.10561521 0.086927675 0.82570112 12370363
0.11398344 0.087092482 0.82724607 14409179
0.085980773 0.094713613 0.82809281 10923684
0.094783373 0.094758198 0.82443482 10331547
0.10487384 0.094782397 0.82642913 12370363
0.11259987 0.091319315 0.82813185 14212313
0.086877525 0.10433179 0.82840335 10726050
0.09482345 0.10508712 0.82708925 11383980
0.10499378 0.10512646 0.82739556 11580847
0.11300817 0.10412341 0.828376 14014422
0.087434821 0.11318304 0.82869065 10858406
0.094595186 0.11509562 0.82837909 11515566
0.10411153 0.11438799 0.82833624 12699328
0.086086243 0.1200899 0.82966101 9868431
0.095508449 0.12542818 0.82912773 10328213
0.10382154 0.12448069 0.8288247 10325648
0.097773537 0.13517195 0.82983446 11909554
0.10227528 0.13665694 0.82970947 13026495
0.09734568 0.14262484 0.82939291 9119807
0.10077126 0.1426813 0.82972127 9711174
0.075172216 0.088929802 0.8339119 10462618
0.084666491 0.087080285 0.83795494 9278091
0.094557099 0.086744986 0.83472842 9936532
0.10308656 0.086272381 0.83018059 10988709
0.1164583 0.085556813 0.83584762 13553871
0.1221812 0.086994261 0.83715916 14935527
0.069998458 0.09413299 0.83983451 9805200
0.075521849 0.094985649 0.83526671 9805201
0.081488073 0.095872678 0.83113223 10133911
0.10999286 0.09542127 0.83114594 13554637
0.11604394 0.095706642 0.832331 14541279
0.12292203 0.095338665 0.83702183 15527664
0.076405004 0.10494581 0.83494657 9344396
0.08249899 0.10618919 0.83221579 10199706
0.11756968 0.1055923 0.83405542 13290700
0.12237787 0.10653486 0.8385067 15330028
0.076795816 0.11514129 0.83694053 9870741
0.083804622 0.11538392 0.83205867 10528928
0.097462013 0.11567512 0.83038491 11712432
0.10765785 0.11645633 0.8305831 13290954
0.11497418 0.11509953 0.83441532 14146009
0.12090545 0.11609529 0.83885258 14936040
0.078180924 0.12429707 0.83771133 8291196
0.08515615 0.12544158 0.83259791 9407110
0.094166294 0.12548648 0.83121985 10261136
0.10610347 0.12590675 0.83079493 12235698
0.11456158 0.12466516 0.83403301 13618638
0.12185055 0.12369676 0.83880085 15133162
0.07894928 0.13494669 0.83779347 8617080
0.08570566 0.13552575 0.83470082 10725536
0.094739072 0.13500676 0.83166277 11515309
0.10488819 0.1347198 0.83205181 12633022
0.11422428 0.135428 0.83579063 13156290
0.12018113 0.13287503 0.83910328 14803684
0.079010755 0.14304027 0.83844578 6362660
0.085523479 0.1443865 0.83678168 5511970
0.094314642 0.14471355 0.83375293 4528927
0.10477916 0.14443557 0.83285576 5645099
0.11336752 0.14423652 0.83654308 7219514
0.086640798 0.15631826 0.83776551 3291185
0.094749093 0.15512168 0.83379698 2698278
0.1044013 0.15474929 0.83535767 3224621
0.11313667 0.15601474 0.8376655 4013372
0.08636041 0.16248822 0.83704627 2633254
0.094445281 0.16265701 0.83371431 2041117
0.10486101 0.16308339 0.83458406 3224622
0.11353528 0.1622425 0.83874691 2763304
0.068233803 0.087947316 0.84629816 8751233
0.07397905 0.087862223 0.8418119 9014661
0.10898454 0.085089475 0.84081924 12830144
0.12636039 0.087220065 0.8437379 15330028
0.068260565 0.094898 0.8466301 9541258
0.070701718 0.094879836 0.84140867 9804687
0.12730536 0.094431415 0.84594297 10527138
0.068331532 0.10306635 0.84751034 6580832
0.071504645 0.10495705 0.84415293 7962743
0.12471961 0.10399907 0.84198791 15659250
0.071937919 0.11486559 0.84476632 9015432
0.12392042 0.11544738 0.84316915 15396334
0.074267805 0.12474548 0.84592092 6844263
0.12456916 0.12584549 0.84449875 15593456
0.076199271 0.13500898 0.84531629 9541262
0.081446901 0.13759595 0.84003556 10462878
0.12320812 0.13527791 0.84414977 15325923
0.076358624 0.1438812 0.84561086 4528415
0.082373165 0.14856499 0.84172481 1710866
0.11675267 0.14781716 0.84182137 3420461
0.12216313 0.1441417 0.84489679 8141903
0.079085439 0.15879138 0.84740579 3027499
0.083498813 0.15398192 0.8446638 2238240
0.09182997 0.15147008 0.84090209 1382162
0.10889917 0.15133651 0.84016055 2237726
0.11652499 0.15327291 0.84385401 3487539
0.1214743 0.15738679 0.84813213 3816764
0.078918241 0.16229503 0.84563869 2237727
0.082903065 0.16382769 0.8409009 2369825
0.11803892 0.16047375 0.84011096 2894892
0.12119333 0.16277903 0.84617054 3882301
0.066662416 0.087759413 0.85571283 8751233
0.072426796 0.086525202 0.85500646 8751233
0.065838732 0.094296113 0.85513395 9409417
0.1286927 0.097593807 0.85006934 0
0.057440251 0.10539832 0.85709184 2302747
0.066629879 0.10488948 0.85534334 8817539
0.12876031 0.10227481 0.8505159 16053751
0.059654851 0.11217441 0.85539752 2697764
0.067271613 0.11517297 0.85607439 7238252
0.12910205 0.1187933 0.85277325 16251130
0.069142379 0.12491298 0.85756719 8817540
0.071112007 0.12582219 0.85319483 6646371
0.12902652 0.12800239 0.85227436 16514302
0.069256753 0.13602339 0.85898578 8092790
0.071895458 0.13435195 0.85333014 8750463
0.12783068 0.1349121 0.85201955 14597577
0.072559088 0.14497146 0.85464078 3677473
0.12604806 0.14514509 0.85304701 8998754
0.077443071 0.15512672 0.8547582 2369313
0.080254205 0.15456197 0.85164106 2040861
0.12377404 0.15536746 0.8560394 3026991
0.075236768 0.1619786 0.85612696 2040094
0.1251734 0.16149178 0.85766113 0
0.063300401 0.086992294 0.86546624 8553854
0.055754617 0.094833046 0.86715662 1118476
0.064183913 0.094499491 0.86417502 9277575
0.055677142 0.10648783 0.86595166 2433563
0.062590301 0.10446502 0.86384094 4276799
0.057010062 0.11268425 0.86828715 2302493
0.064969882 0.11508867 0.86419284 6777445
0.065503038 0.12536836 0.86434537 7237738
0.067887872 0.13386036 0.86390209 6645345
0.06836462 0.14479032 0.86246669 9144715
0.075808667 0.15459435 0.86262053 2369059
0.074824072 0.16132538 0.86934346 1842206
0.058766082 0.087541178 0.87687516 2303005
0.064367056 0.084724121 0.87420064 11119783
0.074159801 0.086206131 0.87539726 15593963
0.080471955 0.086595319 0.87934935 15067875
0.056170035 0.096732035 0.87361771 2368025
0.062005088 0.094580889 0.87210298 4868934
0.062463593 0.10379058 0.87298238 4803142
0.058555629 0.11615773 0.87373489 1513236
0.062217947 0.1135584 0.87504405 5658193
0.064423904 0.12691206 0.87270725 6842470
0.059051782 0.084373266 0.88113821 0
0.066544443 0.082343042 0.88509357 12633279
0.074234024 0.084016107 0.88582981 15922930
0.084571123 0.085914716 0.88471794 14475738
0.095092081 0.086834066 0.88177365 13620428
0.10434882 0.085133694 0.88907963 13423302
0.11420433 0.083153382 0.88641679 12896445
0.058996923 0.091482833 0.88031965 0
0.07677146 0.081767432 0.89195639 11777714
0.086101547 0.083570696 0.89308208 14541532
0.09549842 0.083360463 0.8937192 13752015
0.10479762 0.083070159 0.89290929 13160132
0.11309654 0.081299335 0.89126158 12765376
