# .PCD v0.7 - Point Cloud Data file format
VERSION 0.7
FIELDS x y z rgba
SIZE 4 4 4 4
TYPE F F F U
COUNT 1 1 1 1
WIDTH 1286
HEIGHT 1
VIEWPOINT 0 0 0 1 0 0 0
POINTS 1286
DATA ascii
-0.2099492 0.21216226 1.0099745 0
0.11681989 0.21976046 1.0070034 11975868
0.12482813 0.21938573 1.0052862 12107454
0.13439798 0.21799484 1.0052021 12041661
0.14563769 0.21708722 1.0073167 11975866
0.15606479 0.21233957 1.0056046 11975865
0.16231516 0.21011546 1.0002309 12041657
-0.21327126 0.22232577 1.0062091 12173245
-0.20149259 0.22687347 1.0021034 12239038
-0.15105411 0.22962734 1.0022188 12239040
-0.14553973 0.22953519 1.0018166 12239039
-0.135866 0.22931704 1.0008645 12173247
-0.12590486 0.2292946 1.0047629 12107454
-0.11491428 0.22825195 1.0081923 11778489
-0.10485971 0.22728388 1.0039163 11449524
-0.097920224 0.2270285 1.0027883 11252143
-0.08315663 0.22496608 1.0057697 10923950
-0.076134786 0.22444531 1.0034416 11120559
-0.069521002 0.22788146 1.0065558 0
0.016718579 0.22436802 1.0030959 0
0.024680471 0.2242465 1.0050105 7895930
0.035888463 0.22472835 1.0047069 11844028
0.045503058 0.223313 1.0057424 11910076
0.056330897 0.22352521 1.0034215 11975868
0.064776018 0.2226079 1.0074861 11975868
0.074089572 0.22176179 1.0036567 12041661
0.084821522 0.22125201 1.0013496 12041661
0.09292154 0.22106624 1.0005088 12041659
0.1037817 0.22099844 1.0002019 12041660
-0.19178259 0.23104557 1.0084088 6119520
-0.18468133 0.23074387 1.007092 12304833
-0.17593464 0.23125839 1.0093377 12304833
-0.16436565 0.23108307 1.0085725 12239040
-0.15553239 0.23019955 1.0047163 12239040
nan nan nan 0
nan nan nan 1646616
-0.48040396 0.4471882 1.0007428 1580310
nan nan nan 2302493
-0.4787811 0.45078921 1.0088013 1514517
-0.4642601 0.45827916 1.001171 1054479
0.0035295382 0.45522964 1.0044775 986635
0.0044283443 0.4615286 1.0023102 526853
-0.47039381 0.47534838 1.0084791 461830
nan nan nan 723974
0.0030633952 0.47255009 1.0025424 527366
-0.49103457 0.48778167 1.0002043 1646616
-0.47450796 0.48492193 1.0055643 0
-0.46593967 0.48598403 1.0077667 198147
-0.43682933 0.48745704 1.0070419 1383444
-0.40466568 0.48925 1.0088454 1711896
-0.18153064 0.48866481 1.0048271 395781
-0.16672453 0.48936751 1.0062718 461318
-0.50428587 0.49281245 1.0049117 0
-0.49982136 0.49380597 1.0069376 0
-0.45566928 0.49347836 1.0062696 0
-0.44827595 0.49955979 1.0019875 0
-0.43434021 0.49824575 1.0076072 0
-0.41877052 0.49243781 1.0097518 1580311
-0.40196294 0.49721503 1.0055184 0
-0.39463049 0.49659312 1.0042703 0
-0.38216606 0.4995361 1.0074396 0
-0.35461763 0.49661377 1.0070739 0
-0.34994674 0.49661595 1.0015504 0
-0.33068851 0.49497986 1.0093313 857101
-0.32358575 0.49527586 1.0043521 461319
-0.31588909 0.49331847 1.0059435 922894
-0.30422541 0.49398339 1.0035836 0
-0.29832324 0.49689797 1.0021192 0
-0.28977886 0.493554 1.000869 0
-0.27463377 0.49571896 1.0052593 0
-0.26087439 0.4955681 1.0049541 395526
-0.25358319 0.49648881 1.00497 0
-0.2463093 0.49516648 1.0069152 0
-0.23566644 0.49596867 1.0024523 66305
-0.22803593 0.49553531 1.0049281 395524
-0.21454419 0.49595731 1.0057427 0
-0.20397767 0.49780893 1.0076401 197632
-0.19172712 0.49740267 1.0045277 0
-0.1844148 0.49043322 1.0056413 461060
-0.17641157 0.49865919 1.0029254 0
-0.16531086 0.49517617 1.0060149 0
-0.1592851 0.49436772 1.0025191 0
-0.49379754 0.5083158 1.0058323 0
-0.46486589 0.50001031 1.008396 0
-0.45661423 0.50273508 1.0083563 0
-0.44871655 0.505858 1.0091113 0
-0.43645772 0.50164866 1.0061772 0
-0.42484003 0.50633484 1.004608 0
-0.41598874 0.50173306 1.0063465 0
-0.40521428 0.50605518 1.0067898 0
-0.39184123 0.50608951 1.004127 0
-0.38925806 0.50081921 1.0045135 0
-0.37269971 0.50881046 1.0040977 0
-0.36935017 0.50624532 1.0098839 0
-0.3480683 0.50527012 1.0079591 0
-0.33238935 0.50711817 1.0061822 0
-0.32581982 0.50602686 1.0061775 0
-0.31233463 0.50841665 1.0033205 0
-0.30171728 0.50483394 1.0043757 0
-0.2950376 0.50659168 1.003311 0
-0.28522798 0.50373137 1.0059632 0
-0.27694196 0.50450301 1.0037086 0
-0.26451215 0.50450951 1.0042388 0
-0.258549 0.50593579 1.0065496 0
-0.24480233 0.50447577 1.0063642 0
-0.23447415 0.50308096 1.00905 0
-0.20443532 0.50557351 1.0031306 0
-0.19556397 0.50052297 1.0066754 0
-0.18886648 0.50200164 1.0050747 0
-0.17456017 0.50465751 1.0067133 0
-0.1623867 0.50097567 1.0048274 0
-0.15620714 0.50415438 1.0002818 0
-0.49548924 0.51418257 1.0092782 0
-0.48482609 0.5144552 1.0071175 0
-0.44529176 0.51773238 1.0055175 0
-0.43653318 0.51268458 1.0063511 0
-0.41016752 0.51328468 1.0021617 0
-0.40644813 0.51641184 1.0064728 0
-0.39456004 0.51427281 1.004091 0
-0.38582802 0.51219547 1.0027046 0
-0.37817717 0.51246953 1.004148 0
-0.36086866 0.51827556 1.0092249 0
-0.34604251 0.51391065 1.0034118 0
-0.33051306 0.51318145 1.0046414 0
-0.32534599 0.51150298 1.001344 0
-0.31676799 0.51607716 1.0058411 0
-0.29412854 0.5185374 1.0017705 0
-0.26363122 0.51207471 1.0015736 0
-0.2525745 0.51725698 1.0045791 0
-0.24343692 0.51538241 1.0045073 0
-0.23141968 0.51500523 1.0037378 0
-0.22359726 0.51392233 1.0034198 0
-0.20436274 0.51496142 1.002784 0
-0.18913613 0.51575112 1.0016545 0
-0.17332648 0.51465142 1.0048351 0
-0.1648497 0.51652157 1.0031508 0
-0.47066641 0.52505881 1.0090636 0
-0.46743914 0.52726275 1.0080266 0
-0.4571822 0.52650905 1.0065856 0
-0.44492975 0.52065235 1.0005952 0
-0.41029805 0.52512681 1.0091918 0
-0.40692341 0.52431643 1.0076369 0
-0.37288871 0.52820998 1.0046101 0
-0.36461684 0.52446353 1.0044187 0
-0.35469964 0.52688628 1.0073068 0
-0.33300966 0.52270019 1.0080431 0
-0.32341045 0.52641499 1.0037947 0
-0.30118194 0.52267969 1.0071228 0
-0.29547063 0.52122456 1.0016949 0
-0.27083164 0.52504182 1.0063989 0
-0.25793687 0.52797264 1.0041665 0
-0.24308544 0.5228982 1.0049114 0
-0.21434049 0.5255596 1.0047747 0
-0.20513277 0.5230695 1.0065618 0
-0.19664964 0.52304578 1.0051949 0
-0.18565059 0.52427131 1.0049217 0
-0.17822309 0.52390575 1.0016086 0
-0.16714112 0.52879608 1.0005455 0
-0.50018102 0.53510833 1.0021671 0
-0.47059003 0.53870326 1.0088998 0
-0.42577395 0.53959852 1.000378 0
-0.41173291 0.53619212 1.0093422 0
-0.39037448 0.53142518 1.0003684 0
-0.37031642 0.5311749 1.0050465 0
-0.36619779 0.53388876 1.0050071 0
-0.32515216 0.53494698 1.0035777 0
-0.31407011 0.53347683 1.00596 0
-0.28550893 0.5366298 1.0050166 0
-0.27320927 0.539419 1.0000452 0
-0.25755143 0.53264576 1.002666 0
-0.24119304 0.53630698 1.0027303 0
-0.23278044 0.53489161 1.0017612 0
-0.21414964 0.53330195 1.0039282 0
-0.19711442 0.53114045 1.0075818 0
-0.1856707 0.53349018 1.002538 0
-0.17737328 0.5349822 1.0045071 0
-0.42440814 0.54457277 1.0079186 0
-0.39217985 0.54482406 1.0049948 0
-0.38725948 0.54559934 1.0064248 0
-0.37629271 0.54558349 1.0063896 0
-0.36499685 0.54507405 1.0054407 0
-0.33451346 0.54172462 1.0043197 0
-0.28922546 0.54669046 1.0084375 0
-0.26440877 0.54919726 1.0080009 0
-0.25838518 0.5453186 1.0059118 0
-0.23543195 0.54562384 1.0014422 0
-0.19512987 0.54453194 1.0044558 0
-0.18645993 0.54179442 1.0019232 0
-0.17248286 0.54552335 1.0062807 0
-0.16581479 0.54702032 1.009046 0
-0.15432079 0.54522324 1.005731 0
-0.49800056 0.55237877 1.0088009 0
-0.38208175 0.55973583 1.0072174 0
-0.37754136 0.55479759 1.0048918 0
-0.34990242 0.55264419 1.0092856 0
-0.33907083 0.551525 1.0097512 0
-0.32645276 0.55699712 1.0047497 0
-0.31602734 0.55653346 1.0063838 0
-0.25842836 0.55207127 1.0007771 0
-0.24777161 0.55566442 1.0072844 0
-0.23623222 0.5584181 1.0048462 0
-0.22478367 0.55715668 1.0025764 0
-0.21423462 0.55810976 1.0042914 0
-0.19895616 0.55577701 1.0099868 0
-0.18650579 0.55417323 1.0070741 0
-0.17057499 0.55561978 1.0047315 0
-0.16450191 0.5527156 1.009416 0
-0.15679786 0.55593693 1.0040874 0
-0.40168563 0.56468862 1.0014161 0
-0.34241638 0.56583422 1.0034478 0
-0.33413357 0.56841308 1.0031791 0
-0.29062447 0.5660271 1.0037898 0
-0.28877574 0.56502336 1.0068696 0
-0.26041347 0.5629521 1.0031786 0
-0.24388953 0.56262511 1.0025959 0
-0.20338933 0.56382138 1.0047276 0
-0.18429363 0.56669855 1.0049806 0
-0.17890535 0.56969577 1.0054429 0
-0.16381767 0.56273818 1.0052311 0
-0.39898807 0.57959086 1.0083753 0
-0.3741135 0.5723812 1.0005698 0
-0.35242262 0.57749265 1.0047247 0
-0.31639087 0.5793432 1.003194 0
-0.3065781 0.57459807 1.0068456 0
-0.29173815 0.57368261 1.0076364 0
-0.28852636 0.57684159 1.006 0
-0.26528254 0.5782907 1.0061252 0
-0.25711849 0.57261616 1.0009805 0
-0.22542042 0.57378685 1.0054163 0
-0.20160085 0.57472223 1.009465 0
-0.19283698 0.5786525 1.0067427 0
-0.1878504 0.57742953 1.0093948 0
-0.15963157 0.57610965 1.0046997 0
-0.38005143 0.58001047 1.0091053 0
-0.3118327 0.58238959 1.0061015 0
-0.23337179 0.58271885 1.0043061 0
-0.22477522 0.58388072 1.0086763 0
-0.20649147 0.58126658 1.0065351 0
-0.19282983 0.58137101 1.0067054 0
-0.18927053 0.58159328 1.0023662 0
nan nan nan 6319711
nan nan nan 6976871
nan nan nan 5727071
nan nan nan 5332564
nan nan nan 8095613
nan nan nan 8030847
nan nan nan 7966081
nan nan nan 8951179
nan nan nan 8886156
nan nan nan 10661540
nan nan nan 11187884
nan nan nan 6383209
nan nan nan 5857119
-0.65399539 -0.16550206 1.0165462 0
-0.64741242 -0.16178167 1.0105892 0
-0.62806809 -0.16175835 1.0104436 5396566
-0.61423957 -0.16246518 1.0148588 0
-0.60403609 -0.16269165 1.0162735 5001297
-0.59620124 -0.16244096 1.0147076 5001295
-0.58525538 -0.1620878 1.0125015 0
-0.57185024 -0.16020875 1.0180726 5001808
-0.60989445 -0.15928958 1.0122316 0
-0.57549036 -0.15425907 1.0154175 3488056
-0.56256759 -0.15314767 1.015334 4804430
-0.55417681 -0.15714215 1.016157 4804173
-0.54794151 -0.15595159 1.0174102 4803916
-0.6256758 -0.14874654 1.0154879 0
-0.60983729 -0.14825566 1.0121367 0
-0.59118611 -0.14703394 1.01322 2765098
-0.58408296 -0.1445694 1.0133379 3751736
-0.57548499 -0.1435146 1.0159434 4212287
-0.56387508 -0.1431375 1.0149388 4474691
-0.55695289 -0.14193183 1.0161717 4540482
-0.58159643 -0.13982472 1.0109315 4673094
-0.57387084 -0.13536057 1.0161405 4606789
-0.56479198 -0.13407572 1.0136904 4671812
-0.55839425 -0.13491945 1.0154376 4737860
-0.57242531 -0.12472558 1.0150049 4737861
-0.56422263 -0.12498604 1.0143256 4672324
-0.55672693 -0.12378193 1.0147492 4606531
-0.57275718 -0.11641859 1.0147785 4606788
-0.564412 -0.11410414 1.0146736 4672582
-0.5546093 -0.11462877 1.0144293 4540995
-0.54129791 -0.11585878 1.0179365 4606274
-0.53826547 -0.11580243 1.0174414 4737860
-0.5856303 -0.10266303 1.0107703 3750454
-0.57249653 -0.10314988 1.0110593 4935240
-0.56483817 -0.10569111 1.0134513 4737861
-0.55497903 -0.10414252 1.0171219 4672068
-0.54837084 -0.10287017 1.0173548 4671554
-0.57128012 -0.095763497 1.0154217 4869191
-0.56637347 -0.095751002 1.0162079 4803654
-0.55729198 -0.094804518 1.0163379 4672581
-0.54544747 -0.094848864 1.0184449 4606530
-0.57123536 -0.086866856 1.0137067 4804167
-0.5661146 -0.084602557 1.015242 4803910
-0.55822504 -0.085218243 1.0159789 4672325
-0.54346585 -0.088055804 1.0168091 4803653
-0.5731771 -0.073945612 1.0130708 4869191
-0.56291932 -0.075393416 1.0139747 4803911
-0.55556774 -0.075766817 1.0173184 4803654
-0.54796499 -0.074528731 1.0156281 4607044
-0.56506777 -0.064157061 1.010896 4804423
-0.55690229 -0.065924898 1.016922 4803911
-0.54838037 -0.068779334 1.0182271 4541508
-0.56129682 -0.054693639 1.0140246 4803911
-0.55490327 -0.055613182 1.0170275 4803655
-0.54912239 -0.05485836 1.0170343 4672582
-0.53945559 -0.055001661 1.019691 4540995
-0.56324172 -0.044838939 1.0139848 4935496
-0.55427933 -0.043873847 1.0140117 4738374
-0.54976356 -0.043837171 1.0182219 4606789
-0.56420821 -0.036077041 1.0143032 4212031
-0.55321079 -0.036182918 1.0133829 4738374
-0.54706156 -0.033209074 1.015282 4607045
-0.57135284 -0.02154029 1.012282 4804681
-0.56044161 -0.025219886 1.0124795 4804424
-0.55638123 -0.026467979 1.016402 4738374
-0.57200527 -0.01742734 1.0134436 4936266
-0.56584448 -0.01775323 1.0162423 4804168
-0.55410635 -0.015364589 1.0135013 4738375
-0.54555786 -0.01350827 1.0148273 4541509
-0.55601543 -0.0044544269 1.0114477 4803398
-0.54735273 -0.0055818581 1.0158103 4540739
-0.56125569 0.0046421802 1.0139503 4803911
-0.55303544 0.0049226871 1.0145769 4540996
-0.54597396 0.0038307176 1.0183967 4409410
-0.53934288 0.0060538868 1.019478 4277824
-0.55324244 0.016362745 1.0131887 4475460
-0.54788518 0.013522345 1.0147499 4409666
-0.56221515 0.028008858 1.0107139 4803398
-0.55429107 0.026398597 1.0123307 4474946
-0.54961294 0.028067697 1.0128372 4212030
-0.5626604 0.033599447 1.0134987 2698024
-0.55540764 0.035674568 1.0133684 4343361
-0.54680455 0.035805523 1.015023 4080701
-0.55309123 0.044933513 1.015015 4014652
-0.54300833 0.046586074 1.0159535 3948091
-0.53742743 0.047262374 1.0106579 3882298
-0.56147814 0.052029625 1.0143681 4211774
-0.55410314 0.052254777 1.0141454 4014396
-0.54545486 0.055132397 1.0162293 3685943
-0.53801239 0.05448316 1.0169725 3620150
-0.56190127 0.066483997 1.0101497 3751993
-0.54518282 0.064923219 1.0158905 3554358
-0.53589183 0.064546518 1.0175362 3423027
-0.55308288 0.076607645 1.0131391 3685687
-0.54473013 0.074705288 1.0135061 3619637
-0.55274588 0.080298632 1.0110049 3619895
-0.54506719 0.084702052 1.0130671 3291442
-0.53830618 0.087655596 1.0133601 3225649
-0.56532329 0.0995946 1.0113531 3159345
-0.54333991 0.093692541 1.0107856 3094063
-0.53446305 0.09361098 1.0147388 2962477
-0.52635396 0.094671294 1.0176097 2698793
-0.53433019 0.10260484 1.0139196 2961967
-0.5243963 0.10440365 1.0152637 2369574
-0.51757568 0.10447241 1.0159686 3949118
-0.53115362 0.11385015 1.0157599 3027504
-0.52613693 0.11633515 1.016016 4014912
-0.5173586 0.11163576 1.0144674 3949119
-0.55624658 0.12480201 1.0148813 0
-0.54404414 0.12347691 1.0152955 1974560
-0.5355382 0.12204327 1.0149102 4343107
0.37897894 0.12992646 1.0117664 527623
0.40336838 0.12979959 1.0107785 3751741
0.41168183 0.12792212 1.0177286 4278087
0.43354082 0.12702243 1.0105708 0
0.44646734 0.12480995 1.0149459 5987941
0.45650232 0.12490621 1.0157669 0
-0.64213324 0.13649285 1.019677 5131593
-0.63900113 0.13582948 1.0147214 4802885
-0.62529248 0.13861099 1.0148658 988687
-0.59385741 0.13623759 1.0177983 724747
0.31993878 0.13885698 1.0166669 3158573
0.32126737 0.13823801 1.012135 3356722
0.33877134 0.13587452 1.0150579 988687
0.34490281 0.13557002 1.0127832 2896171
0.3565104 0.13579011 1.0144272 3883322
0.36467743 0.13499622 1.0153883 2962479
0.3782289 0.13061842 1.0171549 593416
0.3847459 0.13139176 1.012452 1580312
0.3917644 0.13281417 1.0127881 2567466
0.45876369 0.13265887 1.0116038 0
-0.62208003 0.14678326 1.0141317 1054222
-0.61236322 0.14094034 1.0117587 0
-0.59630531 0.14447375 1.0172485 0
-0.28058201 0.14857471 1.0169013 11514026
-0.27455354 0.14434853 1.0136216 11645356
-0.26449397 0.14257237 1.0135871 12501178
-0.25537848 0.14622805 1.0157298 13027523
0.30164656 0.14083514 1.0110035 2962743
0.36343744 0.14960644 1.0145047 592648
0.3970384 0.14667523 1.0133476 131841
0.40507355 0.14578304 1.0135232 395013
0.41074428 0.14605433 1.0154108 526343
0.42206421 0.14430103 1.0160494 329221
-0.3946031 0.15848061 1.0182995 10921633
-0.38616237 0.15842965 1.017972 11776944
-0.37692887 0.15746532 1.0117757 11053734
-0.36535841 0.15842162 1.0179204 10461851
-0.3554337 0.15831754 1.0172516 11251113
-0.34994507 0.15833999 1.0173959 12238779
-0.27887064 0.15317172 1.0106988 11645356
-0.25132456 0.15579863 1.0137404 12171957
0.17130321 0.15492246 1.013155 8344884
0.18447354 0.1541765 1.0173202 6249296
0.28803086 0.15467006 1.0115044 6975346
0.29656091 0.15481152 1.0124295 0
0.30548576 0.15625112 1.0146048 3488313
0.31545782 0.15668258 1.012651 2830637
0.32087207 0.15595216 1.0108895 791054
0.36557278 0.15544738 1.0166309 262914
0.39953005 0.15244283 1.0150054 0
0.40281373 0.15125281 1.0163202 461062
0.41370285 0.15206726 1.0125047 132610
-0.64240277 0.16660716 1.0171764 7023924
-0.63698715 0.16604102 1.0136952 2691341
-0.59540439 0.16913579 1.0157117 0
-0.40370083 0.16321975 1.0133207 8488318
-0.39447212 0.16063626 1.0144103 10000274
-0.38448355 0.16049901 1.0135435 10066580
-0.363368 0.16092215 1.0162156 10527644
-0.35408598 0.16047531 1.0133939 10922402
-0.34431654 0.16042291 1.013063 11382698
-0.33439958 0.16303079 1.0164416 11711919
-0.32444128 0.16358101 1.0155514 11909555
-0.30040491 0.16329269 1.0137614 11514797
-0.29375207 0.1661891 1.0145993 12106934
-0.28571469 0.16495033 1.0154946 11580589
-0.27931288 0.16030234 1.0123016 8619134
-0.26351163 0.16074763 1.0151135 8026997
-0.25201973 0.16046715 1.0133423 9737616
-0.24989957 0.16087778 1.0159354 9737616
0.16544144 0.16368286 1.0127172 6314318
0.17326419 0.16488416 1.0133485 7758677
0.18929724 0.16049439 1.0135143 0
0.19437903 0.16622318 1.0148184 9077108
0.20566176 0.16420543 1.019428 10330011
0.2169479 0.16882154 1.0138245 4343105
0.22216366 0.16859113 1.0124408 4540996
0.23510954 0.1675925 1.0147716 2698278
0.27728093 0.1603277 1.0124617 2633258
0.30708402 0.16078149 1.0153272 2369829
0.3140817 0.16082984 1.0156326 3027759
-0.64235675 0.17188855 1.0156424 5904671
-0.63863087 0.1771504 1.0141155 6036773
-0.62833107 0.17559417 1.0130877 1185294
-0.59241921 0.17735931 1.0153334 460806
-0.40672502 0.1798864 1.0139794 1580311
-0.26279768 0.17868046 1.0123619 1185552
-0.25907707 0.1780747 1.0194068 1316369
-0.23278494 0.17431079 1.0136533 0
0.16760874 0.1726162 1.0158455 5261888
0.17481717 0.17566727 1.0155481 5920586
0.18556358 0.17526564 1.0146437 6183758
0.19327164 0.1796501 1.0126475 8684919
0.20327763 0.17583585 1.0144845 5723725
0.21718486 0.17382215 1.0131004 4540482
0.22484636 0.17404719 1.0121202 3685172
0.23004639 0.17106116 1.0107536 3356205
-0.63856924 0.18492228 1.0151153 3220513
-0.59384012 0.18361473 1.0193534 329477
-0.53896844 0.18628192 1.0187702 1777949
nan nan nan 1646106
nan nan nan 0
-0.32024464 0.18211861 1.0110507 2237471
-0.29078004 0.18262427 1.0138578 2041375
-0.28510147 0.18252116 1.0132856 1712154
-0.2745868 0.18194763 1.0131692 1382932
-0.26414493 0.18295565 1.014008 988430
-0.25675681 0.18197928 1.0102772 988173
-0.22305244 0.18088523 1.0196096 0
-0.2169721 0.18321262 1.0171242 0
-0.20734291 0.18755145 1.0106695 3618617
0.16555826 0.18395956 1.0151417 10264728
0.17034636 0.1801832 1.0156524 8553850
0.18367773 0.18107828 1.012949 9408386
0.19747162 0.18108791 1.0129956 8356212
0.20043048 0.18127173 1.0140164 7961454
-0.64078236 0.19352737 1.0131531 2171678
-0.62385762 0.19703589 1.0170295 0
-0.61316973 0.1971595 1.0176675 0
-0.6097613 0.19418631 1.0166028 1119759
nan nan nan 1777949
nan nan nan 1185556
-0.37177813 0.19970433 1.0165224 2699051
-0.36617815 0.19477829 1.0125053 3027503
-0.20825025 0.19527897 1.0150921 0
0.16603573 0.1952022 1.0146941 11777712
-0.37054271 0.20188066 1.0182021 1580058
-0.36623144 0.20522825 1.0164979 1250836
-0.20813511 0.20483634 1.014531 0
0.15917493 0.20905432 1.0149245 11910072
0.16559868 0.20390065 1.0153931 11909814
-0.36591095 0.21472153 1.0155959 0
-0.21085651 0.21721941 1.0143392 12238779
0.012771396 0.21873207 1.0149491 0
0.1151244 0.2190139 1.0162567 12041661
0.12428716 0.21810426 1.0120358 12041661
0.13095295 0.21773149 1.0103062 12041661
0.14440225 0.21659833 1.0179036 12041658
0.15381098 0.21341887 1.0159688 11975866
-0.2115712 0.2220673 1.0133638 12238781
-0.20556526 0.22713649 1.0154791 8159102
-0.16270316 0.22986808 1.0153308 12238786
-0.15410456 0.22941127 1.0133131 12238784
-0.14436918 0.22927839 1.0127261 12107454
-0.13451704 0.2289349 1.0112088 12107454
-0.12620936 0.22883658 1.0107746 12041661
-0.10487264 0.22753739 1.0172654 11252658
-0.094704978 0.22639617 1.0121633 10989743
-0.085260443 0.22486444 1.0145881 11317938
-0.075385086 0.22445397 1.011694 11186352
0.015472807 0.22245115 1.0109255 0
0.025558731 0.22333863 1.0107932 7171949
0.034831781 0.22399402 1.0137594 11975868
0.040238012 0.22338295 1.0109938 11909821
0.053987339 0.22334632 1.010828 11975613
0.076472633 0.22198236 1.0171847 12041661
0.084657542 0.22165911 1.0157036 11975868
0.094188809 0.22132626 1.0141783 11975868
0.10522568 0.22131377 1.0141211 12041661
0.11182492 0.22071877 1.0113946 11975868
-0.19788761 0.2306165 1.0186365 12239040
-0.18698218 0.23084354 1.0196394 12304832
-0.17229402 0.23115215 1.0149286 12239041
-0.1671053 0.23022319 1.0168992 12172993
-0.48526481 0.45152166 1.0166326 1580310
nan nan nan 0
-0.48311377 0.46604851 1.0121261 1251858
nan nan nan 1249805
nan nan nan 1644817
-0.4908902 0.47659388 1.0111215 264964
-0.46730199 0.47228214 1.0136805 1317652
-0.44129479 0.47951937 1.0173281 1515030
nan nan nan 1316109
-0.47492337 0.48452243 1.0162148 264708
-0.40788892 0.48982337 1.0100278 1580311
-0.1636752 0.48841146 1.0128005 527622
-0.5067246 0.49513277 1.0152779 1120272
-0.4844197 0.49489874 1.0123961 132098
-0.47368175 0.49525976 1.0155263 790795
-0.4621768 0.49293822 1.0145524 856332
-0.45705405 0.49797106 1.0154308 0
-0.43876204 0.4960382 1.0114894 0
-0.42524597 0.49956465 1.0186803 0
-0.41863728 0.4900021 1.0160989 1777690
-0.4037843 0.49979511 1.0135252 0
-0.38896516 0.49297708 1.0108576 1383444
-0.37901521 0.49987116 1.0136795 0
-0.36427349 0.49633062 1.0148946 0
-0.35298866 0.49655187 1.0181878 1842715
-0.3460823 0.49735773 1.0141854 922126
-0.32701409 0.49636856 1.0149796 1251859
-0.31046087 0.49640521 1.0150505 1251859
-0.29498187 0.49964288 1.0188398 1053967
-0.28741357 0.49774727 1.0149848 724747
-0.27226701 0.49476773 1.0117093 461319
-0.24575728 0.49685347 1.0159693 263939
-0.23345694 0.49656916 1.0125787 527109
-0.22136678 0.49624157 1.0119041 0
-0.2037763 0.49768811 1.0134544 263425
-0.19666573 0.49752399 1.0159304 395269
-0.18805125 0.49520335 1.0154319 527110
-0.17505157 0.49213159 1.0147874 461830
-0.16659576 0.49162769 1.0137484 396037
-0.50142205 0.50917679 1.0157318 0
-0.49711624 0.50209105 1.0125923 0
-0.48624611 0.50507647 1.0172355 0
-0.45220014 0.50322151 1.014876 0
-0.43949628 0.50000548 1.0195793 0
-0.42524597 0.50233722 1.0186803 0
-0.41281614 0.50644743 1.0176582 0
-0.39871323 0.50863963 1.0146602 0
-0.38957828 0.50753212 1.0124509 0
-0.37577406 0.50198597 1.0123804 0
-0.36397716 0.50473189 1.0179182 0
-0.35030782 0.50928169 1.0104549 0
-0.3431991 0.50334847 1.017926 0
-0.33236998 0.50025779 1.0144635 0
-0.3248933 0.50651419 1.0141052 0
-0.31489328 0.50377172 1.015978 0
-0.30452982 0.50540286 1.0137002 0
-0.29513389 0.50516427 1.014606 0
-0.28816095 0.50572431 1.014352 0
-0.27654701 0.50329775 1.0122509 0
-0.26125389 0.50530475 1.0135092 0
-0.25489128 0.50545931 1.0138185 0
-0.23470774 0.50279927 1.0140206 0
-0.20515856 0.50503445 1.015753 0
-0.19442008 0.5088138 1.0150076 0
-0.18060091 0.50050849 1.0149719 0
-0.17456466 0.50730991 1.0120076 0
-0.15833704 0.50550938 1.0139208 0
-0.49428836 0.51584911 1.0152824 0
-0.41992792 0.51033396 1.0125426 0
-0.39288899 0.51588762 1.0162699 0
-0.38066164 0.51866817 1.0180829 0
-0.35892585 0.51255673 1.0114906 0
-0.34526002 0.51821387 1.0199153 0
-0.33426806 0.51549339 1.0118512 0
-0.32518008 0.51498628 1.0135543 0
-0.31595814 0.5170778 1.0149623 0
-0.30475685 0.5112983 1.0144559 0
-0.2970202 0.51568604 1.01949 0
-0.27429098 0.51571298 1.0140963 0
-0.26325789 0.51389426 1.014148 0
-0.23392376 0.5187307 1.0145991 0
-0.20293346 0.51767719 1.0161377 0
-0.18941733 0.51853144 1.0178145 0
-0.17843935 0.51883048 1.0184014 0
-0.16372111 0.51554877 1.0174031 0
-0.42594379 0.52196473 1.0137386 0
-0.41666743 0.52623171 1.0113177 0
-0.39164409 0.52039361 1.0106709 0
-0.37685582 0.52553779 1.0152948 0
-0.35315958 0.5272904 1.0186807 0
-0.34481883 0.52098954 1.014514 0
-0.33269027 0.52284986 1.0154412 0
-0.31656396 0.52821147 1.0124767 0
-0.30218917 0.5254398 1.0151055 0
-0.29251677 0.52515256 1.0199133 0
-0.27789196 0.52753347 1.013822 0
-0.26408523 0.52658772 1.0173231 0
-0.24975342 0.52003491 1.0153413 0
-0.22722463 0.52550864 1.0134742 0
-0.21989332 0.52408081 1.0178319 0
-0.20677628 0.52932304 1.0146143 0
-0.19388938 0.5267117 1.0122404 0
-0.18705854 0.52450317 1.0150721 0
-0.17203209 0.52451265 1.0133142 0
-0.16559537 0.52322328 1.0161844 0
-0.49387291 0.53209513 1.0172652 0
-0.46762136 0.53748655 1.0143799 0
-0.43277931 0.53124177 1.0103763 0
-0.42070574 0.53750867 1.0144181 0
-0.41163737 0.53316456 1.0193098 0
-0.38178998 0.53575969 1.0137215 0
-0.37864619 0.53659689 1.0126925 0
-0.36796394 0.53357768 1.0174551 0
-0.30599999 0.53556252 1.018594 0
-0.28301871 0.53957683 1.0157132 0
-0.27689698 0.53290701 1.0135435 0
-0.25509 0.5362156 1.0145842 0
-0.24655041 0.53289998 1.0135344 0
-0.22307441 0.53614926 1.0197099 0
-0.21605782 0.5348193 1.0171762 0
-0.20847854 0.53568399 1.016205 0
-0.19491625 0.53780842 1.0175979 0
-0.18390855 0.5334872 1.0128965 0
-0.17586613 0.53606653 1.0195526 0
-0.16531312 0.53338921 1.0144606 0
-0.39987773 0.54890072 1.0176237 0
-0.34411043 0.54593408 1.0138249 0
-0.32284296 0.54509622 1.0105703 0
-0.3035427 0.54463601 1.016577 0
-0.2946561 0.54913604 1.0129486 0
-0.28321779 0.5454886 1.0164533 0
-0.27888656 0.54519665 1.0107565 0
-0.23361993 0.5487203 1.0172892 0
-0.21658292 0.54673356 1.0153124 0
-0.20389022 0.54695904 1.0140392 0
-0.18417023 0.54987943 1.019438 0
-0.17577003 0.54402465 1.0149851 0
-0.16441201 0.54045147 1.0173597 0
-0.15702283 0.54439163 1.0143825 0
-0.48891613 0.5517754 1.0127329 0
-0.40005311 0.55745417 1.01807 0
-0.36466515 0.55702496 1.0172862 0
-0.35431105 0.55662698 1.0140395 0
-0.34483561 0.55332965 1.0105374 0
-0.33216232 0.55237305 1.0138297 0
-0.30422223 0.55288625 1.017319 0
-0.28870186 0.55369079 1.016256 0
-0.27793401 0.55705416 1.0173395 0
-0.2568801 0.55635464 1.014385 0
-0.23437417 0.55477703 1.0165517 0
-0.22164761 0.55340207 1.0131878 0
-0.21836808 0.55483365 1.010772 0
-0.20386356 0.55654997 1.013906 0
-0.19188558 0.55505812 1.0162153 0
-0.18516687 0.55565166 1.0173028 0
-0.17780599 0.55427593 1.0147866 0
-0.16675732 0.55288613 1.0147779 0
-0.15796675 0.55113071 1.0115496 0
-0.38829154 0.56616426 1.0162954 0
-0.34799534 0.56724 1.0157461 0
-0.30591032 0.56605756 1.0152801 0
-0.28540665 0.5609526 1.014375 0
-0.27791217 0.56531644 1.0172595 0
-0.24353355 0.56307977 1.0182233 0
-0.23367533 0.56546706 1.0175304 0
-0.22549723 0.56579369 1.0181183 0
-0.19963476 0.56181014 1.0134317 0
-0.18573885 0.56149346 1.0128615 0
-0.17234565 0.56415039 1.0151612 0
-0.42687231 0.57012033 1.0159523 0
-0.39431208 0.5725379 1.0104588 0
-0.38095924 0.57453567 1.0188788 0
-0.34461272 0.57681292 1.0180037 0
-0.3136183 0.57171524 1.0163299 0
-0.30195609 0.5761075 1.0143225 0
-0.29353321 0.57581943 1.0138245 0
-0.28715143 0.5741058 1.0107983 0
-0.25114149 0.57532609 1.0153797 0
-0.24169576 0.57309276 1.01632 0
-0.23511365 0.57605284 1.0118021 0
-0.21288076 0.5755055 1.0108411 0
-0.20351589 0.57740808 1.0190541 0
-0.19173257 0.57948303 1.0154051 0
-0.16151972 0.57324141 1.0165836 0
-0.15320165 0.5704093 1.0164673 0
-0.38442168 0.58707416 1.0133957 0
-0.37921348 0.58846515 1.0142097 0
-0.34523985 0.58151448 1.011722 0
-0.29494241 0.58277714 1.0139188 0
-0.27223006 0.58992106 1.016719 0
-0.26030788 0.58247721 1.013397 0
-0.25953379 0.58899498 1.0103834 0
-0.21455431 0.58489996 1.0144114 0
-0.20303299 0.58157194 1.016636 0
-0.18048623 0.58577275 1.0143274 0
-0.17251517 0.58268368 1.0161597 0
-0.402659 0.59323275 1.017653 0
-0.30351582 0.59434557 1.0195619 0
-0.28420365 0.59180492 1.0199658 0
-0.27223006 0.59268832 1.016719 0
nan nan nan 3752760
nan nan nan 6582113
nan nan nan 6713956
nan nan nan 8227197
nan nan nan 8162946
nan nan nan 8558218
nan nan nan 11255217
nan nan nan 5398098
nan nan nan 6121823
nan nan nan 10265753
nan nan nan 11976887
nan nan nan 12305852
nan nan nan 0
nan nan nan 10267296
-0.65078384 -0.16331801 1.0201862 5658457
-0.64238667 -0.1660773 1.0200795 5725533
-0.63565695 -0.16510758 1.0226591 5462359
-0.61459327 -0.16329303 1.0200301 5132883
-0.59764785 -0.16676356 1.0242946 4805199
-0.58483386 -0.16468459 1.0287228 5133394
-0.57991862 -0.16448218 1.0274583 5199187
-0.56509966 -0.16144724 1.0259428 4870223
-0.55451715 -0.16161956 1.0270379 4870222
-0.5828321 -0.15016982 1.0252047 1447960
-0.57479423 -0.15352935 1.0253029 3685691
-0.56649089 -0.15427271 1.0246768 4869965
-0.55705088 -0.15397023 1.0236953 4672843
-0.54863256 -0.15562502 1.0243926 4607050
-0.58415818 -0.14736634 1.0251131 0
-0.5746395 -0.14359093 1.0247018 4475203
-0.56510711 -0.14702311 1.0259588 3159087
-0.55566353 -0.14349177 1.0239898 3882810
-0.54485977 -0.14208293 1.0272584 4212031
-0.56303334 -0.13164759 1.0221958 4606274
-0.55739379 -0.13508689 1.0262531 4540738
-0.54564965 -0.13476458 1.0274342 4343616
-0.57031041 -0.12167875 1.020275 4737605
-0.56465971 -0.12998712 1.0200999 4868933
-0.55444568 -0.12528865 1.0250304 4475202
-0.54488385 -0.12484182 1.0257372 4343616
-0.57408071 -0.11910881 1.0220509 4606789
-0.56081796 -0.11089051 1.0232219 4672582
-0.55386949 -0.1144736 1.024125 4606531
-0.54417342 -0.11543131 1.025092 4540481
-0.53930736 -0.11802277 1.0246824 4540481
-0.52725315 -0.11424728 1.0283693 4343617
-0.56469792 -0.10526714 1.0226896 4737604
-0.55469477 -0.10574318 1.0273724 4606274
-0.54783022 -0.10745357 1.0258548 4606274
-0.53581583 -0.10168322 1.0286834 4277824
-0.56527722 -0.098629348 1.0212126 4737862
-0.55455929 -0.093760796 1.0253844 4606531
-0.54591358 -0.095949717 1.0251244 4540738
-0.5536623 -0.085724607 1.0220094 4672068
-0.54750872 -0.085221164 1.0243757 4672068
-0.56218237 -0.077276208 1.0206429 4672582
-0.5599066 -0.075955197 1.0215591 4738118
-0.54825306 -0.075471133 1.0244658 4541252
-0.53660262 -0.072016023 1.0248498 4409411
-0.5546546 -0.064015724 1.0225956 4737862
-0.54521865 -0.064631313 1.0256691 4606276
-0.53541702 -0.067040071 1.0279305 4409409
-0.52604038 -0.069488898 1.0287318 4343616
-0.56184214 -0.052243471 1.0200253 4869191
-0.55370897 -0.052349698 1.0220994 4803910
-0.54471952 -0.0554603 1.0239408 4606532
-0.53910995 -0.055250667 1.0243074 4409409
-0.56204027 -0.048640788 1.0220706 5000777
-0.55244917 -0.047301959 1.0232049 4672582
-0.54612583 -0.045869987 1.0274663 4540996
-0.53858054 -0.042886075 1.0286208 4475203
-0.55096209 -0.030045977 1.0204417 4606789
-0.54460764 -0.033837974 1.0231249 4606532
-0.53304708 -0.036822997 1.0287489 4474945
-0.56119955 -0.024574706 1.023918 4804168
-0.55464453 -0.024980797 1.0243158 4607045
-0.54529858 -0.0243949 1.025471 4540995
-0.53827447 -0.027400509 1.025377 4475202
-0.54339659 -0.015953869 1.025039 4475459
-0.53558475 -0.01395232 1.0253323 4343873
-0.54569614 -0.0044469135 1.0244707 4474946
-0.55075836 0.0023621235 1.0235076 4540996
-0.54442012 0.0049607507 1.0227736 4409154
-0.53604329 0.005891324 1.0256983 4146494
-0.52727175 0.0089059295 1.0284055 4277824
-0.55212778 0.019988574 1.0226007 4540996
-0.5449605 0.015289945 1.0248369 4212543
-0.53572005 0.014124712 1.0265068 4080702
-0.55185193 0.02421236 1.0246813 4277824
-0.54565477 0.023148209 1.0255475 4212030
-0.53554052 0.024697311 1.0254879 4014396
-0.5292927 0.021469986 1.026896 3883323
-0.54435253 0.035610955 1.0259435 3948859
-0.53604698 0.031980183 1.0277913 3948602
-0.55090535 0.045051582 1.0229173 3948349
-0.54430199 0.044094149 1.0249 3948347
-0.53589386 0.045178119 1.0258688 3751479
-0.52838242 0.047939144 1.0251299 3554613
-0.5462088 0.053354055 1.02194 3817273
-0.53471398 0.055087168 1.0246725 3423028
-0.52902073 0.053675652 1.0281808 3554357
-0.54494482 0.065106392 1.0208768 3488564
-0.53300363 0.065669253 1.0247643 3356722
-0.52713001 0.064868711 1.0281332 3225136
-0.54269332 0.074604876 1.0225278 3422515
-0.53594047 0.073828951 1.0262535 3225138
-0.52800035 0.073868178 1.0287353 3225136
-0.5420599 0.083374985 1.0246286 3291185
-0.5353263 0.085613251 1.0267726 3093807
-0.52788359 0.081559092 1.026875 3225136
-0.53351802 0.095196269 1.023211 2435620
-0.52517927 0.095465563 1.0261397 1974814
-0.5146901 0.097680666 1.0201118 3751993
-0.53461039 0.10081095 1.0237048 4080958
-0.52386039 0.10563053 1.0231216 3949120
-0.51410133 0.10503913 1.0260901 3883325
-0.50507468 0.10599343 1.0266725 3817532
-0.49807176 0.10382073 1.0259138 3685946
-0.53177536 0.11165249 1.0209306 4014911
-0.52700353 0.11545693 1.0238252 4080704
-0.51633269 0.11587249 1.0275397 3817533
-0.50306451 0.1151737 1.0275552 3817532
-0.53328562 0.1231159 1.0238302 4014654
-0.52736908 0.12057053 1.0258825 4014911
0.42740986 0.12570453 1.0222205 4804429
0.43264663 0.12601471 1.0247428 3289393
0.44711283 0.12855217 1.0227412 4010039
0.45406753 0.1233619 1.0258759 4211530
-0.60156018 0.13736773 1.0262129 0
-0.59870303 0.13949507 1.0213388 0
-0.58680046 0.1312914 1.0223956 1447960
-0.27390853 0.13888539 1.0250746 11447977
-0.26620853 0.13866511 1.0255027 12171956
0.33990222 0.13744901 1.0268202 396037
0.36915028 0.13462034 1.0265613 2106915
0.3781378 0.13154982 1.024408 659470
0.38792109 0.13108709 1.0208046 659211
0.40743139 0.13200735 1.0279708 4081478
0.46402803 0.1341773 1.023212 0
-0.65512264 0.14026661 1.0269878 3877676
-0.63285762 0.14308357 1.0271442 922893
-0.59627169 0.14235806 1.0219361 0
-0.28380093 0.1460813 1.0285674 10329752
-0.27883306 0.14217617 1.0206302 10592411
-0.26075932 0.14013527 1.0260261 12501179
-0.25363669 0.14564398 1.0254774 12895937
0.30418697 0.14612909 1.0289038 7175038
0.32022324 0.14019294 1.0264484 2303264
0.403519 0.14838457 1.0251393 263683
0.416255 0.14541529 1.0238626 460806
0.42282945 0.14482477 1.0246114 526343
0.46446708 0.14267068 1.0241802 0
-0.59722567 0.1537293 1.023571 0
-0.40120974 0.15805767 1.0245755 9474187
-0.39340875 0.15633608 1.0223998 11119271
-0.38437533 0.15617968 1.025041 9672340
-0.37012336 0.15708348 1.0272876 11251112
-0.36358994 0.15667824 1.0246375 13948885
-0.35765576 0.15713435 1.0276203 11975353
-0.34522069 0.15935726 1.0239322 12633022
-0.33435112 0.15899901 1.0276308 11251113
-0.32841635 0.15999286 1.0280162 10922149
-0.28669432 0.15453033 1.0289044 8421755
-0.25109971 0.15053692 1.0208144 13093316
-0.24998304 0.15434124 1.0276455 12566972
0.16744739 0.15647404 1.023302 7690559
0.18311304 0.15397464 1.0252044 6379857
0.25357077 0.15999895 1.0280553 8422535
0.28773141 0.15877701 1.0202039 4672843
0.30593663 0.15505433 1.027727 5790558
0.36764497 0.15374571 1.0236657 263171
0.3720946 0.15468819 1.0262061 328963
0.4038586 0.15130194 1.026002 0
0.41630831 0.15075414 1.0222874 394756
0.42116129 0.15099931 1.0239499 329476
-0.64665496 0.16469035 1.0224384 6955565
-0.59787422 0.16784073 1.0246826 0
-0.40808395 0.16136125 1.0278332 8290940
-0.33970931 0.16283929 1.0283222 11448746
-0.32247147 0.16261488 1.0269051 11252143
-0.31470042 0.1622107 1.0243527 11252661
-0.30271772 0.16277763 1.0244032 11909558
-0.28691679 0.16165653 1.0297029 10132630
-0.24887596 0.16201144 1.0230944 10329753
0.16411626 0.16455774 1.0250814 4604991
0.19596325 0.16479495 1.0231608 6972505
0.20403999 0.16665906 1.0217087 11250082
0.21474198 0.16676085 1.0237584 9474448
0.22552198 0.1683459 1.0277667 5988445
0.23348968 0.16803589 1.025874 4672069
0.24290718 0.1650064 1.0244005 2369059
0.25683734 0.16029134 1.029934 8356742
0.28374404 0.16165432 1.0208392 3356981
-0.65120316 0.17071874 1.0252178 5643039
-0.64368373 0.17335814 1.0243709 2427917
-0.636949 0.17138818 1.029238 1119245
-0.6001671 0.17408358 1.0286123 0
-0.59570372 0.17518435 1.024148 1186323
-0.54592437 0.17286448 1.0214089 1778203
-0.41430536 0.17921183 1.0259163 2764585
-0.23564686 0.17507173 1.0261432 0
0.16589741 0.17807071 1.0257806 3948601
0.17584047 0.17795146 1.0218846 3750191
0.18496062 0.17735551 1.0244144 3552039
0.19487277 0.17661683 1.0234752 3946797
0.20371237 0.17314908 1.0263964 5460040
0.21059874 0.17177188 1.0231924 5263435
-0.59498137 0.18496737 1.0269237 1052684
-0.57571024 0.18646589 1.0274339 1515031
-0.53925419 0.18734451 1.0245814 1777949
-0.52722508 0.18425024 1.0228846 1515800
nan nan nan 3488565
-0.41308939 0.18146992 1.0229053 5396305
-0.25997019 0.1814727 1.0229211 1251345
-0.21032467 0.18745828 1.0252037 0
0.16189265 0.18573345 1.0233966 10396572
-0.64258486 0.19618219 1.0270516 987150
-0.63756782 0.19785453 1.021255 1975069
-0.62015027 0.19292986 1.0246246 0
-0.61491418 0.19553262 1.0236504 329476
-0.60003954 0.19274049 1.0236188 0
-0.59205663 0.19518717 1.0218658 461575
-0.58904588 0.19278969 1.0238801 988687
-0.57532728 0.19286174 1.0242628 1712926
-0.56426263 0.19665116 1.0295067 1712926
nan nan nan 1514777
nan nan nan 5857368
-0.3703616 0.19765823 1.0202417 3159602
-0.36843765 0.1967278 1.0226089 2961966
0.1586764 0.19947395 1.0296139 11778228
0.16072586 0.19435588 1.0248134 11449261
-0.62201631 0.20144883 1.0254021 922893
-0.37126666 0.20649202 1.0227349 0
-0.36705169 0.20487219 1.0239174 2501672
0.15827437 0.20734811 1.0270051 11975864
0.16120505 0.20454341 1.0234429 11909814
-0.36686179 0.21646413 1.0260011 790029
-0.21049795 0.21693811 1.0260484 0
-0.20970595 0.21194577 1.0221878 0
0.012862741 0.21751435 1.0222083 0
0.11780885 0.21865711 1.0275788 12041661
0.12582019 0.21800788 1.0245277 12041661
0.1347841 0.21640694 1.0245131 12041660
0.14550881 0.21546338 1.0256891 12041659
0.15434107 0.21265045 1.0256164 11910073
-0.21045336 0.22247316 1.025831 6119262
-0.20624807 0.22798932 1.0234431 12239039
-0.1520894 0.22985907 1.0276451 12041661
-0.14481415 0.22940934 1.0256345 12041661
-0.13491374 0.22918701 1.0246406 12041405
-0.12490219 0.22872674 1.0225828 11778489
-0.11502096 0.22845036 1.021347 11449524
-0.10467715 0.22735322 1.0289626 11187122
-0.095773697 0.22616403 1.0235806 11121072
-0.086263239 0.22472146 1.0265536 11251890
-0.076535285 0.22509369 1.0271742 7567223
0.017091664 0.22379537 1.0254924 0
0.025465097 0.22380909 1.0255554 5527381
0.03527499 0.22405462 1.0266805 12041661
0.044919316 0.22339675 1.0236659 12041661
0.054715797 0.2235719 1.0244684 12041661
0.06523741 0.22275022 1.0232674 12041661
0.074808858 0.22138889 1.0247005 12107452
0.085290268 0.22053348 1.0233078 12041918
0.094955564 0.22034492 1.0224328 12041661
0.10483231 0.22062407 1.0237283 11975868
0.11032595 0.22047149 1.0230203 12107454
-0.19434139 0.23134577 1.0218577 12304833
-0.18432254 0.23098934 1.0202833 12239038
-0.17618516 0.23124442 1.02141 12173247
-0.16642202 0.2303405 1.0297974 12239040
-0.15503839 0.23008467 1.0286537 12107454
-0.47396612 0.47062239 1.0281364 0
nan nan nan 2630940
nan nan nan 855303
nan nan nan 1513488
-0.51228487 0.48380417 1.0264186 330244
-0.50949126 0.48380417 1.0264186 461830
-0.47516721 0.48577929 1.0246921 527623
-0.43168077 0.48985764 1.0273964 1580823
-0.41717187 0.4862155 1.0226806 1383444
nan nan nan 1250059
-0.50412446 0.49802384 1.021206 1383444
-0.49300331 0.49802038 1.021199 1909788
-0.48356909 0.49840626 1.0277259 198403
-0.47378111 0.49836326 1.0257206 856589
-0.46122396 0.49414751 1.024695 1383445
-0.44505352 0.49931654 1.0238569 856332
-0.42335707 0.49832314 1.0275545 1711897
-0.41555905 0.49456435 1.0255594 1711897
-0.40187135 0.49662381 1.0298301 1777690
-0.39624274 0.49310732 1.0225381 1777690
-0.3868582 0.49814081 1.0271785 1646616
-0.35531402 0.49705774 1.024973 1777177
-0.31612873 0.49961331 1.0244653 1449238
-0.30701005 0.49924994 1.0265932 855820
-0.29788721 0.4989633 1.0288745 1777690
-0.2859672 0.49631655 1.0262949 1580823
-0.27121958 0.49906811 1.0233474 1185553
-0.26884872 0.49983856 1.0249271 1119759
-0.25149229 0.49582851 1.0224105 1053966
-0.24895412 0.49910143 1.0234157 790794
-0.20122083 0.49815899 1.0214832 658439
-0.19130869 0.49852833 1.0279776 461830
-0.18231055 0.49688065 1.02458 0
-0.16557102 0.49684906 1.0245275 132098
nan nan nan 526853
-0.50210661 0.50995851 1.0284591 0
-0.49578273 0.50079983 1.021199 0
-0.47427368 0.50260276 1.0267768 658442
-0.45200235 0.50467378 1.0290985 0
-0.44674954 0.50470471 1.0234814 0
-0.4397423 0.50306195 1.0201501 0
-0.41189831 0.50917393 1.0268767 0
-0.40350795 0.50636685 1.0268564 0
-0.39879102 0.50188047 1.0291141 1580310
-0.38699323 0.50488031 1.0238376 0
-0.36400795 0.50445831 1.0258124 0
-0.35357454 0.50551325 1.0279632 526856
-0.34214833 0.5009675 1.0272421 1711897
-0.3356398 0.5065636 1.0216163 263940
-0.32581657 0.50382453 1.0251064 197635
-0.31055772 0.50798738 1.0244838 0
-0.30602735 0.50413436 1.0279986 0
-0.29686958 0.5047133 1.0253758 593160
-0.28032893 0.50879157 1.0261056 0
-0.27266535 0.5046801 1.0253291 263684
-0.26506755 0.50385571 1.0264798 461319
-0.24598372 0.50154537 1.0265238 725002
-0.23527125 0.5059942 1.0275249 0
-0.22887269 0.50506353 1.0270607 0
-0.2152971 0.50412995 1.0223157 0
-0.20292619 0.50311923 1.0230846 263170
-0.19781831 0.5028922 1.0254749 263427
-0.18021721 0.50720328 1.0285481 0
-0.17326286 0.50882137 1.0205638 0
-0.16581781 0.50318301 1.0260587 0
-0.49260473 0.5170579 1.0203733 0
-0.46176797 0.51706809 1.0259037 0
-0.41573286 0.51045042 1.0294511 0
-0.40255207 0.51074862 1.0244294 0
-0.36843789 0.51317143 1.0264869 0
-0.34152827 0.51401353 1.0253804 0
-0.32336545 0.51472342 1.0267986 0
-0.30467337 0.51304609 1.0234504 0
-0.2766183 0.5153662 1.0253024 0
-0.26478133 0.51964724 1.0200046 0
-0.25504184 0.5168404 1.0217723 0
-0.24973844 0.51883554 1.0266399 0
-0.22980681 0.51660275 1.0249804 0
-0.20933717 0.51567781 1.0203903 0
-0.19613889 0.51610529 1.0239959 0
-0.17380045 0.51595366 1.0236926 0
-0.16664009 0.51537424 1.0225551 0
-0.4514052 0.52314299 1.0214096 0
-0.44694015 0.52721459 1.023918 0
-0.41240951 0.52304679 1.0212218 0
-0.39078301 0.52803934 1.0228165 0
-0.37513739 0.52617264 1.0219007 0
-0.36247876 0.52319086 1.0215031 0
-0.35803995 0.52762401 1.0247133 0
-0.3311314 0.52919221 1.0277588 0
-0.32668087 0.52523565 1.0255086 0
-0.31852728 0.52406681 1.0232133 0
-0.2865895 0.52144611 1.0235356 0
-0.26287445 0.52972746 1.0233889 0
-0.22947706 0.52143294 1.0235097 0
-0.21448687 0.52641857 1.0250797 0
-0.20562287 0.52734005 1.0296042 0
-0.19339398 0.52318436 1.0242038 0
-0.18646893 0.52332002 1.0244689 0
-0.17424828 0.52847612 1.0263681 0
-0.16447085 0.52427995 1.026359 0
-0.49334037 0.53644937 1.0238261 0
-0.47054753 0.53390259 1.0207207 0
-0.43414328 0.53698158 1.0266072 0
-0.42301545 0.53564513 1.0267243 0
-0.3770245 0.53617501 1.0232953 0
-0.36757419 0.53641337 1.0202123 0
-0.30996227 0.5376265 1.0225195 0
-0.29438838 0.53612751 1.0231967 0
-0.28981718 0.53917414 1.020182 0
-0.26164868 0.53850812 1.0295255 0
-0.24952199 0.53932512 1.0257502 0
-0.22589765 0.53513265 1.0230815 0
-0.21296681 0.53587466 1.024491 0
-0.20300615 0.53606182 1.0248643 0
-0.19210218 0.5373888 1.0247271 0
-0.18598841 0.53212571 1.0244324 0
-0.17572515 0.53570348 1.0252575 0
-0.15991622 0.53006101 1.0240332 0
-0.5019328 0.54895687 1.0281031 0
-0.4959192 0.54555917 1.0243409 0
-0.46501005 0.54503703 1.0207618 0
-0.42659059 0.54564548 1.0219014 0
-0.41244382 0.54063249 1.0282366 0
-0.40872291 0.54779202 1.0259215 0
-0.39754647 0.54778188 1.0259025 0
-0.36271086 0.54717308 1.0221572 0
-0.33752578 0.54832548 1.0217125 0
-0.32609284 0.54178149 1.0251155 0
-0.29801831 0.541206 1.0293274 0
-0.28295895 0.54665577 1.0255396 0
-0.25183919 0.5438838 1.0238208 0
-0.23115036 0.54299301 1.0247811 0
-0.21518573 0.5470103 1.0261991 0
-0.20289591 0.54745555 1.0253037 0
-0.1918959 0.54379171 1.0236475 0
-0.18587224 0.54291242 1.0237408 0
-0.17872895 0.54743546 1.0200542 0
-0.1633888 0.54628837 1.0283473 0
-0.15966891 0.54593813 1.0224495 0
-0.44202057 0.55693793 1.0222082 0
-0.43046239 0.55539638 1.0244967 0
-0.40690148 0.5519011 1.0283751 0
-0.35368705 0.55744463 1.0282749 0
-0.335141 0.55175829 1.0229213 0
-0.32048854 0.55050099 1.0205904 0
-0.30653372 0.55821699 1.0296996 0
-0.29170257 0.55386055 1.0268188 0
-0.28290707 0.55026567 1.0253278 0
-0.27150032 0.55534762 1.0244067 0
-0.23301941 0.55387414 1.026844 0
-0.22444011 0.55481255 1.025997 0
-0.21060322 0.55651575 1.0265615 0
-0.20268866 0.55537224 1.0218807 0
-0.19816412 0.55299109 1.0200598 0
-0.18501329 0.55146575 1.0241039 0
-0.41525367 0.562047 1.0213809 0
-0.39183521 0.56156117 1.0255705 0
-0.36913905 0.56379396 1.0245556 0
-0.35368705 0.56024331 1.0282749 0
-0.3456901 0.56193995 1.0211864 0
-0.3163425 0.56133533 1.025158 0
-0.3033433 0.56469768 1.0236714 0
-0.28169942 0.56320077 1.0260137 0
-0.27623993 0.56575942 1.0247481 0
-0.24933764 0.56961381 1.0249923 0
-0.23893256 0.56722015 1.0282366 0
-0.22436585 0.56855881 1.0256133 0
-0.20403101 0.5663569 1.0216334 0
-0.19128181 0.56000262 1.0278331 0
-0.18798488 0.56409883 1.0251095 0
-0.17268232 0.56424415 1.0253737 0
-0.16895127 0.5657624 1.0281327 0
-0.15770665 0.56837511 1.0277971 0
-0.43790758 0.57693553 1.0256181 0
-0.40685439 0.57365477 1.0247459 0
-0.37782812 0.57823175 1.0254334 0
-0.32320523 0.57261491 1.0203977 0
-0.31091052 0.57835251 1.0256476 0
-0.29526883 0.57492584 1.0295089 0
-0.28587797 0.57853699 1.0259748 0
-0.26913613 0.5701865 1.0260229 0
-0.25100592 0.57541215 1.0204332 0
-0.24021105 0.57894737 1.0217707 0
-0.23440973 0.57280046 1.0207283 0
-0.21755061 0.57317662 1.0263767 0
-0.1873138 0.57876557 1.0214499 0
-0.1792431 0.57963747 1.0229887 0
-0.16617894 0.57984436 1.0282933 0
-0.15587443 0.57236159 1.0249172 0
nan nan nan 0
-0.45867431 0.5809074 1.0252299 0
-0.4098362 0.58008271 1.028716 0
-0.34168196 0.58683819 1.0258418 0
-0.32571062 0.58265114 1.0283074 0
-0.31302845 0.58129698 1.0234647 0
-0.29925817 0.58438176 1.0239837 0
-0.28880364 0.58299428 1.0264482 0
-0.27906558 0.58434379 1.0214814 0
-0.2679362 0.58710498 1.0214484 0
-0.25098115 0.58924061 1.0203325 0
-0.20650852 0.58912724 1.0201361 0
-0.19753234 0.58717465 1.0240008 0
-0.18806782 0.58388674 1.0255618 0
-0.17082608 0.58776951 1.0226045 0
-0.16520309 0.58756852 1.0222548 0
-0.15977983 0.58391154 1.0231597 0
nan nan nan 0
nan nan nan 0
-0.24397245 0.59661031 1.0258505 0
-0.23782356 0.59104913 1.0234641 0
-0.22727962 0.59260935 1.0261657 0
-0.2166533 0.59690493 1.0287555 0
-0.18222712 0.59421015 1.0241112 0
-0.15191308 0.59417027 1.0264537 0
nan nan nan 3686451
nan nan nan 6648674
nan nan nan 2304546
nan nan nan 6780262
nan nan nan 7635058
nan nan nan 5135955
nan nan nan 9805718
nan nan nan 12042680
nan nan nan 9280144
nan nan nan 12108473
nan nan nan 11714228
nan nan nan 11451056
nan nan nan 12438458
nan nan nan 7371890
nan nan nan 6252393
nan nan nan 3685436
-0.63408554 -0.16792285 1.0314152 5133394
-0.61848629 -0.16507304 1.0311491 0
-0.594396 -0.1660735 1.0315607 3159347
-0.57694334 -0.16328877 1.0346661 2500904
-0.56439906 -0.16567264 1.0348947 4805197
-0.55429208 -0.16237131 1.0318148 4672843
-0.58242881 -0.15395993 1.0319057 0
-0.57278132 -0.15540779 1.0322385 4870222
-0.56270796 -0.15189303 1.0369689 0
-0.55154502 -0.15435755 1.0345645 4672842
-0.53309178 -0.15337229 1.0342731 4409925
-0.52332526 -0.15293252 1.0344455 4540999
-0.51706171 -0.15133652 1.0331697 4409670
-0.57804835 -0.14866087 1.0341181 0
-0.56702632 -0.14872283 1.0345491 1448725
-0.55364048 -0.14553431 1.035858 2764330
-0.54535735 -0.14331454 1.0361826 4146238
-0.56079626 -0.13731328 1.0334461 4409409
-0.55413932 -0.13573872 1.0321773 4409409
-0.54298705 -0.13528772 1.0355825 4277823
-0.53512263 -0.13554414 1.0371083 4212030
-0.52812082 -0.13562818 1.0377735 4277309
-0.57864112 -0.12005412 1.0301625 4606789
-0.55398494 -0.12017954 1.0312387 4606274
-0.54278451 -0.12645593 1.0366504 4212030
-0.53576851 -0.12450828 1.0380903 4212030
-0.5512467 -0.1145803 1.0313668 4671554
-0.54116052 -0.1155084 1.0346327 4540481
-0.53648341 -0.114324 1.035383 4277567
-0.52843511 -0.11454298 1.0352645 4146494
-0.55066502 -0.10236178 1.0355519 2303009
-0.54566026 -0.10490016 1.0343723 4475202
-0.53550023 -0.10657973 1.0354763 4277824
-0.52966601 -0.10972913 1.0385888 4409409
-0.54413533 -0.095241874 1.0347474 4409410
-0.53750736 -0.095228486 1.0346484 4343617
-0.54538977 -0.084759325 1.0337727 4475202
-0.53671467 -0.085474119 1.0358363 4343617
-0.54639012 -0.076067179 1.0344008 4475202
-0.53483135 -0.076145522 1.0354617 4343617
-0.52635086 -0.074534535 1.0339332 4343616
-0.54448068 -0.067767449 1.0309603 4540996
-0.53621852 -0.063988492 1.0348816 4343617
-0.52704912 -0.066112682 1.0343802 4277823
-0.54061961 -0.053958397 1.0352131 4540738
-0.53757221 -0.054866113 1.0368111 4409665
-0.52470779 -0.056095332 1.0399668 4474688
-0.55066752 -0.047160584 1.0302832 4738375
-0.54549187 -0.044556554 1.0349168 4540740
-0.53636324 -0.044135794 1.0360783 4408897
-0.54253578 -0.037684817 1.0318831 4672068
-0.53579801 -0.033450093 1.0320896 4343873
-0.52705878 -0.035548519 1.0351495 4277310
-0.53629297 -0.024408616 1.0350273 4343617
-0.53357774 -0.016383298 1.0346692 4343617
