# .PCD v0.7 - Point Cloud Data file format
VERSION 0.7
FIELDS x y z rgba
SIZE 4 4 4 4
TYPE F F F U
COUNT 1 1 1 1
WIDTH 1112
HEIGHT 1
VIEWPOINT 0 0 0 1 0 0 0
POINTS 1112
DATA ascii
0.31868359 0.80707932 1.4523 4278190080
0.32191136 0.80526572 1.4490365 4278190080
0.32528192 0.80384892 1.4464871 4278190080
0.32834095 0.80170536 1.4426298 4278190080
0.33334342 0.80430168 1.4473017 4278190080
0.33714053 0.80396301 1.4466923 4278190080
0.34095806 0.8036803 1.4461836 4278190080
0.3446084 0.80301434 1.4449853 4278190080
0.34883195 0.80368412 1.4461905 4278190080
0.3532398 0.80475885 1.4481244 4278190080
0.35761303 0.80573183 1.4498752 4278190080
0.36208501 0.8069036 1.4519838 4278190080
0.36494896 0.80450535 1.4476682 4278190080
0.36916721 0.80511189 1.4487597 4278190080
0.37308237 0.80505151 1.4486511 4278190080
0.37839064 0.80796713 1.4538976 4278190080
0.38240534 0.8080889 1.4541167 4278190080
0.38507065 0.80538583 1.4492526 4278190080
0.38701952 0.80125433 1.4418182 4278190080
0.38925132 0.79778564 1.4355764 4278190080
0.39320621 0.79788238 1.4357505 4278190080
0.39672297 0.79709685 1.434337 4278190080
0.40197763 0.79978442 1.4391732 4278190080
0.40775719 0.80345446 1.4457772 4278190080
0.41214508 0.80433834 1.4473677 4278190080
0.41488224 0.80201441 1.4431859 4278190080
0.35267836 0.65689051 1.1820425 4278190080
0.36205706 0.66826308 1.2025069 4278190080
0.37224427 0.68091077 1.2252659 4278190080
0.38959071 0.70631331 1.2709764 4278190080
0.380669 0.68406463 1.2309411 4278190080
0.37873244 0.67464709 1.2139946 4278190080
0.38343021 0.67710811 1.2184231 4278190080
0.45631912 0.79212254 1.425386 4278190080
0.46203235 0.79527885 1.4310656 4278190080
0.46763483 0.7981934 1.4363102 4278190080
0.46957338 0.79485756 1.4303075 4278190080
0.47460473 0.79676878 1.4337467 4278190080
0.47811493 0.79611599 1.432572 4278190080
0.48374909 0.79898179 1.4377289 4278190080
0.48685533 0.79765981 1.4353501 4278190080
0.49207091 0.79978734 1.4391785 4278190080
0.49688879 0.80123997 1.4417924 4278190080
0.50184774 0.80289555 1.4447715 4278190080
0.50578004 0.80289555 1.4447715 4278190080
0.50876492 0.80140334 1.4420863 4278190080
0.50992155 0.79707605 1.4342996 4278190080
0.51259702 0.79517072 1.430871 4278190080
0.51848269 0.79823631 1.4363874 4278190080
0.52425045 0.80107588 1.4414971 4278190080
0.52596313 0.79772294 1.4354637 4278190080
0.52848423 0.79563659 1.4317094 4278190080
0.53266847 0.79606628 1.4324826 4278190080
0.53700805 0.79672033 1.4336594 4278190080
0.53974515 0.79500449 1.4305719 4278190080
0.54413724 0.79573339 1.4318836 4278190080
0.55035174 0.79909807 1.4379381 4278190080
0.55119467 0.79467094 1.4299717 4278190080
0.55440944 0.79370147 1.4282272 4278190080
0.55851662 0.79401416 1.4287899 4278190080
0.56271875 0.79445654 1.4295859 4278190080
0.56730556 0.79543227 1.4313416 4278190080
0.56931406 0.7928043 1.4266127 4278190080
0.57423991 0.79424679 1.4292085 4278190080
0.57682556 0.79245508 1.4259844 4278190080
0.58152562 0.7935726 1.4279953 4278190080
0.58701026 0.79573882 1.4318933 4278190080
0.59140247 0.79640549 1.433093 4278190080
0.59325224 0.79366201 1.4281561 4278190080
0.59549952 0.79148257 1.4242344 4278190080
0.59854496 0.79038537 1.42226 4278190080
0.60241598 0.79038537 1.42226 4278190080
0.6075781 0.79206854 1.4252888 4278190080
0.61172324 0.792413 1.4259087 4278190080
0.61533964 0.79207247 1.4252959 4278190080
0.61926824 0.79213566 1.4254096 4278190080
0.62146258 0.78999346 1.4215548 4278190080
0.62524879 0.7898888 1.4213665 4278190080
0.6295228 0.79039782 1.4222825 4278190080
0.6319015 0.78853554 1.4189314 4278190080
0.63096112 0.7825793 1.4082134 4278190080
0.6355319 0.78348911 1.4098506 4278190080
0.63758433 0.78130203 1.405915 4278190080
0.051390436 0.83531159 1.4957769 4278190080
0.055463981 0.83534873 1.4958434 4278190080
0.059323486 0.83237755 1.490523 4278190080
0.063169412 0.82960838 1.4855642 4278190080
0.067045152 0.8275404 1.4818611 4278190080
0.071140662 0.82826573 1.48316 4278190080
0.075301342 0.82963127 1.4856052 4278190080
0.079117663 0.82725692 1.4813535 4278190080
0.0829366 0.82513893 1.4775609 4278190080
0.086715184 0.82283396 1.4734334 4278190080
0.09090247 0.82443941 1.4763082 4278190080
0.095292352 0.82766861 1.4820907 4278190080
0.099608511 0.8300212 1.4863034 4278190080
0.10392196 0.83216846 1.4901485 4278190080
0.10747592 0.82830119 1.4832234 4278190080
0.11132847 0.82693172 1.4807712 4278190080
0.11503948 0.82464331 1.4766734 4278190080
0.11910088 0.82493639 1.4771982 4278190080
0.1226733 0.8219341 1.471822 4278190080
0.12693618 0.82360166 1.4748081 4278190080
0.13102554 0.82407552 1.4756566 4278190080
0.13532124 0.82578039 1.4787096 4278190080
0.13901886 0.82384259 1.4752395 4278190080
0.14282028 0.82261133 1.4730347 4278190080
0.14697425 0.82342243 1.4744872 4278190080
0.15222463 0.83016986 1.4865696 4278190080
0.18951198 0.83401251 1.4934506 4278190080
0.18860763 0.81260347 1.4551139 4278190080
0.19318864 0.81522232 1.4598033 4278190080
0.19769141 0.81741214 1.4637246 4278190080
0.20115036 0.81528461 1.4599149 4278190080
0.20468564 0.81354302 1.4567963 4278190080
0.20947351 0.81675148 1.4625416 4278190080
0.21338105 0.81647187 1.4620409 4278190080
0.21799634 0.81886101 1.4663191 4278190080
0.22266133 0.82134753 1.4707717 4278190080
0.22748564 0.82432353 1.4761008 4278190080
0.23023699 0.81981504 1.4680275 4278190080
0.23367688 0.8178702 1.4645449 4278190080
0.23757769 0.81757677 1.4640194 4278190080
0.24199878 0.81905389 1.4666646 4278190080
0.24637699 0.82034034 1.4689682 4278190080
0.24973011 0.81822711 1.465184 4278190080
0.25350538 0.8175416 1.4639565 4278190080
0.25570774 0.81188333 1.4538243 4278190080
0.25946754 0.81126708 1.4527208 4278190080
0.26384673 0.81257683 1.4550662 4278190080
0.26871446 0.81533021 1.4599966 4278190080
0.27175027 0.81252599 1.4549751 4278190080
0.27479357 0.80982435 1.4501374 4278190080
0.27796802 0.80758029 1.446119 4278190080
0.28130016 0.80585057 1.4430215 4278190080
0.28637052 0.80907947 1.4488035 4278190080
0.29040715 0.80933976 1.4492697 4278190080
0.295187 0.81163669 1.4533826 4278190080
0.29940471 0.81234759 1.4546556 4278190080
0.30201647 0.80873948 1.4481947 4278190080
0.304535 0.80497795 1.4414589 4278190080
0.30855694 0.80523551 1.4419202 4278190080
0.31290743 0.80633324 1.4438859 4278190080
0.31754014 0.80812198 1.447089 4278190080
0.32016826 0.80482787 1.4411902 4278190080
0.32372385 0.80391663 1.4395585 4278190080
0.32656524 0.80127484 1.4348279 4278190080
0.33118206 0.80300033 1.4379177 4278190080
0.33505106 0.8028934 1.4377263 4278190080
0.33972231 0.80468929 1.440942 4278190080
0.34433866 0.80631554 1.4438542 4278190080
0.34823349 0.80623466 1.4437094 4278190080
0.3529667 0.80807501 1.4470048 4278190080
0.35655445 0.80728126 1.4455835 4278190080
0.3595247 0.8051219 1.4417168 4278190080
0.36130232 0.80036736 1.4332029 4278190080
0.36674672 0.80375034 1.4392607 4278190080
0.37239605 0.80750614 1.4459862 4278190080
0.37677896 0.80846602 1.447705 4278190080
0.38012618 0.80720675 1.4454501 4278190080
0.38300151 0.80498147 1.4414653 4278190080
0.38673973 0.80459648 1.4407759 4278190080
0.38927522 0.80174214 1.4356647 4278190080
0.39283264 0.80102831 1.4343865 4278190080
0.396927 0.80141264 1.4350747 4278190080
0.40229577 0.80433756 1.4403123 4278190080
0.40712619 0.80614001 1.4435399 4278190080
0.41023293 0.80452764 1.4406526 4278190080
0.41344857 0.80315733 1.4381988 4278190080
0.41953957 0.80734599 1.4456993 4278190080
0.42389837 0.80815434 1.4471469 4278190080
0.36059764 0.67493021 1.2085849 4278190080
0.3567048 0.6616087 1.1847303 4278190080
0.3806085 0.69962043 1.2527972 4278190080
0.36037642 0.65654874 1.1756696 4278190080
0.38826922 0.70113945 1.2555174 4278190080
0.45631912 0.79600203 1.425386 4278190080
0.46203235 0.79917377 1.4310656 4278190080
0.46703681 0.80107689 1.4344734 4278190080
0.46781358 0.79575706 1.4249473 4278190080
0.47087607 0.79438072 1.4224827 4278190080
0.47557449 0.79576421 1.4249601 4278190080
0.48222986 0.80037332 1.4332136 4278190080
0.48687232 0.80159438 1.4354001 4278190080
0.49089909 0.80179048 1.4357512 4278190080
0.4948068 0.80179048 1.4357512 4278190080
0.49901849 0.80227917 1.4366263 4278190080
0.50444758 0.80470234 1.4409654 4278190080
0.50871265 0.80524552 1.4419382 4278190080
0.51236969 0.80482537 1.4411857 4278190080
0.51276529 0.79932743 1.4313407 4278190080
0.51600379 0.7983107 1.42952 4278190080
0.52131122 0.80048597 1.4334153 4278190080
0.52284849 0.79688281 1.4269632 4278190080
0.52508128 0.79438514 1.4224906 4278190080
0.52771074 0.79251963 1.4191501 4278190080
0.53190243 0.79301035 1.4200288 4278190080
0.53494143 0.79178786 1.4178398 4278190080
0.54056966 0.79438794 1.4224956 4278190080
0.54854518 0.80037582 1.433218 4278190080
0.55185544 0.79952019 1.4316859 4278190080
0.55377769 0.79667985 1.4265997 4278190080
0.55590808 0.79417634 1.4221168 4278190080
0.56271875 0.79834747 1.4295859 4278190080
0.56350583 0.79397422 1.4217548 4278190080
0.56748265 0.79412425 1.4220234 4278190080
0.56719333 0.78834271 1.4116706 4278190080
0.57342237 0.7916379 1.4175712 4278190080
0.57724333 0.79158682 1.4174798 4278190080
0.5815472 0.79219425 1.4185674 4278190080
0.58459365 0.79109198 1.4165937 4278190080
0.58907378 0.79193169 1.4180973 4278190080
0.59302467 0.79205352 1.4183154 4278190080
0.59688491 0.79205352 1.4183154 4278190080
0.60121948 0.79267883 1.4194351 4278190080
0.6056295 0.79339504 1.4207177 4278190080
0.61050409 0.79470694 1.4230669 4278190080
0.61512262 0.79567111 1.4247934 4278190080
0.6151517 0.7907238 1.4159343 4278190080
0.61686206 0.78798574 1.4110314 4278190080
0.621512 0.78901345 1.4128716 4278190080
0.62470454 0.78818965 1.4113965 4278190080
0.62245649 0.78055352 1.3977226 4278190080
0.63096112 0.78641206 1.4082134 4278190080
0.63151205 0.78234637 1.400933 4278190080
0.63813531 0.78580695 1.4071299 4278190080
-0.079064034 0.84129685 1.4991879 4278190080
-0.0097010862 0.84157854 1.4996899 4278190080
0.0025408855 0.84051317 1.4977914 4278190080
0.030971216 0.83765668 1.4927012 4278190080
0.034903079 0.83452821 1.4871262 4278190080
0.039015226 0.83591247 1.489593 4278190080
0.043099631 0.83649778 1.490636 4278190080
0.04708045 0.83514488 1.4882251 4278190080
0.05090851 0.8315112 1.4817499 4278190080
0.054889236 0.83072156 1.4803427 4278190080
0.058980625 0.83160013 1.4819084 4278190080
0.063062862 0.83224547 1.4830585 4278190080
0.067069501 0.83187556 1.4823992 4278190080
0.071097299 0.83179522 1.4822561 4278190080
0.075047374 0.83086294 1.4805948 4278190080
0.078963794 0.82967204 1.4784726 4278190080
0.082748868 0.82728356 1.4742163 4278190080
0.08646746 0.82448208 1.4692241 4278190080
0.090754844 0.82711208 1.4739107 4278190080
0.095085271 0.82989502 1.4788699 4278190080
0.099288419 0.83138621 1.4815272 4278190080
0.1033724 0.83180201 1.4822682 4278190080
0.10679609 0.82707316 1.4738413 4278190080
0.11090661 0.82781315 1.47516 4278190080
0.11463338 0.82573718 1.4714607 4278190080
0.11899114 0.82819313 1.4758371 4278190080
0.12278097 0.82666492 1.4731139 4278190080
0.12678975 0.82666093 1.4731067 4278190080
0.13078895 0.82659656 1.4729921 4278190080
0.13479213 0.8265605 1.4729278 4278190080
0.13846228 0.82454324 1.4693331 4278190080
0.14224359 0.82328272 1.4670868 4278190080
0.14646414 0.8245638 1.4693696 4278190080
0.15155818 0.8305636 1.4800613 4278190080
0.16403504 0.83255291 1.4836062 4278190080
0.18466204 0.81662947 1.4552307 4278190080
0.18788937 0.81345421 1.4495724 4278190080
0.19223033 0.81513184 1.452562 4278190080
0.19644363 0.81621146 1.4544859 4278190080
0.20039505 0.81618184 1.4544331 4278190080
0.2041378 0.81531996 1.4528972 4278190080
0.20890161 0.8184914 1.4585487 4278190080
0.21258759 0.81740022 1.4566042 4278190080
0.21692492 0.81880766 1.4591123 4278190080
0.22127403 0.82020813 1.4616079 4278190080
0.22649093 0.82471901 1.4696463 4278190080
0.23007821 0.82324243 1.467015 4278190080
0.23396096 0.82285535 1.4663253 4278190080
0.23738776 0.82090461 1.462849 4278190080
0.24044116 0.81774825 1.4572244 4278190080
0.24464665 0.81854904 1.4586514 4278190080
0.24827915 0.81743777 1.4566711 4278190080
0.25244096 0.81807667 1.4578097 4278190080
0.25512293 0.81397438 1.4504994 4278190080
0.25989363 0.81655967 1.4551064 4278190080
0.26234812 0.8118993 1.4468017 4278190080
0.26571792 0.81016761 1.4437157 4278190080
0.27175027 0.816486 1.4549751 4278190080
0.27479357 0.81377125 1.4501374 4278190080
0.27796802 0.81151623 1.446119 4278190080
0.28187796 0.81144142 1.4459857 4278190080
0.28664508 0.81380224 1.4501927 4278190080
0.28967822 0.81124294 1.445632 4278190080
0.29427788 0.81308043 1.4489064 4278190080
0.29785186 0.81207299 1.4471111 4278190080
0.30139855 0.81101829 1.4452317 4278190080
0.30419248 0.80799139 1.4398377 4278190080
0.30798286 0.80765456 1.4392375 4278190080
0.3122085 0.80845332 1.4406608 4278190080
0.31581783 0.80765605 1.4392401 4278190080
0.31968904 0.80753982 1.439033 4278190080
0.32425591 0.80916244 1.4419246 4278190080
0.32660535 0.8052789 1.4350041 4278190080
0.32972404 0.80336154 1.4315873 4278190080
0.33379343 0.80377811 1.4323297 4278190080
0.33960405 0.80832958 1.4404404 4278190080
0.34388894 0.80918717 1.4419686 4278190080
0.3464267 0.80596054 1.4362187 4278190080
0.3519268 0.80962104 1.4427418 4278190080
0.35709465 0.81244475 1.4477736 4278190080
0.35962224 0.80926543 1.442108 4278190080
0.36056289 0.80262214 1.4302697 4278190080
0.36535105 0.80459398 1.4337835 4278190080
0.37108681 0.80858892 1.4409025 4278190080
0.37570906 0.81009936 1.4435941 4278190080
0.37760961 0.80577081 1.4358807 4278190080
0.38071218 0.80406958 1.432849 4278190080
0.38529232 0.80549192 1.4353837 4278190080
0.38994321 0.80703205 1.4381282 4278190080
0.39232579 0.80389374 1.4325358 4278190080
0.39674416 0.80494756 1.4344137 4278190080
0.39977241 0.80318797 1.431278 4278190080
0.40538001 0.80659449 1.4373485 4278190080
0.4080117 0.80407131 1.4328521 4278190080
0.41188031 0.80401039 1.4327435 4278190080
0.41488546 0.8022809 1.4296616 4278190080
0.4221327 0.80871046 1.4411191 4278190080
0.37243605 0.68793464 1.2258971 4278190080
0.38329849 0.70171249 1.2504491 4278190080
0.38539866 0.69934767 1.246235 4278190080
0.45595115 0.79923648 1.4242365 4278190080
0.46242118 0.80374461 1.4322699 4278190080
0.46653873 0.80412263 1.4329436 4278190080
0.46688759 0.79805249 1.4221267 4278190080
0.46841171 0.79407465 1.4150381 4278190080
0.47120976 0.79230362 1.4118822 4278190080
0.47781497 0.79691088 1.4200923 4278190080
0.48295489 0.79901999 1.4238508 4278190080
0.4868302 0.79901999 1.4238508 4278190080
0.49138376 0.80012441 1.4258188 4278190080
0.49457186 0.79900551 1.4238249 4278190080
0.49896255 0.79983175 1.4252973 4278190080
0.50541145 0.80391908 1.4325808 4278190080
0.51002681 0.80504966 1.4345956 4278190080
0.51115388 0.80069894 1.4268426 4278190080
0.51328629 0.79797661 1.4219915 4278190080
0.51674473 0.79734117 1.4208591 4278190080
0.51962346 0.79582739 1.4181615 4278190080
0.52301759 0.79511935 1.4168998 4278190080
0.52609396 0.79394227 1.4148022 4278190080
0.5321539 0.797252 1.4207002 4278190080
0.5343886 0.7948246 1.4163746 4278190080
0.53751731 0.79375213 1.4144634 4278190080
0.54596126 0.80048805 1.4264668 4278190080
0.55098087 0.80214363 1.429417 4278190080
0.55377769 0.80056268 1.4265997 4278190080
0.55590808 0.79804695 1.4221168 4278190080
0.55998802 0.79834539 1.4226485 4278190080
0.56418288 0.79880244 1.423463 4278190080
0.56713641 0.7975077 1.4211558 4278190080
0.56845498 0.79394698 1.4148107 4278190080
0.57190138 0.79338604 1.4138111 4278190080
0.57971108 0.79884535 1.4235395 4278190080
0.58024561 0.79427344 1.4153924 4278190080
0.58502412 0.79553288 1.4176368 4278190080
0.59050453 0.79772419 1.4215416 4278190080
0.59437358 0.79772419 1.4215416 4278190080
0.59887582 0.79856849 1.4230461 4278190080
0.60102254 0.79628122 1.4189702 4278190080
0.60477322 0.79613465 1.418709 4278190080
0.61016369 0.79813486 1.4222734 4278190080
0.6132201 0.79707599 1.4203866 4278190080
0.61487985 0.79422635 1.4153085 4278190080
0.61706609 0.79208809 1.4114981 4278190080
0.62215853 0.79368365 1.4143413 4278190080
0.62470454 0.79203105 1.4113965 4278190080
0.62245649 0.78435773 1.3977226 4278190080
0.62290287 0.78015226 1.3902285 4278190080
0.62915111 0.78322023 1.3956956 4278190080
0.63286573 0.78311616 1.3955102 4278190080
-0.079091646 0.84567243 1.4997115 4278190080
-0.054504793 0.8441838 1.4970715 4278190080
-0.038259272 0.84535247 1.4991441 4278190080
-0.034166601 0.84504521 1.4985992 4278190080
-0.017846266 0.84479487 1.4981552 4278190080
-0.013783358 0.84569347 1.4997488 4278190080
0.0025410776 0.84465361 1.4979047 4278190080
0.030988233 0.84218186 1.4935213 4278190080
0.034842741 0.83712608 1.4845554 4278190080
0.038838536 0.83616269 1.482847 4278190080
0.043084901 0.84026754 1.4901265 4278190080
0.046986856 0.8375271 1.4852666 4278190080
0.050754596 0.833018 1.4772701 4278190080
0.054537863 0.82940692 1.4708663 4278190080
0.058696032 0.83160138 1.4747579 4278190080
0.062946714 0.83474171 1.480327 4278190080
0.067142233 0.83681673 1.4840068 4278190080
0.07106252 0.83542061 1.4815309 4278190080
0.074955672 0.8338725 1.4787855 4278190080
0.078883961 0.83285314 1.4769778 4278190080
0.082817852 0.83198899 1.4754453 4278190080
0.086479306 0.82859439 1.4694253 4278190080
0.090591125 0.82962424 1.4712517 4278190080
0.094858579 0.83193195 1.4753442 4278190080
0.099058427 0.83348334 1.4780954 4278190080
0.10288163 0.83186817 1.4752311 4278190080
0.10658171 0.82941622 1.4708828 4278190080
0.1107265 0.83047724 1.4727644 4278190080
0.11491696 0.83179468 1.4751008 4278190080
0.11931641 0.83448488 1.4798715 4278190080
0.12309892 0.83282542 1.4769286 4278190080
0.1269528 0.83173847 1.4750011 4278190080
0.13063194 0.82960844 1.4712237 4278190080
0.13451742 0.82887661 1.4699259 4278190080
0.13813363 0.82657582 1.4658456 4278190080
0.14170845 0.82416338 1.4615674 4278190080
0.14603847 0.82615495 1.4650992 4278190080
0.18327329 0.81441891 1.4442866 4278190080
0.18785366 0.81724417 1.449297 4278190080
0.19207802 0.81843632 1.4514111 4278190080
0.19662185 0.82091427 1.4558054 4278190080
0.20015495 0.81915778 1.4526905 4278190080
0.20427988 0.81984454 1.4539084 4278190080
0.20880626 0.82208568 1.4578829 4278190080
0.21278699 0.82213509 1.4579705 4278190080
0.21648015 0.82109195 1.4561206 4278190080
0.22046795 0.8211838 1.4562835 4278190080
0.22559188 0.82542944 1.4638126 4278190080
0.22932863 0.82454014 1.4622356 4278190080
0.23386021 0.82649022 1.4656938 4278190080
0.2367918 0.82281518 1.4591765 4278190080
0.24044399 0.82172406 1.4572415 4278190080
0.24384207 0.81981397 1.4538542 4278190080
0.24804676 0.82063353 1.4553076 4278190080
0.25159097 0.81927657 1.4529011 4278190080
0.25478703 0.8168453 1.4485896 4278190080
0.25989363 0.82052004 1.4551064 4278190080
0.26234812 0.81583714 1.4468017 4278190080
0.26571792 0.81409699 1.4437157 4278190080
0.26905665 0.81231374 1.4405533 4278190080
0.27312839 0.81276298 1.44135 4278190080
0.27685946 0.81220007 1.4403517 4278190080
0.28080967 0.81228679 1.4405055 4278190080
0.28458583 0.81187457 1.4397745 4278190080
0.28856608 0.8120479 1.4400818 4278190080
0.29230431 0.81154466 1.4391894 4278190080
0.29682085 0.813187 1.442102 4278190080
0.30010629 0.81145769 1.4390352 4278190080
0.30352697 0.81013393 1.4366877 4278190080
0.30751061 0.81032735 1.4370307 4278190080
0.31131333 0.81004506 1.4365301 4278190080
0.31428063 0.80762297 1.4322348 4278190080
0.31812671 0.80749083 1.4320004 4278190080
0.32363585 0.81153214 1.4391673 4278190080
0.32662636 0.80923671 1.4350965 4278190080
0.32934347 0.80632615 1.429935 4278190080
0.3334603 0.80687046 1.4309002 4278190080
0.33841783 0.80941296 1.4354091 4278190080
0.34031039 0.80465043 1.4269632 4278190080
0.3434948 0.80301541 1.4240637 4278190080
0.34963706 0.80825454 1.4333547 4278190080
0.35472319 0.81096351 1.4381589 4278190080
0.35785434 0.80919272 1.4350185 4278190080
0.35863674 0.80220646 1.4226291 4278190080
0.36398321 0.80546933 1.4284155 4278190080
0.36834076 0.80649805 1.4302398 4278190080
0.37374601 0.80977517 1.4360515 4278190080
0.37498623 0.80405378 1.4259051 4278190080
0.37936488 0.80511004 1.4277784 4278190080
0.38285166 0.8042714 1.4262911 4278190080
0.38872883 0.80842078 1.4336495 4278190080
0.3912504 0.80557853 1.4286091 4278190080
0.39479822 0.80488443 1.4273782 4278190080
0.39799681 0.80349886 1.424921 4278190080
0.40230092 0.80435032 1.4264311 4278190080
0.40497711 0.80196184 1.4221953 4278190080
0.40897727 0.80221552 1.4226452 4278190080
0.41270131 0.80192798 1.4221352 4278190080
0.41980499 0.80815172 1.4331725 4278190080
0.42812109 0.81657344 1.4481075 4278190080
0.4136079 0.78169543 1.3862549 4278190080
0.38539866 0.7027396 1.246235 4278190080
0.43448451 0.77186364 1.3688194 4278190080
0.45315909 0.79819489 1.4155151 4278190080
0.46058694 0.80443919 1.4265887 4278190080
0.46257761 0.80116218 1.4207772 4278190080
0.46371731 0.79647791 1.4124701 4278190080
0.46490836 0.79195809 1.4044547 4278190080
0.47035092 0.79469526 1.4093088 4278190080
0.47537974 0.79669476 1.4128547 4278190080
0.47922513 0.79669476 1.4128547 4278190080
0.48515713 0.80013603 1.4189575 4278190080
0.48799944 0.79846764 1.4159987 4278190080
0.49096647 0.79702783 1.4134454 4278190080
0.49508464 0.79746461 1.41422 4278190080
0.50093752 0.80066729 1.4198996 4278190080
0.50653607 0.80341756 1.4247769 4278190080
0.50862545 0.8006025 1.4197847 4278190080
0.51091462 0.7981419 1.415421 4278190080
0.51373249 0.79653794 1.4125766 4278190080
0.51780629 0.79689062 1.413202 4278190080
0.51964724 0.79382718 1.4077693 4278190080
0.52489334 0.79597217 1.4115733 4278190080
0.52917105 0.79662836 1.4127369 4278190080
0.5333882 0.79718441 1.413723 4278190080
0.53535628 0.79439521 1.4087766 4278190080
0.5425753 0.79938197 1.4176202 4278190080
0.55098087 0.80603409 1.429417 4278190080
0.55317545 0.80357057 1.4250482 4278190080
0.55115128 0.79505563 1.4099479 4278190080
0.55556673 0.79588366 1.4114163 4278190080
0.56067735 0.79768926 1.4146184 4278190080
0.56806928 0.8026939 1.4234935 4278190080
0.57171142 0.80236799 1.4229156 4278190080
0.57794446 0.80565816 1.4287504 4278190080
0.57749993 0.79965806 1.4181098 4278190080
0.57892418 0.79630816 1.4121691 4278190080
0.58299851 0.79662347 1.4127283 4278190080
0.58684355 0.79662347 1.4127283 4278190080
0.59478951 0.80215406 1.4225363 4278190080
0.59608144 0.79869741 1.4164062 4278190080
0.59933716 0.79789948 1.4149911 4278190080
0.59828955 0.79141933 1.4034992 4278190080
0.60179394 0.7910046 1.4027638 4278190080
0.61064261 0.79757541 1.4144164 4278190080
0.61619717 0.79978824 1.4183407 4278190080
0.61751342 0.7965067 1.4125212 4278190080
0.62215853 0.79753304 1.4143413 4278190080
0.62649453 0.79815298 1.4154407 4278190080
0.62258691 0.7883271 1.3980155 4278190080
0.62301672 0.78407931 1.3904825 4278190080
0.62763208 0.7851187 1.3923258 4278190080
0.63653111 0.79147196 1.4035926 4278190080
-0.10349764 0.84905905 1.4984846 4278190080
-0.058574229 0.84818357 1.4969394 4278190080
-0.054308638 0.84520561 1.4916837 4278190080
-0.050284337 0.84580505 1.4927417 4278190080
-0.046193816 0.84529823 1.4918472 4278190080
-0.042249728 0.84763134 1.4959649 4278190080
-0.038020302 0.84412718 1.4897804 4278190080
-0.034063566 0.84656334 1.4940799 4278190080
-0.030021043 0.84723884 1.4952722 4278190080
-0.025945438 0.84704626 1.4949323 4278190080
-0.021801004 0.84411711 1.4897627 4278190080
-0.017736154 0.8436349 1.4889116 4278190080
-0.013710321 0.84527248 1.4918017 4278190080
-0.0096683409 0.84687376 1.4946278 4278190080
-0.0056137159 0.84888923 1.4981849 4278190080
-0.0015369829 0.84938741 1.4990641 4278190080
0.0025373322 0.84747952 1.4956969 4278190080
0.018769393 0.84516543 1.4916128 4278190080
0.022950498 0.84965831 1.4995422 4278190080
0.026951028 0.84711862 1.49506 4278190080
0.03080406 0.84121734 1.4846449 4278190080
0.034812864 0.84044534 1.4832824 4278190080
0.038891569 0.84134591 1.4848719 4278190080
0.043072961 0.84408927 1.4897135 4278190080
0.046866395 0.83941203 1.4814588 4278190080
0.050575618 0.83408695 1.4720607 4278190080
0.054328516 0.83021116 1.4652203 4278190080
0.058612838 0.83443087 1.4726677 4278190080
0.062734835 0.83594745 1.4753442 4278190080
0.066929229 0.83818823 1.4792989 4278190080
0.070695899 0.83512211 1.4738876 4278190080
0.074732535 0.83540303 1.4743834 4278190080
0.078673296 0.83463818 1.4730335 4278190080
0.083025545 0.83810133 1.4791455 4278190080
0.086521946 0.8330043 1.4701499 4278190080
0.090470493 0.83251858 1.4692926 4278190080
0.094301008 0.83103377 1.4666722 4278190080
0.09841501 0.83206642 1.4684947 4278190080
0.10229089 0.83108377 1.4667604 4278190080
0.10622042 0.83059436 1.4658967 4278190080
0.11030777 0.83132994 1.4671949 4278190080
0.11433293 0.83156174 1.467604 4278190080
0.11866279 0.83391923 1.4717647 4278190080
0.12296077 0.83590603 1.4752711 4278190080
0.12673691 0.83433181 1.4724928 4278190080
0.13047983 0.83264202 1.4695106 4278190080
0.13384345 0.82870442 1.4625611 4278190080
0.13785794 0.82890779 1.4629201 4278190080
0.14189558 0.8292349 1.4634974 4278190080
0.14645122 0.83248878 1.4692401 4278190080
0.18292816 0.81680876 1.4415668 4278190080
0.1867422 0.81633008 1.440722 4278190080
0.19163133 0.82047421 1.4480358 4278190080
0.19639057 0.82390624 1.454093 4278190080
0.20000848 0.82250923 1.4516274 4278190080
0.20338574 0.82019585 1.4475446 4278190080
0.20746742 0.82075709 1.4485351 4278190080
0.21138898 0.82067573 1.4483916 4278190080
0.21482153 0.81873375 1.4449642 4278190080
0.21891357 0.8193298 1.4460161 4278190080
0.22340903 0.82138801 1.4496486 4278190080
0.22770247 0.82264489 1.4518669 4278190080
0.23200771 0.82390094 1.4540836 4278190080
0.23540944 0.82195997 1.4506581 4278190080
0.2385973 0.81934869 1.4460495 4278190080
0.24280621 0.82027155 1.4476782 4278190080
0.24804676 0.82459444 1.4553076 4278190080
0.25159097 0.82323092 1.4529011 4278190080
0.25478703 0.82078797 1.4485896 4278190080
0.2591702 0.82218546 1.451056 4278190080
0.26246506 0.8201403 1.4474466 4278190080
0.26499733 0.81580794 1.4398005 4278190080
0.26765376 0.81197852 1.433042 4278190080
0.2718662 0.81291181 1.4346892 4278190080
0.27600017 0.81358725 1.4358813 4278190080
0.28029257 0.81470442 1.4378529 4278190080
0.28391427 0.81386811 1.4363769 4278190080
0.28680232 0.81098008 1.4312799 4278190080
0.29137629 0.81287271 1.4346201 4278190080
0.29602906 0.81493229 1.4382551 4278190080
0.30048105 0.81639254 1.4408323 4278190080
0.3038896 0.81501675 1.4384041 4278190080
0.30764773 0.8146016 1.4376714 4278190080
0.31172052 0.81501949 1.438409 4278190080
0.31364715 0.80988538 1.4293479 4278190080
0.31828618 0.81179512 1.4327183 4278190080
0.32246637 0.8125025 1.4339668 4278190080
0.32733962 0.81491828 1.4382303 4278190080
0.33117291 0.8147186 1.4378779 4278190080
0.33518925 0.81496865 1.4383192 4278190080
0.33793688 0.81216383 1.433369 4278190080
0.33951706 0.80664933 1.4236367 4278190080
0.34297332 0.80566633 1.4219018 4278190080
0.34759247 0.80740649 1.4249729 4278190080
0.35267633 0.81017578 1.4298604 4278190080
0.35617581 0.80928463 1.4282876 4278190080
0.36017463 0.80953503 1.4287295 4278190080
0.36378786 0.80892271 1.4276489 4278190080
0.36681962 0.80704409 1.4243333 4278190080
0.37070403 0.80706096 1.4243631 4278190080
0.37256023 0.80270767 1.4166801 4278190080
0.37740871 0.80482453 1.4204161 4278190080
0.38147706 0.80525178 1.4211701 4278190080
0.38754496 0.80984885 1.4292834 4278190080
0.38998616 0.80685115 1.4239929 4278190080
0.39274198 0.80455697 1.4199439 4278190080
0.39512077 0.8015427 1.4146241 4278190080
0.39969331 0.80299395 1.4171853 4278190080
0.40413037 0.80414772 1.4192216 4278190080
0.4084487 0.80504572 1.4208065 4278190080
0.4114714 0.80339718 1.417897 4278190080
0.4170689 0.80675983 1.4238317 4278190080
0.42244405 0.80963445 1.428905 4278190080
0.41214797 0.74207973 1.3096793 4278190080
0.44978645 0.79607826 1.4049801 4278190080
0.45688707 0.80182874 1.4151289 4278190080
0.46053046 0.80146646 1.4144895 4278190080
0.46307164 0.79920787 1.4105034 4278190080
0.46646962 0.79845297 1.4091711 4278190080
0.47030497 0.79845297 1.4091711 4278190080
0.47565195 0.80099857 1.4136637 4278190080
0.48082858 0.80321872 1.417582 4278190080
0.48388532 0.80189043 1.4152378 4278190080
0.48781785 0.80202305 1.4154718 4278190080
0.4914301 0.80163115 1.4147801 4278190080
0.49477032 0.80080497 1.4133221 4278190080
0.50034553 0.80358112 1.4182216 4278190080
0.50613701 0.80665946 1.4236546 4278190080
0.50696188 0.80183554 1.4151409 4278190080
0.50950801 0.79978633 1.4115243 4278190080
0.51124436 0.79650611 1.4057351 4278190080
0.51606494 0.79804415 1.4084495 4278190080
0.52005231 0.79828048 1.4088666 4278190080
0.52525932 0.80037177 1.4125575 4278190080
0.52775687 0.79833418 1.4089614 4278190080
0.52909082 0.79457843 1.402333 4278190080
0.53535628 0.79822946 1.4087766 4278190080
0.5425753 0.80324036 1.4176202 4278190080
0.54702991 0.80411679 1.419167 4278190080
0.54961538 0.80225271 1.4158771 4278190080
0.5494206 0.79638445 1.4055204 4278190080
0.55285519 0.79582196 1.4045277 4278190080
0.56024766 0.8009252 1.4135343 4278190080
0.56800318 0.80647433 1.4233278 4278190080
0.57450688 0.81018293 1.429873 4278190080
0.57524657 0.80576783 1.4220809 4278190080
0.57583904 0.80120689 1.4140314 4278190080
0.57794029 0.79879177 1.4097691 4278190080
0.58177727 0.79879177 1.4097691 4278190080
0.58769399 0.80162859 1.4147756 4278190080
0.59050554 0.80022043 1.4122905 4278190080
0.59525979 0.8014462 1.4144537 4278190080
0.59546739 0.796574 1.4058549 4278190080
0.59522325 0.79116356 1.3963062 4278190080
0.59887809 0.7909714 1.395967 4278190080
0.60905272 0.79933846 1.4107338 4278190080
0.61619717 0.80364859 1.4183407 4278190080
0.61751342 0.8003512 1.4125212 4278190080
0.62235451 0.80163491 1.4147868 4278190080
0.6262365 0.80167502 1.4148576 4278190080
0.6252408 0.79550868 1.4039748 4278190080
0.62220424 0.78683639 1.3886693 4278190080
0.6255846 0.78633457 1.3877836 4278190080
0.63317156 0.79109466 1.3961846 4278190080
-0.10311224 0.84996068 1.4929047 4278190080
-0.099242628 0.8516224 1.4958234 4278190080
-0.058545318 0.85183716 1.4962006 4278190080
-0.054319225 0.84943116 1.4919746 4278190080
-0.050252415 0.8493284 1.4917941 4278190080
-0.046253454 0.85045511 1.4937731 4278190080
-0.042127144 0.84923184 1.4916245 4278190080
-0.038012926 0.84801733 1.4894913 4278190080
-0.033935487 0.84743136 1.4884621 4278190080
-0.029822879 0.84568924 1.4854021 4278190080
-0.025747936 0.8446362 1.4835526 4278190080
-0.021675045 0.84327137 1.4811553 4278190080
-0.017680172 0.84501165 1.484212 4278190080
-0.013670979 0.84689558 1.4875211 4278190080
-0.0096214954 0.84681869 1.487386 4278190080
-0.0055859801 0.84875256 1.4907827 4278190080
-0.0015291036 0.84909213 1.4913791 4278190080
0.0025273114 0.84818727 1.4897898 4278190080
0.0066171186 0.85270029 1.4977167 4278190080
0.010677812 0.85145104 1.4955224 4278190080
0.014734082 0.85063595 1.4940908 4278190080
0.018670812 0.84476489 1.4837786 4278190080
0.022671772 0.84337127 1.4813308 4278190080
0.026682215 0.84269792 1.4801481 4278190080
0.030605759 0.83981675 1.4750875 4278190080
0.03462106 0.83982962 1.4751101 4278190080
0.038682014 0.84083217 1.476871 4278190080
0.042924743 0.84522533 1.4845873 4278190080
0.046750415 0.84135687 1.4777926 4278190080
0.050647486 0.83928448 1.4741526 4278190080
0.054464359 0.83628488 1.468884 4278190080
0.058560446 0.83768958 1.4713513 4278190080
0.062531799 0.83724445 1.4705694 4278190080
0.066697501 0.83929843 1.4741771 4278190080
0.070573695 0.83768302 1.4713397 4278190080
0.07462246 0.83817947 1.4722117 4278190080
0.078358777 0.8352946 1.4671446 4278190080
0.082429148 0.83607787 1.4685204 4278190080
0.085945666 0.83143073 1.4603579 4278190080
0.089948758 0.83169341 1.4608194 4278190080
0.093918957 0.83164257 1.4607301 4278190080
0.098358735 0.83558518 1.4676549 4278190080
0.10220829 0.83440149 1.4655759 4278190080
0.10637876 0.83582824 1.468082 4278190080
0.11007465 0.8335579 1.4640942 4278190080
0.11425892 0.83501524 1.4666539 4278190080
0.1181176 0.83407521 1.4650028 4278190080
0.12222157 0.83487201 1.4664023 4278190080
0.12630203 0.83546287 1.4674401 4278190080
0.12996019 0.83330977 1.4636583 4278190080
0.1336492 0.83147657 1.4604385 4278190080
0.1376323 0.83152616 1.4605255 4278190080
0.1421947 0.83497459 1.4665825 4278190080
0.1467725 0.8383227 1.4724633 4278190080
0.15276636 0.74972951 1.3168547 4278190080
0.17954081 0.82319069 1.4458848 4278190080
0.18123114 0.8131184 1.4281934 4278190080
0.18605222 0.81722069 1.4353988 4278190080
0.19054814 0.81975532 1.4398508 4278190080
0.19600604 0.82624298 1.451246 4278190080
0.19992821 0.82612842 1.4510448 4278190080
0.20390545 0.82624149 1.4512434 4278190080
0.20703405 0.82297689 1.4455093 4278190080
0.21154764 0.82523686 1.4494787 4278190080
0.21534128 0.82465696 1.4484602 4278190080
0.21919425 0.82432097 1.4478701 4278190080
0.22207727 0.82041365 1.4410071 4278190080
0.22618668 0.82109392 1.442202 4278190080
0.23200771 0.82785851 1.4540836 4278190080
0.23540944 0.8259083 1.4506581 4278190080
0.2385973 0.82328445 1.4460495 4278190080
0.24280621 0.82421172 1.4476782 4278190080
0.24629296 0.82269716 1.4450179 4278190080
0.25026095 0.82281238 1.4452204 4278190080
0.25213054 0.81613171 1.4334861 4278190080
0.25738475 0.82044345 1.4410595 4278190080
0.26168454 0.82162923 1.4431422 4278190080
0.26498231 0.81968027 1.439719 4278190080
0.26790082 0.81663203 1.4343649 4278190080
0.27191633 0.81696719 1.4349536 4278190080
0.27624854 0.81823099 1.4371734 4278190080
0.27870911 0.81399328 1.4297301 4278190080
0.28149685 0.8108145 1.4241468 4278190080
0.28526762 0.81051511 1.4236209 4278190080
0.2903561 0.81391758 1.4295971 4278190080
0.29501382 0.81603849 1.4333224 4278190080
0.29961619 0.81795305 1.4366852 4278190080
0.30312431 0.81686932 1.4347817 4278190080
0.30684775 0.81638616 1.433933 4278190080
0.30932519 0.81264156 1.4273559 4278190080
0.31318244 0.81256998 1.4272301 4278190080
0.3169235 0.81220227 1.4265844 4278190080
0.32161963 0.81426162 1.4302014 4278190080
0.32604158 0.81558573 1.4325272 4278190080
0.33033279 0.81655538 1.4342303 4278190080
0.33431727 0.81675303 1.4345775 4278190080
0.33722618 0.81434888 1.4303547 4278190080
0.3403708 0.81256223 1.4272165 4278190080
0.34343734 0.81063157 1.4238255 4278190080
0.34668249 0.80916089 1.4212424 4278190080
0.34995645 0.80778921 1.418833 4278190080
0.35458773 0.80954635 1.4219193 4278190080
0.35862646 0.80992723 1.4225883 4278190080
0.3621408 0.8091284 1.4211853 4278190080
0.36447892 0.8057462 1.4152446 4278190080
0.36848766 0.80608928 1.4158472 4278190080
0.36989164 0.8007862 1.4065326 4278190080
0.37494618 0.80341399 1.4111482 4278190080
0.37927413 0.80444735 1.4129633 4278190080
0.38512832 0.80866468 1.4203707 4278190080
0.38887441 0.80841571 1.4199334 4278190080
0.39207017 0.80703884 1.417515 4278190080
0.39529082 0.80573952 1.4152329 4278190080
0.39789459 0.80322003 1.4108076 4278190080
0.40210858 0.80396813 1.4121215 4278190080
0.40619349 0.80444646 1.4129617 4278190080
0.41058782 0.8055228 1.4148523 4278190080
0.4147588 0.80614513 1.4159453 4278190080
0.41967371 0.80818856 1.4195344 4278190080
0.45386139 0.80034482 1.4057574 4278190080
0.4614059 0.80684716 1.4171784 4278190080
0.46523085 0.80679131 1.4170803 4278190080
0.46908775 0.80679131 1.4170803 4278190080
0.47186348 0.80494702 1.4138409 4278190080
0.47573993 0.804995 1.4139252 4278190080
0.48050293 0.80653036 1.4166219 4278190080
0.48543161 0.80831707 1.4197602 4278190080
0.48987439 0.80927294 1.4214392 4278190080
0.49383903 0.80943006 1.4217151 4278190080
0.49620804 0.80698985 1.417429 4278190080
0.50220758 0.81044602 1.4234996 4278190080
0.50707394 0.81203461 1.4262898 4278190080
0.50914943 0.80916369 1.4212472 4278190080
0.50988126 0.8042168 1.4125583 4278190080
0.51365846 0.8041113 1.4123731 4278190080
0.5175615 0.80420291 1.4125339 4278190080
0.51969016 0.80155635 1.4078854 4278190080
0.52185363 0.79900193 1.4033988 4278190080
0.52775687 0.80216897 1.4089614 4278190080
0.52909082 0.79839522 1.402333 4278190080
0.53226638 0.79743457 1.4006457 4278190080
0.53928041 0.80219746 1.4090115 4278190080
0.54293972 0.801938 1.4085557 4278190080
0.54596204 0.80074805 1.4064656 4278190080
0.54638857 0.79579395 1.3977641 4278190080
0.54992694 0.79540926 1.3970884 4278190080
0.55516976 0.7974782 1.4007224 4278190080
0.56219041 0.80205536 1.4087619 4278190080
0.56650776 0.80273998 1.4099643 4278190080
0.56862116 0.80031329 1.405702 4278190080
0.5702337 0.79721886 1.4002669 4278190080
0.57404482 0.79721886 1.4002669 4278190080
0.57724863 0.79638094 1.3987951 4278190080
0.58281928 0.79879802 1.4030405 4278190080
0.58601618 0.79795134 1.4015534 4278190080
0.59130633 0.7999475 1.4050596 4278190080
0.59371078 0.7980392 1.4017078 4278190080
0.59809679 0.79880172 1.4030471 4278190080
0.60105956 0.79766589 1.401052 4278190080
0.60905272 0.80317807 1.4107338 4278190080
0.61515123 0.80613822 1.4159331 4278190080
0.6200211 0.8074615 1.4182575 4278190080
0.61982256 0.8022086 1.409031 4278190080
0.62677437 0.80621773 1.4160728 4278190080
0.62475199 0.79870504 1.4028772 4278190080
0.6266976 0.7963255 1.3986977 4278190080
0.62681425 0.79166484 1.3905115 4278190080
0.63391447 0.79582733 1.3978227 4278190080
-0.13203295 0.85712612 1.4983275 4278190080
-0.12758055 0.85461825 1.4939436 4278190080
-0.12365362 0.85558116 1.4956268 4278190080
-0.10313859 0.85424209 1.493286 4278190080
-0.098892167 0.85267186 1.4905411 4278190080
-0.095361806 0.85740536 1.4988157 4278190080
-0.083113313 0.85729766 1.4986274 4278190080
-0.07884112 0.85520035 1.4949611 4278190080
-0.074689999 0.85425949 1.4933164 4278190080
-0.070764735 0.85594225 1.496258 4278190080
-0.066754095 0.85673469 1.4976434 4278190080
-0.062748231 0.85769564 1.4993231 4278190080
-0.058409303 0.85392088 1.4927245 4278190080
-0.054189976 0.85146105 1.4884245 4278190080
-0.050074853 0.85037327 1.486523 4278190080
-0.046062112 0.85098577 1.4875937 4278190080
-0.041971415 0.85013735 1.4861106 4278190080
-0.037868205 0.84882736 1.4838207 4278190080
-0.0338176 0.84852469 1.4832915 4278190080
-0.029711803 0.84656721 1.4798697 4278190080
-0.02567419 0.84624332 1.4793035 4278190080
-0.021680471 0.84751469 1.481526 4278190080
-0.01760585 0.84548211 1.4779729 4278190080
-0.013588984 0.84584039 1.4785992 4278190080
-0.0095714238 0.84643894 1.4796455 4278190080
-0.0055567613 0.84834927 1.4829849 4278190080
-0.0015197527 0.84793395 1.4822589 4278190080
0.0025085737 0.84592348 1.4787444 4278190080
0.0065541193 0.84861958 1.4834574 4278190080
0.010619008 0.85080999 1.4872864 4278190080
0.014656493 0.85020167 1.486223 4278190080
0.01852688 0.84225994 1.4723402 4278190080
0.022430867 0.83839869 1.4655905 4278190080
0.026325764 0.83541495 1.4603746 4278190080
0.03023779 0.83368629 1.4573528 4278190080
0.034387898 0.83816147 1.4651757 4278190080
0.038446289 0.83970332 1.4678711 4278190080
0.042560607 0.84206158 1.4719934 4278190080
0.046367627 0.83845711 1.4656925 4278190080
0.050407153 0.83929503 1.4671574 4278190080
0.054297078 0.83770198 1.4643725 4278190080
0.058266275 0.83746606 1.4639602 4278190080
0.06217156 0.83640063 1.4620976 4278190080
0.066378072 0.83927202 1.4671171 4278190080
0.070357718 0.8391118 1.466837 4278190080
0.074290387 0.83843863 1.4656602 4278190080
0.077989489 0.83533239 1.4602304 4278190080
0.081820033 0.83386701 1.4576687 4278190080
0.085474215 0.83082283 1.4523472 4278190080
0.089387558 0.8304556 1.4517052 4278190080
0.093769222 0.83428609 1.4584013 4278190080
0.098333433 0.83936375 1.4672774 4278190080
0.10252202 0.8409639 1.4700747 4278190080
0.10599739 0.83681321 1.4628189 4278190080
0.1096162 0.83405447 1.4579964 4278190080
0.11339097 0.83263379 1.4555129 4278190080
0.11724409 0.83186483 1.4541687 4278190080
0.1207484 0.8287521 1.4487274 4278190080
0.12471963 0.8289395 1.449055 4278190080
0.12906453 0.83152294 1.4535711 4278190080
0.13301775 0.83150429 1.4535384 4278190080
0.13742557 0.83424634 1.4583318 4278190080
0.14193691 0.8374452 1.4639237 4278190080
0.14821582 0.85061353 1.486943 4278190080
0.17729723 0.81679004 1.4278167 4278190080
0.18147731 0.81811529 1.4301333 4278190080
0.18622224 0.82187778 1.4367105 4278190080
0.19109857 0.8260535 1.44401 4278190080
0.19620338 0.8310287 1.4527071 4278190080
0.19940729 0.82791501 1.4472641 4278190080
0.20279345 0.82566398 1.4433291 4278190080
0.20592874 0.82249647 1.4377921 4278190080
0.21055324 0.82528424 1.4426653 4278190080
0.21472028 0.82620972 1.4442831 4278190080
0.21919425 0.82826167 1.4478701 4278190080
0.22207727 0.82433569 1.4410071 4278190080
0.22618668 0.82501918 1.442202 4278190080
0.23013259 0.82509327 1.4423314 4278190080
0.23455861 0.82685721 1.445415 4278190080
0.23831055 0.82622594 1.4443115 4278190080
0.24235339 0.82660747 1.4449784 4278190080
0.24668936 0.82796055 1.4473437 4278190080
0.2490389 0.82270885 1.4381633 4278190080
0.252121 0.8200022 1.4334319 4278190080
0.25738636 0.8243708 1.4410685 4278190080
0.26170278 0.82561451 1.4432427 4278190080
0.26446876 0.82200253 1.4369286 4278190080
0.26750737 0.81933081 1.4322582 4278190080
0.27186844 0.82072812 1.4347008 4278190080
0.2761099 0.82172996 1.4364522 4278190080
0.27890509 0.81845963 1.4307353 4278190080
0.28122649 0.8139081 1.4227788 4278190080
0.284915 0.8133831 1.4218612 4278190080
0.28941926 0.81516987 1.4249846 4278190080
0.29295251 0.81421059 1.4233077 4278190080
0.29830849 0.81827617 1.4304146 4278190080
0.30228975 0.8185147 1.4308316 4278190080
0.30599606 0.81801212 1.429953 4278190080
0.30898526 0.81562918 1.4257874 4278190080
0.31288475 0.81567842 1.4258735 4278190080
0.31671518 0.81554866 1.4256467 4278190080
0.32056397 0.81546873 1.4255069 4278190080
0.32454777 0.81573004 1.4259638 4278190080
0.32868111 0.81635666 1.4270592 4278190080
0.33298191 0.81737965 1.4288474 4278190080
0.33677354 0.81714356 1.4284347 4278190080
0.34092432 0.81777442 1.4295375 4278190080
0.34465039 0.81738377 1.4288546 4278190080
0.34620309 0.81190491 1.4192771 4278190080
0.34982869 0.81135458 1.4183151 4278190080
0.35425091 0.81264371 1.4205686 4278190080
0.35910559 0.81488633 1.4244889 4278190080
0.36215875 0.81303668 1.4212556 4278190080
0.36580053 0.81253368 1.4203763 4278190080
0.36820865 0.80932951 1.4147751 4278190080
0.36970109 0.80419987 1.4058081 4278190080
0.37382922 0.80484992 1.4069444 4278190080
0.37888515 0.807464 1.411514 4278190080
0.38325107 0.80856991 1.4134473 4278190080
0.38717476 0.80873013 1.4137273 4278190080
0.39125836 0.80921787 1.41458 4278190080
0.39554468 0.81011128 1.4161417 4278190080
0.39787149 0.80701303 1.4107257 4278190080
0.40176457 0.80712044 1.4109135 4278190080
0.40517935 0.80627406 1.409434 4278190080
0.409637 0.80749941 1.4115759 4278190080
0.4147588 0.80999893 1.4159453 4278190080
0.41967371 0.81205213 1.4195344 4278190080
0.42447054 0.81384146 1.4226624 4278190080
0.39662006 0.7535693 1.3173016 4278190080
0.4517813 0.80048531 1.3993148 4278190080
0.45558983 0.80048531 1.3993148 4278190080
0.46690896 0.81357223 1.4221917 4278190080
0.47142369 0.81468505 1.424137 4278190080
0.47335231 0.81134701 1.4183018 4278190080
0.47439709 0.80656022 1.4099342 4278190080
0.47925639 0.80828363 1.4129468 4278190080
0.48432457 0.81032914 1.4165225 4278190080
0.48934188 0.81225777 1.419894 4278190080
0.49172622 0.80982006 1.4156326 4278190080
0.49485558 0.80863762 1.4135656 4278190080
0.49822888 0.80786902 1.412222 4278190080
0.50440371 0.81161994 1.418779 4278190080
0.50724417 0.80998957 1.415929 4278190080
0.50851899 0.80590248 1.4087844 4278190080
0.51296419 0.80686337 1.410464 4278190080
0.51563931 0.80504638 1.4072878 4278190080
0.51969016 0.80538821 1.4078854 4278190080
0.52185363 0.80282158 1.4033988 4278190080
0.52277982 0.79840267 1.3956741 4278190080
0.52464038 0.7954641 1.3905373 4278190080
0.52852249 0.7956109 1.3907938 4278190080
0.53580213 0.80083358 1.3999236 4278190080
0.54072028 0.8024779 1.4027979 4278190080
0.54177016 0.79839849 1.3956668 4278190080
0.54542136 0.79818285 1.3952898 4278190080
0.54904664 0.79793233 1.3948519 4278190080
0.55402815 0.79964286 1.397842 4278190080
0.55615413 0.79723674 1.393636 4278190080
0.56000644 0.79732108 1.3937833 4278190080
0.563797 0.79731691 1.3937761 4278190080
0.56759048 0.79731691 1.3937761 4278190080
0.57162726 0.79765642 1.3943696 4278190080
0.5770269 0.79988074 1.3982579 4278190080
0.58345503 0.80349225 1.4045711 4278190080
0.58599269 0.80173391 1.4014974 4278190080
0.58899039 0.8006236 1.3995564 4278190080
0.59623611 0.80526489 1.4076698 4278190080
0.59809679 0.80262041 1.4030471 4278190080
0.60105956 0.80147916 1.401052 4278190080
0.60108411 0.79645896 1.3922763 4278190080
0.60678315 0.79897344 1.3966719 4278190080
0.61090839 0.79939729 1.3974128 4278190080
0.61788124 0.80351901 1.4046179 4278190080
0.61821419 0.79900831 1.3967328 4278190080
0.62488908 0.80269933 1.403185 4278190080
0.62651342 0.79989725 1.3982867 4278190080
0.62917215 0.79844165 1.3957422 4278190080
0.62822431 0.79245412 1.3852755 4278190080
-0.13528812 0.85599774 1.4892694 4278190080
-0.13101307 0.85455179 1.4867537 4278190080
-0.1271572 0.85583496 1.4889863 4278190080
-0.12375095 0.86032844 1.496804 4278190080
-0.10693104 0.85612988 1.4894993 4278190080
-0.10250393 0.8530249 1.4840972 4278190080
-0.098681599 0.85490441 1.4873673 4278190080
-0.086973369 0.85921514 1.4948671 4278190080
-0.082713656 0.85723454 1.4914212 4278190080
-0.07848122 0.85534674 1.4881368 4278190080
-0.074873313 0.86043048 1.4969815 4278190080
-0.070632786 0.85841101 1.493468 4278190080
-0.066559874 0.85830641 1.493286 4278190080
-0.062373407 0.8566286 1.4903669 4278190080
-0.058338214 0.85693944 1.4909078 4278190080
-0.054279752 0.85692942 1.4908904 4278190080
-0.05018805 0.8563506 1.4898833 4278190080
-0.046112131 0.85596305 1.4892091 4278190080
-0.041791245 0.85051531 1.4797311 4278190080
-0.037697647 0.84902465 1.4771376 4278190080
-0.033706862 0.84976995 1.4784343 4278190080
-0.029698931 0.85022652 1.4792286 4278190080
-0.025744313 0.85259187 1.4833438 4278190080
-0.021665806 0.85097104 1.4805239 4278190080
-0.017624725 0.85041547 1.4795574 4278190080
-0.01355739 0.84788889 1.4751616 4278190080
-0.0095544755 0.84896016 1.4770254 4278190080
-0.0055360589 0.84920985 1.4774598 4278190080
-0.0015116337 0.84741682 1.4743403 4278190080
0.0024938686 0.84496588 1.4700761 4278190080
0.0065349271 0.8501603 1.4791135 4278190080
0.010558059 0.84995139 1.47875 4278190080
0.014603588 0.85116315 1.4808582 4278190080
0.018482476 0.844239 1.4688115 4278190080
0.022422228 0.84206319 1.465026 4278190080
0.026373554 0.84091347 1.4630257 4278190080
0.030315692 0.83981079 1.4611073 4278190080
0.034497537 0.84483421 1.4698471 4278190080
0.038574923 0.84652138 1.4727824 4278190080
0.042473122 0.84432876 1.4689677 4278190080
0.046263054 0.84054631 1.462387 4278190080
0.050163697 0.83921534 1.4600713 4278190080
0.0540254 0.83747613 1.4570454 4278190080
0.057898548 0.83614004 1.4547209 4278190080
0.0620462 0.83868551 1.4591495 4278190080
0.066290244 0.84214926 1.4651757 4278190080
0.070226982 0.84153748 1.4641113 4278190080
0.073952332 0.83859438 1.4589909 4278190080
0.077660933 0.83577085 1.4540786 4278190080
0.081566632 0.83523947 1.4531541 4278190080
0.08510755 0.8311947 1.4461169 4278190080
0.089050308 0.83125854 1.446228 4278190080
0.093361393 0.83460963 1.4520583 4278190080
0.09791927 0.83980519 1.4610975 4278190080
0.10204338 0.84102023 1.4632114 4278190080
0.10557088 0.83741146 1.4569329 4278190080
0.10952703 0.83734101 1.4568104 4278190080
0.11356885 0.83790761 1.4577961 4278190080
0.11738095 0.83679831 1.4558661 4278190080
0.12047828 0.8308323 1.4454864 4278190080
0.12436594 0.83052146 1.4449457 4278190080
0.12851883 0.83194667 1.4474252 4278190080
0.13291369 0.83480686 1.4524014 4278190080
0.13720678 0.83688098 1.45601 4278190080
0.1425918 0.84531194 1.4706782 4278190080
0.15604477 0.81120491 1.4113386 4278190080
0.17618947 0.83382481 1.4506929 4278190080
0.17858402 0.8266325 1.4381796 4278190080
0.1813971 0.82164431 1.4295012 4278190080
0.18682429 0.82845783 1.4413553 4278190080
0.19196737 0.8337571 1.450575 4278190080
0.19686636 0.83780402 1.4576159 4278190080
