# .PCD v0.7 - Point Cloud Data file format
VERSION 0.7
FIELDS x y z
SIZE 4 4 4
TYPE F F F
COUNT 1 1 1
WIDTH 1409
HEIGHT 1
VIEWPOINT 0 0 0 1 0 0 0
POINTS 1409
DATA ascii
0.10665789 0.51193398 0.8781901
0.13985825 0.51097596 0.87654662
0.15445538 0.51191342 0.87815481
0.17344446 0.51152521 0.87748891
0.18588781 0.51291031 0.87986487
0.21442419 0.51242834 0.87903816
0.22642612 0.51252025 0.87919581
0.36540848 0.51039678 0.87966019
0.40214095 -0.051956933 0.88852566
0.40205657 -0.044690963 0.88834083
0.40232241 -0.03643851 0.88848197
-0.080047369 0.0076308958 0.881172
-0.074200481 0.0076462151 0.88294101
-0.068501726 0.0076808878 0.88694483
-0.021307703 0.010038577 0.88199615
-0.015375416 0.010085706 0.88613701
0.075058818 0.012496063 0.88603365
0.1465448 0.014821013 0.88088775
0.15443966 0.014888515 0.88489968
0.16213909 0.014932295 0.88750184
0.17817894 0.014960826 0.88919753
0.19332273 0.014823027 0.88100737
0.23690203 0.014849224 0.88256443
0.2416009 0.014916759 0.88657832
0.25639287 0.014935406 0.88768667
0.26385045 0.014947015 0.88837659
0.33689317 0.01732875 0.88652599
0.37821198 0.017287415 0.88441133
0.38581663 0.017304311 0.88527572
0.3957493 0.017317425 0.88594651
0.40109158 0.017287839 0.88443303
-0.09922538 0.038805515 0.88109744
-0.10323532 0.042572908 0.88463485
-0.09598317 0.044965256 0.88438499
-0.10017572 0.058545701 0.8895362
-0.097391397 0.054711789 0.88628751
-0.10002977 0.065713018 0.88824022
-0.095958434 0.069017723 0.88418937
-0.09748327 0.075283229 0.88706493
-0.095195279 0.11406448 0.8882457
-0.094959825 0.12704095 0.88604879
-0.096975468 0.14934622 0.88244593
-0.094365075 0.15860264 0.8804993
-0.097573534 0.16395426 0.88788813
-0.097199425 0.17536622 0.88448381
-0.097662017 0.19756842 0.88869327
-0.097510822 0.20088623 0.88731748
-0.097275518 0.21485031 0.8851763
-0.097206399 0.22313093 0.88454735
-0.097544357 0.23477933 0.88762259
-0.097737134 0.24492459 0.88937688
-0.097337767 0.25477272 0.88574272
-0.097215801 0.26407936 0.88463283
-0.096962392 0.27420107 0.88232696
-0.065600894 0.27600208 0.88041139
-0.096975595 0.2850453 0.882447
-0.10236999 0.29998764 0.8875699
-0.096866056 0.29311824 0.88145018
-0.11162647 0.30371341 0.88435042
-0.10312658 0.30661544 0.8858121
-0.099632561 0.30503947 0.88471317
-0.11403202 0.31815118 0.88433951
-0.10390325 0.31548297 0.88698357
-0.099868029 0.3154161 0.88680404
-0.11158516 0.32444757 0.88402319
-0.10519184 0.32295364 0.88651329
-0.099709168 0.32575518 0.88539332
-0.083554089 0.32864523 0.88021338
-0.063304685 0.32443929 0.88180465
-0.098710291 0.33391282 0.88361472
-0.084225267 0.33492252 0.88097298
-0.07995794 0.3334268 0.88018751
-0.067966357 0.3333607 0.88001305
-0.097554721 0.34499821 0.88222647
-0.060814388 0.3455258 0.88049757
-0.058402497 0.34303951 0.88026506
-0.041630104 0.34302658 0.88023186
-0.039238203 0.34306017 0.88031805
-0.10457665 0.35512286 0.88584089
-0.099404283 0.35719395 0.88268608
-0.072759695 0.35253662 0.88004988
-0.060814973 0.35271937 0.88050604
-0.10439421 0.36363572 0.88765645
-0.098222129 0.36686096 0.88283086
-0.028459003 0.36225995 0.88039577
-0.10749452 0.37105507 0.88999659
-0.096628539 0.37577012 0.88238066
-0.087140374 0.37173784 0.88014281
-0.062011249 0.3718797 0.88047868
-0.056817435 0.37506986 0.88046545
-0.0200681 0.37656075 0.88021737
-0.1001329 0.38038471 0.88915598
-0.095477909 0.38562363 0.88245922
-0.084416077 0.38623667 0.88088429
-0.074403323 0.38429126 0.88146114
-0.065224372 0.3871561 0.88070428
-0.054583825 0.3843492 0.88049823
-0.048047423 0.38478297 0.88075781
-0.025475793 0.38521665 0.88083625
-0.10020118 0.39275253 0.88976234
-0.095103405 0.39483663 0.88239235
-0.085319452 0.3948468 0.88171679
-0.074599303 0.39531037 0.88157624
-0.064474739 0.39522642 0.88139158
-0.054730505 0.39487988 0.88075823
-0.046155456 0.39452088 0.88086718
-0.035478637 0.39582852 0.88044417
-0.024864066 0.39340758 0.88038838
-0.0021010663 0.39586246 0.88052011
0.0022932873 0.39284548 0.88092041
0.011078062 0.39579901 0.88037896
0.026683629 0.39623919 0.88135803
0.031477671 0.39621067 0.88129461
0.10337274 0.39596531 0.88074887
-0.10021625 0.40249977 0.88989615
-0.094616234 0.40531021 0.88282603
-0.086274303 0.40447766 0.88175988
-0.074553929 0.4046748 0.88129526
-0.064615346 0.40553036 0.88331097
-0.054948989 0.40515006 0.88247931
-0.04530292 0.40362096 0.88176441
-0.035738144 0.40522242 0.88263631
-0.025945997 0.40615171 0.88089013
-0.015025089 0.40543985 0.88107932
-0.0028228618 0.40535083 0.88134813
0.0052605849 0.40447432 0.88063496
0.014672605 0.40541869 0.88045514
0.024864873 0.40403113 0.8806951
0.033450253 0.40387258 0.880566
0.042224232 0.4053483 0.88030237
0.066850394 0.40155923 0.88118964
0.072226614 0.40324897 0.88094962
0.085406795 0.40561169 0.8808744
0.091338426 0.4053387 0.88028145
0.10330206 0.40527648 0.88014638
0.14048442 0.40063319 0.88047105
-0.094318375 0.415335 0.88351148
-0.08496277 0.41449001 0.88236636
-0.074299753 0.41471425 0.88238633
-0.064563312 0.41481024 0.88259238
-0.054914236 0.4145146 0.88196427
-0.045345269 0.41480461 0.8825773
-0.035744194 0.41491073 0.88280559
-0.024954546 0.41529399 0.88362122
-0.014113354 0.41465473 0.88226348
-0.0049020839 0.41420409 0.88129914
0.004602192 0.4148885 0.88171053
0.014772828 0.41439605 0.88154447
0.024281945 0.41421819 0.88133359
0.035797741 0.41558176 0.88089728
0.047034942 0.41359431 0.88064361
0.054629862 0.41594023 0.8807463
0.064629212 0.41680038 0.8808769
0.074912347 0.41577545 0.88082016
0.085027061 0.41570923 0.88049865
0.095885381 0.41485834 0.88078338
0.10574391 0.41823775 0.88053656
0.11271136 0.41414443 0.88066596
0.12607798 0.41811371 0.88027573
0.13245223 0.4164705 0.88017786
0.1716214 0.41018021 0.88038832
0.1836569 0.4134962 0.88064945
-0.10010433 0.42624506 0.88890237
-0.095133185 0.42472154 0.88418955
-0.085091338 0.42498094 0.88375723
-0.074242502 0.42482656 0.88344377
-0.064876318 0.42464623 0.88357002
-0.054727953 0.42428955 0.88282615
-0.045372404 0.42466748 0.88311058
-0.035659634 0.4245387 0.88267231
-0.025173072 0.42435992 0.88234168
-0.014103979 0.42473596 0.88186836
-0.005189131 0.42410964 0.88159549
0.004694805 0.42658091 0.88126934
0.015405408 0.42521286 0.88125068
0.023876645 0.42368954 0.88107765
0.033763677 0.42386863 0.88122725
0.046015177 0.42680058 0.88077998
0.054300442 0.42407903 0.88188505
0.06676989 0.42423278 0.88171023
0.0741257 0.42444178 0.88150692
0.08347135 0.42405525 0.88115895
0.094376609 0.42829189 0.88067675
0.10406455 0.42749435 0.88051558
0.11497208 0.42957339 0.88084722
0.12281308 0.42624998 0.88091511
0.13210084 0.42461056 0.88049889
0.14293745 0.4295615 0.8808229
0.15364616 0.42694196 0.88036454
0.1740099 0.42932951 0.88034719
0.18243197 0.42462325 0.88052523
0.19792372 0.42922917 0.88014144
0.20041026 0.42942426 0.8805415
0.21831448 0.42449427 0.88025784
0.2232918 0.42484826 0.88099182
0.24350418 0.42455333 0.88038027
-0.10002664 0.43074778 0.88821244
-0.095462598 0.43450898 0.88427454
-0.085119143 0.43476209 0.88408518
-0.07425265 0.43449774 0.88354897
-0.064628944 0.43448424 0.88351691
-0.054995269 0.43437129 0.88329113
-0.045435965 0.43419173 0.88276136
-0.035762329 0.43435937 0.88327086
-0.024957499 0.43457946 0.88371724
-0.014095133 0.43413815 0.88119358
-0.0048302561 0.43488175 0.88144463
0.005616128 0.43425399 0.88235784
0.014900717 0.43505991 0.88276422
0.02437501 0.43497539 0.88175577
0.03457237 0.43403307 0.88206387
0.045900393 0.43607867 0.88188416
0.055783819 0.43407664 0.88253146
0.064596877 0.43495876 0.88204557
0.074716322 0.43495855 0.88204551
0.084820956 0.43655351 0.88102263
0.092858009 0.43495703 0.88107032
0.10704609 0.43569469 0.88137794
0.11596992 0.43639666 0.8814851
0.12404905 0.4376165 0.88074881
0.13507262 0.43713588 0.88090277
0.14404754 0.43391848 0.88132679
0.15730572 0.4338288 0.88072836
0.16364263 0.43442768 0.88097382
0.18713441 0.43399793 0.88009644
0.19418187 0.43698153 0.88128132
0.20552318 0.43690693 0.88044107
0.21366766 0.43597287 0.88085812
0.2461552 0.43698829 0.88129503
0.25400853 0.43693751 0.88119227
0.26049489 0.43929732 0.88111657
0.33203176 0.43636349 0.88003623
0.37164265 0.4340733 0.8802492
0.39443731 0.43890348 0.88032663
-0.10021428 0.44608781 0.88987863
-0.093728609 0.44473785 0.88580775
-0.084164888 0.44568297 0.88666308
-0.074440017 0.44524011 0.8857857
-0.064699687 0.44456118 0.88443959
-0.055087425 0.4447298 0.88476837
-0.045405023 0.44423649 0.88378984
-0.035847086 0.44497633 0.88525891
-0.024950651 0.44406477 0.88345033
-0.01415089 0.44468579 0.88467687
-0.0044415048 0.44446105 0.88353157
0.005107576 0.44430146 0.88391769
0.014494956 0.44545469 0.88183367
0.024300702 0.4445262 0.88197374
0.034885332 0.44369021 0.88282734
0.045649074 0.44434011 0.88385171
0.055335235 0.44441941 0.88226688
0.064807013 0.44413379 0.88256252
0.074033424 0.4440656 0.88106018
0.084274501 0.44492003 0.88156289
0.09511812 0.44583309 0.88200241
0.10569979 0.44585365 0.88182843
0.11574991 0.44416696 0.88189757
0.12567711 0.44586807 0.88133866
0.13433307 0.44596648 0.88205522
0.1445177 0.44477034 0.88116008
0.15515929 0.44623807 0.88124621
0.16534978 0.44404578 0.8810212
0.17546758 0.44676453 0.88165355
0.18412629 0.44722304 0.88098013
0.19340841 0.44703835 0.88140404
0.20515376 0.44614261 0.88160938
0.21176602 0.44497687 0.88167971
0.22487372 0.4467977 0.88092875
0.2356804 0.44762811 0.88099182
0.24510953 0.44493565 0.88040966
0.25482723 0.44504109 0.88121349
0.2627238 0.44500604 0.88054937
0.29328412 0.44731399 0.88116181
0.30607432 0.44651306 0.88115859
0.31297836 0.44490105 0.88034159
0.336898 0.44484675 0.88023579
0.34337041 0.44775125 0.8804487
0.35613537 0.44613391 0.88041174
0.37287718 0.44849211 0.88033575
-0.093680508 0.45526829 0.88763291
-0.084826738 0.45573822 0.88871598
-0.074555293 0.45558566 0.88714993
-0.064766049 0.45466983 0.88537025
-0.055093415 0.45438698 0.88481456
-0.045460895 0.45439452 0.88483071
-0.035795812 0.45400891 0.88408899
-0.025001569 0.45462093 0.88527077
-0.014157695 0.45456678 0.88516426
-0.0045991954 0.45439124 0.88435018
0.0050343098 0.45435783 0.88380146
0.01438382 0.45432758 0.88369519
0.024397284 0.4546915 0.88540745
0.034961507 0.45484909 0.88485289
0.045622867 0.45419374 0.88350439
0.055975989 0.45515066 0.8839584
0.065302372 0.45413876 0.88364762
0.074892417 0.45403054 0.88411891
0.084252365 0.45498145 0.88496608
0.094485328 0.45411858 0.88312322
0.10545912 0.45473027 0.8824771
0.11584572 0.45492116 0.88184804
0.12475313 0.45472792 0.88134605
0.13454047 0.45518252 0.88258451
0.14392199 0.45475087 0.88318396
0.15373869 0.45476291 0.88248467
0.1649923 0.45598948 0.88196164
0.175612 0.45553702 0.88237655
0.18497589 0.45507836 0.88266003
0.19454664 0.45537278 0.88221765
0.20463076 0.45432436 0.88209659
0.21386211 0.4563677 0.88166356
0.22542877 0.45525679 0.88090527
0.23531723 0.45521078 0.88153261
0.24531943 0.45550728 0.8811599
0.25388268 0.45425716 0.88105929
0.26448232 0.45381498 0.8807016
0.27437344 0.45383769 0.88141012
0.28412157 0.45724377 0.88150328
0.29486871 0.45448485 0.88111717
0.30636317 0.45507452 0.8812238
0.3131243 0.45309836 0.88075328
0.33852863 0.45492873 0.88073748
0.34517002 0.45413339 0.88198614
0.36828959 0.45593446 0.8808248
0.37140104 0.45503113 0.88062429
0.38022834 0.45347869 0.88071352
0.39332387 0.45577368 0.88051689
-0.10245331 0.46584147 0.88829237
-0.09360113 0.46563864 0.88769907
-0.084713772 0.46583369 0.88770455
-0.074489936 0.46482599 0.88636178
-0.067189969 0.46440729 0.88785982
-0.054616138 0.4653722 0.88757026
-0.045545012 0.46489513 0.88648778
-0.035895251 0.46486798 0.88643152
-0.025052866 0.46521518 0.88709831
-0.014194253 0.4653244 0.88730478
-0.0045290776 0.46511114 0.88689816
0.005119795 0.46491602 0.88553673
0.014773915 0.46486661 0.88642418
0.024392031 0.46430448 0.88535661
0.034352455 0.46379659 0.88452297
0.045017496 0.46501192 0.88526893
0.055636805 0.46453148 0.88532704
0.065200761 0.46399054 0.88430327
0.074676573 0.46444944 0.88383144
0.084618181 0.46418935 0.88514322
0.094663069 0.46398765 0.88366872
0.10525927 0.46401167 0.88428766
0.11567786 0.46511599 0.88531262
0.12518196 0.46522757 0.88306224
0.13458532 0.46365696 0.88289332
0.14545953 0.46498662 0.88469011
0.15469475 0.46434921 0.88498706
0.16436008 0.46473131 0.88340241
0.17483895 0.46494305 0.88228166
0.18471481 0.46493307 0.88140768
0.19513285 0.46549186 0.88251132
0.20433399 0.46472824 0.88226169
0.21509789 0.46511042 0.88181108
0.22499539 0.46511343 0.88296896
0.234602 0.46571049 0.88345331
0.24432914 0.46504945 0.88296717
0.25425461 0.46482891 0.88145667
0.26548418 0.46494904 0.88175958
0.27647552 0.46523321 0.88141108
0.2843636 0.46609902 0.88191444
0.29575744 0.46473265 0.88114625
0.30303305 0.46485621 0.88138217
0.31617305 0.4618988 0.88123006
0.32397309 0.46496102 0.88157457
0.33610451 0.46577191 0.88129514
0.34348121 0.46691814 0.88176316
0.36530858 0.46480381 0.8819868
0.37485108 0.46449104 0.88159907
0.38071781 0.46846327 0.88184726
0.39652485 0.46499944 0.88097447
-0.10090379 0.47272086 0.88534272
-0.09448269 0.47387514 0.88839245
-0.084645428 0.47331935 0.88916618
-0.074841827 0.4751229 0.88770539
-0.064709134 0.47635812 0.88874435
-0.05494003 0.477027 0.88886249
-0.045271639 0.47509322 0.88782704
-0.0360194 0.47504914 0.88757062
-0.024782583 0.47517848 0.88823253
-0.014188817 0.4748224 0.887007
-0.0045344122 0.47529563 0.88788581
0.0054084603 0.47516435 0.88781559
0.015123958 0.47599795 0.88694978
0.024423806 0.47449681 0.8863939
0.034104988 0.47511375 0.8872273
0.045501698 0.47503594 0.88714761
0.055824071 0.47483829 0.88703507
0.065310806 0.47360945 0.88474101
0.075179398 0.4741472 0.88418406
0.084702626 0.47430891 0.88604218
0.09451469 0.474893 0.88435823
0.10585073 0.47375897 0.88435966
0.11566285 0.4744575 0.88549292
0.12532955 0.47409263 0.88467014
0.13527918 0.47407788 0.88560969
0.14478049 0.47385481 0.88348204
0.15455119 0.47441512 0.88518405
0.16499701 0.47394344 0.88341236
0.17578442 0.47401232 0.88324076
0.18625617 0.47443718 0.88463432
0.19523935 0.47456327 0.88426638
0.20464878 0.47526103 0.8833282
0.21466254 0.47514743 0.88350677
0.22480997 0.47539857 0.88224804
0.23545934 0.47421363 0.8822242
0.2456736 0.47511575 0.88288283
0.25582775 0.47603005 0.88571757
0.26466131 0.47564578 0.88329703
0.2755827 0.47446263 0.88099015
0.28543901 0.4743017 0.88250417
0.29581383 0.47558689 0.88380277
0.30538797 0.47615674 0.88344473
0.31382647 0.47547853 0.88150114
0.32392579 0.47378495 0.88218629
0.33545479 0.47585872 0.8809402
0.3446506 0.47557163 0.88167775
0.35483629 0.47777086 0.88463837
0.36427057 0.47513488 0.88361257
0.37364742 0.47586274 0.88084841
0.38486263 0.47582361 0.8810333
0.39537129 0.47778794 0.88133985
0.40068153 0.47657073 0.88352883
-0.10241202 0.48498583 0.88793421
-0.095249817 0.48745632 0.88876116
-0.088046379 0.48452109 0.88929373
-0.072505124 0.48588523 0.88791668
-0.067333631 0.48474124 0.8874771
-0.054336559 0.48490143 0.8882193
-0.046353314 0.48652482 0.88809139
-0.036017612 0.48707318 0.889534
-0.025603408 0.48499489 0.88826478
-0.013361024 0.48421878 0.88937384
-0.0052713775 0.48613739 0.8895936
0.0056478358 0.48500827 0.88765556
0.014995776 0.48549825 0.88776082
0.024481799 0.48455736 0.88862157
0.034039948 0.485587 0.88734609
0.045363221 0.48591083 0.88859314
0.0555645 0.48423347 0.8866986
0.065887854 0.48430157 0.88808227
0.07491409 0.48439503 0.88825417
0.085220188 0.48397365 0.88607585
0.094273604 0.4858304 0.8879388
0.10399362 0.48393041 0.88672858
0.11514391 0.48408246 0.88489598
0.12572291 0.4840405 0.88619822
0.13540052 0.48425978 0.88595337
0.14437075 0.48355329 0.88436288
0.15503448 0.48545519 0.88658494
0.16453445 0.484294 0.88740295
0.1753505 0.48469242 0.88714868
0.18571319 0.48444802 0.88474131
0.1953221 0.48511153 0.88549775
0.20488118 0.48542535 0.88432485
0.21444514 0.48441765 0.88262093
0.22467765 0.48439339 0.88283652
0.23520659 0.48554763 0.88415968
0.24550317 0.48560664 0.88556278
0.25529397 0.48450571 0.8838706
0.26554736 0.48493102 0.88397324
0.27457333 0.48399445 0.88152152
0.28478971 0.48532498 0.88458145
0.29502195 0.48495415 0.88474041
0.30539939 0.48544273 0.88286048
0.31231472 0.48323512 0.88252681
0.32492408 0.48629338 0.88284367
0.33528784 0.48494157 0.88327593
0.34433934 0.4846054 0.88144588
0.35552672 0.48619708 0.8854332
0.36312413 0.48587435 0.8839789
0.37441012 0.48496118 0.88081086
0.38516295 0.48490331 0.88323534
0.39583254 0.48240173 0.88210237
0.40070152 0.48500845 0.88357294
-0.097774811 0.49201784 0.88971967
-0.082166113 0.49377161 0.88851684
-0.0770147 0.49210402 0.88769108
-0.056919359 0.4944815 0.88917398
-0.043075196 0.49569306 0.88886362
-0.036377925 0.49596566 0.88847923
-0.024617014 0.49484813 0.88871449
-0.010586116 0.49265242 0.88868141
-0.004941179 0.49311405 0.88878536
0.0087474789 0.49777144 0.88702691
0.013259368 0.49571878 0.88891637
0.024178738 0.49477714 0.88765615
0.033808157 0.49339595 0.88729793
0.044121679 0.49426651 0.88832217
0.055366494 0.49242967 0.88796687
0.065731883 0.49510455 0.88715416
0.074520968 0.49426162 0.88739467
0.085728168 0.49393579 0.88627785
0.094001673 0.49483398 0.88763714
0.103916 0.49600577 0.88819027
0.11526207 0.49412763 0.88782167
0.12493927 0.49384239 0.88691437
0.13658208 0.49440733 0.887685
0.14510036 0.49397695 0.88671505
0.15466411 0.49419728 0.88618255
0.1649742 0.49447295 0.887339
0.17431264 0.49469826 0.88757616
0.18347792 0.49478349 0.8872357
0.19568451 0.49555138 0.88706863
0.20475838 0.49510345 0.88484877
0.21416672 0.49426195 0.88291407
0.22376467 0.49500236 0.88539726
0.23566572 0.49443355 0.88568091
0.2458697 0.49686259 0.88675565
0.2551398 0.49567384 0.88473248
0.26520005 0.49536991 0.88553423
0.27462605 0.49509838 0.8841415
0.28597888 0.49434954 0.88499933
0.29559666 0.49604732 0.883533
0.30442601 0.49476042 0.88246661
0.31456813 0.49599454 0.88221389
0.3251963 0.49439627 0.88359082
0.33483076 0.49419197 0.8846705
0.34438673 0.49555892 0.88268965
0.35392052 0.49446964 0.88285691
0.36440647 0.49564791 0.88377595
0.37494686 0.4946039 0.88289392
0.38578463 0.49516103 0.88211429
0.39344352 0.49471062 0.88223106
0.40090379 0.49608609 0.8840189
-0.013013304 0.50386453 0.8892588
-0.0081763491 0.50409049 0.88965762
0.0039317869 0.50908309 0.88991952
0.018458363 0.50286227 0.88962662
0.022469968 0.50192809 0.88868654
0.036576644 0.50349844 0.88861269
0.040247101 0.50282407 0.88955891
0.056390993 0.50407302 0.88962674
0.066396706 0.50422651 0.88847208
0.071728162 0.50892234 0.88963842
0.087377429 0.5035547 0.88871199
0.095390901 0.50425828 0.88798571
0.10524895 0.5055266 0.88831401
0.11457311 0.50254428 0.88731438
0.12495087 0.50227845 0.88930666
0.14700413 0.50408202 0.88910979
0.1551784 0.50319666 0.88914645
0.1649009 0.50604379 0.88786167
0.17385197 0.50294441 0.88934201
0.1849023 0.50460547 0.8873089
0.19517301 0.50344867 0.88724881
0.20571305 0.50411093 0.8873232
0.21435255 0.50540143 0.88700128
0.22483197 0.50496656 0.88589197
0.2350807 0.50608742 0.88759142
0.24448346 0.50450706 0.88683844
0.25454974 0.50542986 0.88482773
0.26580569 0.50490254 0.88683075
0.27527317 0.50436097 0.88623047
0.28558922 0.5041613 0.88623947
0.29562345 0.50499707 0.884175
0.30519995 0.50536895 0.88504201
0.31500584 0.50463313 0.88481802
0.32608938 0.50562412 0.8854546
0.33418646 0.50470078 0.88437039
0.34525889 0.50618231 0.88749152
0.35434839 0.50430477 0.88404322
0.36518565 0.50510573 0.88550681
0.37500331 0.50660658 0.88536561
0.38479283 0.50554949 0.88473755
0.39588064 0.50464648 0.88313699
0.40154117 0.50410181 0.88542438
-0.085179411 0.51329529 0.88465577
-0.070971102 0.51502526 0.88763732
-0.068720736 0.51384705 0.88978052
-0.053936828 0.51385349 0.88561773
-0.044370323 0.51472461 0.88711917
-0.015328472 0.51245099 0.88320065
0.0038986029 0.51199144 0.88240862
0.013540206 0.51236844 0.88444734
0.033690136 0.51461685 0.88693333
0.044255152 0.51343632 0.88489878
0.059223067 0.51273733 0.88369405
0.066886306 0.51619273 0.88964945
0.078735217 0.51450711 0.88674426
0.08373145 0.51554954 0.88854086
0.096341044 0.51267362 0.88775474
0.1019401 0.51591098 0.8891663
0.11479646 0.51630682 0.88569146
0.12621929 0.51613754 0.8867861
0.13604119 0.51440239 0.88657737
0.14459315 0.51263994 0.88888913
0.15572976 0.51387179 0.88815039
0.1643465 0.51420277 0.88698512
0.17330661 0.51825494 0.88903326
0.185091 0.51461315 0.88752514
0.19519612 0.51576328 0.88683474
0.20544384 0.51471668 0.88850099
0.21426299 0.51356614 0.8860566
0.22449398 0.51529896 0.88811278
0.23457912 0.51440936 0.88741112
0.24421845 0.5136317 0.88732189
0.25407296 0.51483917 0.88800848
0.26568845 0.51415718 0.88796335
0.27553797 0.51491803 0.88837826
0.28445601 0.51337397 0.88479626
0.2953063 0.51402754 0.88675338
0.30442095 0.51377219 0.88585603
0.31567159 0.51316327 0.88859719
0.3243739 0.51260507 0.88435847
0.33498612 0.51324129 0.8850227
0.34509748 0.51402622 0.88591337
0.35456949 0.51310241 0.88432109
0.36414889 0.51304764 0.88348007
0.37512735 0.51294184 0.88313335
0.38508072 0.51329803 0.88512558
0.39462808 0.51344067 0.88435465
0.40535975 -0.060742237 0.89924395
0.39866999 -0.054158185 0.89658904
0.40188056 -0.055105008 0.89220482
0.39751428 -0.044912346 0.89673662
0.40116572 -0.04428805 0.89317608
0.39865172 -0.035850868 0.89654827
0.40182525 -0.033234827 0.89294726
0.39921856 -0.027264576 0.89827627
0.40283591 -0.02521155 0.89448512
0.40449506 -0.017259873 0.8973282
-0.064221106 0.007747212 0.89460361
-0.059634976 0.0077839126 0.8988415
0.39911205 0.0045181415 0.89803696
0.40375805 0.0040944191 0.89461106
-0.010628158 0.010154836 0.89221078
-0.0045784712 0.010203365 0.8964746
0.079325333 0.012599817 0.89339036
0.082036965 0.01264298 0.89645088
0.16757216 0.01498615 0.89070261
0.17401998 0.015019703 0.89269686
0.18523246 0.015042028 0.89402378
0.19229591 0.015024066 0.89295614
0.24785197 0.015003111 0.89171076
0.25163138 0.015011425 0.89220482
0.26852345 0.015005489 0.89185202
0.27435648 0.014992484 0.89107907
0.28453395 0.015017608 0.89257234
0.34183118 0.017457712 0.89312357
0.37699556 0.01745405 0.89293623
0.40786573 0.012684156 0.89937049
-0.10029162 0.046494104 0.8905654
-0.097470187 0.046685457 0.89429772
-0.10025443 0.051322803 0.89023519
-0.095492423 0.055008471 0.89101827
-0.096567459 0.065022856 0.89536607
-0.10039302 0.075656921 0.89146584
-0.098766364 0.076274477 0.8987425
-0.096041128 0.082154945 0.89613819
-0.096019313 0.097982496 0.89593458
-0.095793955 0.10505006 0.89383185
-0.095638685 0.11621821 0.89238304
-0.095661953 0.12312707 0.89260012
-0.098238096 0.1671015 0.89393544
-0.098465994 0.1760285 0.89600921
-0.10076629 0.18309312 0.8947804
-0.098167174 0.18522309 0.89329004
-0.098177835 0.19253346 0.89338708
-0.098124862 0.20701331 0.89290512
-0.097828925 0.22819354 0.89021212
-0.097987667 0.23341298 0.89165664
-0.098007299 0.2407462 0.89183521
-0.097867414 0.25009802 0.89056236
-0.11468582 0.30748647 0.89890003
-0.1036823 0.30338269 0.8947258
-0.11191738 0.31147099 0.89629322
-0.10485724 0.31539506 0.89408028
-0.11355436 0.32373011 0.89478415
-0.10545363 0.32863876 0.89321846
-0.11273358 0.33589551 0.89312142
-0.10252149 0.33537948 0.89305657
-0.10295006 0.34443101 0.89257473
-0.1043603 0.35485724 0.89278752
-0.11485732 0.36894062 0.89073992
-0.10665465 0.3626335 0.89313745
-0.1133782 0.3720423 0.89822835
-0.10052227 0.3745746 0.89261359
-0.10063696 0.38595146 0.89363194
-0.10059604 0.39429721 0.89326853
-0.10035574 0.4046728 0.89113474
-0.10043313 0.41429332 0.89182198
-0.11280588 0.4236767 0.89369422
-0.10297534 0.42081526 0.89278394
-0.10196079 0.4374429 0.89452457
-0.10152712 0.44505566 0.89428681
-0.10086437 0.45264089 0.89565128
-0.09432058 0.45410979 0.89136261
-0.08331126 0.45847824 0.8904233
-0.10088269 0.46490514 0.89581406
-0.096465409 0.46510115 0.89104122
-0.082505122 0.46252632 0.89043975
-0.063162245 0.46690375 0.89108276
-0.059104048 0.46596795 0.8908391
-0.100347 0.47456688 0.89105725
-0.094316885 0.47838044 0.89138174
-0.083843432 0.47697872 0.89178026
-0.071256034 0.47828341 0.8912009
-0.065074705 0.47491959 0.89109588
-0.055775087 0.47572586 0.89186114
-0.048165567 0.47781515 0.89032841
-0.032426998 0.47801682 0.89070415
-0.025183972 0.47853154 0.89166325
0.0051482334 0.47563732 0.89078844
0.013646925 0.4737336 0.89176834
0.034244426 0.47571057 0.89092833
0.040289 0.47547641 0.89048505
-0.10085036 0.4854829 0.89552689
-0.094579741 0.48506606 0.8922025
-0.084767595 0.48486191 0.89298618
-0.076641649 0.48557135 0.89270872
-0.062810563 0.48590717 0.89183468
-0.056694593 0.48547685 0.89104652
-0.044600528 0.48467287 0.89179718
-0.035664167 0.48566875 0.89273834
-0.021129336 0.48724779 0.89132917
-0.014426428 0.48720813 0.89104575
-0.0041487799 0.48605633 0.89161259
0.0015114056 0.48379874 0.89093757
0.013627942 0.4851374 0.89042395
0.024947625 0.48857814 0.89080787
0.030603377 0.48288798 0.890746
0.044163506 0.48464307 0.8904072
0.05964781 0.48734564 0.89003181
0.065845579 0.48840415 0.89196503
0.075521894 0.48815769 0.89151484
0.082346983 0.48869109 0.89101398
0.10814245 0.48876578 0.8904134
0.16506083 0.487459 0.89023888
0.17125754 0.48785463 0.89096141
-0.10126739 0.49439088 0.89488649
-0.09384051 0.49541768 0.89179546
-0.085675023 0.49398518 0.89208174
-0.075314745 0.49452063 0.89259809
-0.064467661 0.49583539 0.89317143
-0.055027172 0.49544072 0.89214289
-0.047734909 0.49535206 0.89198524
-0.034184657 0.49335933 0.89435256
-0.023360902 0.49661511 0.89145064
-0.015139186 0.49606109 0.89232761
-0.0045510083 0.49582428 0.89148176
0.0051553817 0.49572289 0.89202714
0.016062835 0.4959909 0.89105785
0.025157703 0.49400908 0.89113158
0.036093105 0.49854141 0.89164376
0.047559511 0.49728385 0.89047688
0.056287188 0.49759942 0.89166218
0.062949181 0.49194306 0.89104575
0.078263208 0.49327081 0.89052594
0.081630662 0.49571598 0.89201105
0.098576479 0.49425349 0.89156973
0.10532093 0.49378657 0.89116472
0.11425909 0.49709123 0.89085484
0.12991527 0.4995248 0.89015138
0.13246246 0.49756846 0.89098722
0.16141395 0.49953428 0.89016825
0.1735038 0.4921976 0.89004475
-0.10100438 0.50331116 0.89689457
-0.094739474 0.50518292 0.89372879
-0.084687285 0.50512582 0.89511722
-0.074911363 0.50500959 0.89462692
-0.066462599 0.50518656 0.89417285
-0.055094555 0.50489688 0.89322686
-0.04654441 0.50518358 0.89323288
-0.034952514 0.5049035 0.8932361
-0.024006728 0.50486386 0.89316791
-0.014363939 0.5047943 0.89221746
-0.0041500675 0.50568128 0.89199299
0.0045962725 0.50569355 0.89391828
0.0140922 0.50601667 0.89188576
0.02521418 0.50633186 0.89307201
0.034215193 0.50554389 0.89255548
0.046157166 0.50592226 0.89223242
0.054619253 0.5043025 0.89231652
0.063351393 0.50849771 0.89101577
0.075872138 0.50619066 0.89279336
0.084657371 0.50610578 0.89150244
0.091312908 0.50688422 0.89172828
0.10241314 0.50397569 0.89116728
0.11306044 0.50823003 0.89097184
0.1247226 0.50541157 0.89150888
0.13510107 0.50583369 0.89139491
0.14463583 0.50674891 0.89129043
0.1556235 0.50555074 0.89169824
0.16329238 0.50396109 0.89049816
0.17523235 0.50700855 0.89266491
0.1808193 0.50444418 0.89028186
0.19315419 0.50362754 0.89129329
0.20557335 0.50841647 0.89044857
0.2184197 0.50938869 0.89045364
0.22953206 0.50135648 0.89125592
0.23344946 0.50361907 0.89139491
0.24628124 0.50936979 0.89042062
0.25106043 0.50923234 0.89018041
0.32626614 0.5069623 0.89044875
0.34262365 0.50645125 0.89096963
0.37228945 0.50450605 0.89039105
-0.10216073 0.51274645 0.89632231
-0.094357699 0.51550168 0.89512777
-0.085306339 0.51492268 0.89636815
-0.07535281 0.51512039 0.89555794
-0.064682201 0.51432705 0.89427298
-0.055988863 0.51490015 0.89526123
-0.045602296 0.51474988 0.8955732
-0.033951029 0.51455295 0.89697605
-0.024070783 0.51352018 0.89554769
-0.014225178 0.51504219 0.89541781
-0.0045655034 0.51522207 0.89426649
0.0057183844 0.51398772 0.89423996
0.015285397 0.51391435 0.89270532
0.024503471 0.51501554 0.89497524
0.033993755 0.51327991 0.89301234
0.043805182 0.51410979 0.89483887
0.054809626 0.51374149 0.89315844
0.065052554 0.51605612 0.89523053
0.075943887 0.51461357 0.89263821
0.084856302 0.51426333 0.89190513
0.091445953 0.51572436 0.89302748
0.10534122 0.51448208 0.89130032
0.11498605 0.51551843 0.89211839
0.12448256 0.51543933 0.89464563
0.13517386 0.51430202 0.8918817
0.14677973 0.51563346 0.89167613
0.1542467 0.51298577 0.89250004
0.16646057 0.51549321 0.89123166
0.17538628 0.51429445 0.8922379
0.18276377 0.51510346 0.89090681
0.19447169 0.51378334 0.89177191
0.20448886 0.51529241 0.89135104
0.21359397 0.51429147 0.89055002
0.22437456 0.51577848 0.89219117
0.23692352 0.5198012 0.89168578
0.25101945 0.51641649 0.89003503
0.26295289 0.51543772 0.89148259
0.27600864 0.51500028 0.89093751
0.28354165 0.51353163 0.89175618
0.29705933 0.51159549 0.89007652
0.31493273 0.51714736 0.89129418
0.32126486 0.51883107 0.89002162
0.33844751 0.51917768 0.89061618
0.34383845 0.5102874 0.89202476
-0.097240925 0.52229142 0.89595765
-0.084079981 0.52140886 0.89863932
-0.064401045 0.52050197 0.89707637
-0.047381788 0.52129257 0.89843893
-0.032689072 0.52092952 0.8978132
-0.024120629 0.52069265 0.89740491
-0.004998662 0.52162069 0.8990044
0.0055933902 0.52060854 0.89726007
0.028387239 0.52064794 0.8973279
0.048052032 0.52202344 0.89969856
0.055278417 0.52089471 0.89775318
0.072419591 0.52116215 0.8982141
0.089580946 0.52144486 0.89870137
0.091574609 0.52131575 0.89428395
0.10638234 0.5223164 0.8960005
0.11358701 0.52180511 0.89512336
0.13793477 0.52174848 0.89502627
0.14627701 0.52109158 0.89389938
0.16520908 0.52328658 0.89766479
0.22635254 0.52341688 0.89788824
0.23659135 0.52444458 0.89965123
0.31601506 0.52015746 0.89229691
0.3416709 0.52039522 0.89270478
0.40312681 -0.062285781 0.90743762
0.41197136 -0.063834786 0.90842366
0.3965725 -0.054685574 0.90433323
0.39483377 -0.044711281 0.90504426
0.39674485 -0.035259444 0.90472662
0.39702344 -0.025630154 0.90536201
0.40083319 -0.021668561 0.90283197
0.39871812 -0.01928748 0.90641159
0.40377411 -0.01432625 0.90468025
0.40766507 -0.0059942994 0.90520948
-0.057514552 0.0078282794 0.90396476
0.39691007 0.0036522939 0.90566248
0.40224069 0.004132987 0.90324116
0.0027589831 0.010269506 0.90228581
0.08621075 0.01271846 0.90180266
0.091659755 0.012793859 0.90714908
0.37767762 0.017656194 0.90327775
0.40530708 0.012948249 0.90461075
-0.11950994 0.025153127 0.9076634
-0.11941116 0.030069059 0.90691322
-0.10245134 0.043021273 0.90249151
-0.099308722 0.045952257 0.90367776
-0.099860623 0.057333756 0.90869993
-0.10170646 0.063125081 0.90312886
-0.10429084 0.081661768 0.90422404
-0.09655191 0.087492228 0.90090412
-0.097014785 0.094063938 0.90522313
-0.10306003 0.22493663 0.9063921
-0.10238907 0.27760038 0.9091903
-0.10195705 0.28505263 0.90535396
-0.10209621 0.2953127 0.90658975
-0.10491343 0.30340731 0.90253824
-0.11328483 0.3152951 0.90729868
-0.10915217 0.31281799 0.90372109
-0.11465672 0.32184726 0.90835726
-0.11252607 0.33770728 0.9044897
-0.10760684 0.33687937 0.90446067
-0.10632441 0.34621894 0.90581346
-0.11139552 0.35886246 0.90196955
-0.10622132 0.35450104 0.90493894
-0.11282499 0.36565781 0.90359175
-0.11266339 0.375911 0.90559852
-0.10436276 0.37478399 0.90484768
-0.10453308 0.38526267 0.90632433
-0.10654095 0.4069418 0.90243745
-0.10565855 0.43414536 0.90539259
-0.10544181 0.4443031 0.90351021
-0.10163785 0.45979381 0.90251958
-0.10730235 0.47787994 0.90888667
-0.10395682 0.49598396 0.90132809
-0.10463565 0.50663042 0.90721363
-0.10256373 0.5151599 0.90341282
-0.04097962 0.51871002 0.90103364
-0.037680347 0.51749718 0.90034431
0.043174021 0.51735896 0.90010387
-0.10157201 0.52086627 0.90193504
-0.074554868 0.52322125 0.90176296
-0.057785727 0.52697176 0.90822685
-0.040286083 0.52441913 0.90382743
-0.037791215 0.5239352 0.90299344
-0.024305381 0.52472484 0.90435433
-0.014404824 0.52255476 0.90061426
-0.0033770406 0.5229308 0.9012624
0.03606113 0.52570772 0.9060483
0.062804483 0.52252352 0.90056044
0.094659351 0.52369905 0.90047443
0.12702774 0.52703011 0.90408653
0.13148096 0.52516037 0.90087914
0.18134838 0.52757114 0.90501463
0.1952036 0.52508581 0.90075117
0.20086351 0.52707148 0.90415746
0.39945009 -0.061719783 0.91371578
0.4042353 -0.064375274 0.91611528
0.41459835 -0.066870719 0.91603851
0.39601463 -0.055544943 0.91440266
0.3946816 -0.045385368 0.91535091
0.39506051 -0.035663363 0.91508055
0.3954547 -0.025878977 0.91516894
0.39841861 -0.017811758 0.91515797
0.40152168 -0.012978467 0.91391402
0.40517899 -0.0053550717 0.9148066
-0.095805153 0.0054465118 0.91719568
0.39713797 0.0049363622 0.91526699
0.097052589 0.012854159 0.91142452
0.10258346 0.012925807 0.91650474
0.35639322 0.017821221 0.91172045
0.36411056 0.01795698 0.91866583
0.37956131 0.017919421 0.91674423
0.40234527 0.01249966 0.91560119
-0.10043485 0.053929541 0.91392523
-0.10060984 0.063997388 0.91551757
-0.10481291 0.078193873 0.91412079
-0.10759521 0.082306884 0.9113673
-0.10328493 0.20514297 0.91714531
-0.1032065 0.21745643 0.91644895
-0.10575827 0.22589867 0.91695517
-0.10549917 0.23071027 0.91461605
-0.10352772 0.26442471 0.91930115
-0.10281805 0.27503729 0.91299951
-0.10550392 0.28261417 0.91474742
-0.1055453 0.30431139 0.91510057
-0.11125749 0.31406638 0.91088724
-0.11307915 0.34933424 0.91560185
-0.11303033 0.35666752 0.91524076
-0.10781718 0.35464922 0.91324747
-0.11454718 0.36374125 0.91736501
-0.11461 0.37142834 0.91786206
-0.11346404 0.38302964 0.91871828
-0.10708962 0.38508698 0.91767246
-0.10568988 0.39575633 0.91635406
-0.1062911 0.40565741 0.91618174
-0.105883 0.4147675 0.9137274
-0.10553782 0.42507851 0.91503572
-0.11252396 0.43441117 0.91110647
-0.10558058 0.43147838 0.91540641
-0.10659899 0.44921631 0.91348457
-0.10518046 0.45341796 0.91193724
-0.1066533 0.46491456 0.91747284
-0.1067035 0.47514921 0.91435099
-0.1054469 0.5155353 0.91424739
-0.095325328 0.52953017 0.91263622
-0.080195174 0.52803856 0.91006553
-0.10349991 0.53450477 0.91905427
-0.095325328 0.53201407 0.91263622
0.4183948 -0.071813188 0.92629975
0.42146945 -0.07542441 0.9293676
0.40270635 -0.063677959 0.92403185
0.41754597 -0.067610264 0.92627513
0.3968935 -0.056111783 0.92368144
0.39501032 -0.046253875 0.92411649
0.39367944 -0.036204644 0.92436868
0.39591834 -0.026233843 0.92522687
0.39906034 -0.017117623 0.92239904
0.4026989 -0.01215541 0.92691797
0.40472537 -0.0060784495 0.92348713
-0.091162637 0.0054677301 0.9207688
-0.088972151 0.0054871934 0.92404646
0.39637411 0.0048572179 0.92394233
0.40050665 0.00045900821 0.92768365
0.37515679 0.018067569 0.92432344
0.40250534 0.013036788 0.9245488
-0.10191655 0.064824864 0.92740822
-0.10179107 0.081131399 0.92626631
-0.1037995 0.20365635 0.92171454
-0.10432102 0.21476458 0.92634553
-0.107769 0.22502884 0.92709756
-0.10461653 0.24571364 0.92896956
-0.10418615 0.25729275 0.92514789
-0.10427095 0.26128143 0.92590088
-0.10529254 0.27517366 0.92602152
-0.10745279 0.28655806 0.92615825
-0.1072889 0.29556394 0.9247359
-0.1083211 0.30663258 0.92462766
-0.11272877 0.31320286 0.92296422
-0.11645732 0.32439053 0.92262238
-0.11229984 0.34968328 0.92978209
-0.10880657 0.34536326 0.92162788
-0.1146125 0.35743603 0.9280178
-0.11704499 0.3638843 0.92727816
-0.11712015 0.38179582 0.92787361
-0.10631401 0.38680881 0.92176539
-0.10900788 0.39583454 0.92333311
-0.10888641 0.40209642 0.92230421
-0.10625028 0.41164976 0.92121285
-0.10716324 0.4261601 0.92187154
-0.11177725 0.43369615 0.92545533
-0.10933748 0.43652534 0.92612499
-0.10862068 0.44368526 0.92005342
-0.10975823 0.45592287 0.92968881
-0.10611836 0.4662303 0.92006904
-0.10634293 0.47223592 0.9220162
-0.11225229 0.48612991 0.92938834
-0.10705519 0.50066155 0.9281916
0.41927499 -0.075484723 0.93011075
0.42415905 -0.078687191 0.93810999
0.40457052 -0.063299119 0.93709671
0.41992882 -0.068409145 0.93721998
0.39672953 -0.054000095 0.93066907
0.39632893 -0.045384537 0.93570369
0.39552233 -0.032573517 0.93379927
0.39768094 -0.02492933 0.93290097
0.40039158 -0.022542853 0.93925977
0.39944187 -0.019812549 0.93108714
0.40224645 -0.016078297 0.93467206
0.40613648 -0.0054601459 0.93288755
0.39670065 0.005526118 0.93060142
0.40186501 0.0081120711 0.93673539
0.22646275 0.013167055 0.9336105
0.23085602 0.013200229 0.93596262
0.24653582 0.013221457 0.93746781
0.40444142 0.01318068 0.93484247
-0.10754015 0.074055173 0.93239635
-0.105377 0.19656751 0.93572247
-0.10492957 0.20333762 0.93174934
-0.10489183 0.21213749 0.93141413
-0.10510725 0.24940644 0.93332702
-0.10514233 0.25456619 0.93363857
-0.1135098 0.28694633 0.9397999
-0.10987368 0.28415772 0.93066674
-0.1104304 0.29577667 0.93538231
-0.11057893 0.30637583 0.9366405
-0.10749324 0.30358505 0.93198961
-0.11818846 0.38018149 0.93633717
-0.11266133 0.39142889 0.93277502
-0.11014072 0.41434586 0.93292868
0.42689773 -0.08201246 0.94702458
0.26824757 -0.076081507 0.94807577
0.27440971 -0.07437446 0.94826573
0.28152615 -0.074930839 0.9487592
0.42330348 -0.075381756 0.94475174
0.26761645 -0.066677839 0.94888276
0.27284157 -0.066692442 0.9490906
0.42066473 -0.068947844 0.94460034
0.27553886 -0.051214762 0.94948459
0.3991594 -0.050831873 0.94238615
0.40208927 -0.056185137 0.94627172
0.39845377 -0.040762451 0.94680417
0.39887697 -0.036935333 0.9478097
0.39888272 -0.027728468 0.94173288
0.40281239 -0.022755194 0.94796878
0.40697861 -0.012362038 0.94267452
0.40967172 -0.0072329021 0.94296777
0.41179132 -0.0046905545 0.94784659
0.39873761 0.0030279877 0.94139034
0.40325296 0.0030532945 0.94599676
0.067038596 0.010731488 0.94287598
0.073442779 0.010729499 0.94270122
0.23693068 0.01332685 0.94494069
0.24157333 0.013299577 0.94300687
0.25552198 0.013290535 0.94236583
0.26475856 0.013303928 0.94331539
0.27494264 0.013299461 0.94299871
0.28284234 0.013369701 0.94797903
0.40780821 0.014655845 0.94758797
-0.10885619 0.19826259 0.94380665
-0.10639515 0.20360631 0.9447633
-0.10953769 0.22535238 0.94971538
-0.10739826 0.24335533 0.94603598
-0.1109776 0.28445423 0.94001734
-0.11433439 0.29418373 0.94662708
-0.11155187 0.30649981 0.94488162
-0.11644944 0.35717973 0.94289106
-0.11888092 0.38497233 0.94182312
-0.11147568 0.39623845 0.94423622
-0.11156887 0.4364391 0.94502556
0.40555924 -0.13243386 0.95749569
0.41935435 -0.13006508 0.95924544
0.42737624 -0.13363299 0.95674783
0.43196708 -0.13514778 0.95826662
0.40642828 -0.12968847 0.95646787
0.41573507 -0.1254493 0.9539367
0.42683768 -0.12826158 0.95554715
0.42416793 -0.11298747 0.9583236
0.42537859 -0.10253075 0.95811236
0.42530185 -0.098601401 0.95794213
0.42845362 -0.086108886 0.95431757
0.43276834 -0.087145999 0.95619726
0.25614884 -0.075260371 0.95622045
0.26372445 -0.074381307 0.9516229
0.27327374 -0.071972623 0.95059454
0.28681919 -0.074717961 0.95261282
0.29203805 -0.074083753 0.95782578
0.25760129 -0.066051915 0.95645726
0.2642225 -0.065483212 0.9515537
0.2751621 -0.06527409 0.95161486
0.28479433 -0.065773845 0.95451379
0.29072362 -0.064639866 0.95693541
0.421884 -0.069572888 0.95316356
0.25786766 -0.05569974 0.95744473
0.26525444 -0.055371575 0.954328
0.27497131 -0.055515308 0.95229572
0.28498098 -0.055819415 0.95592916
0.29133734 -0.058250122 0.95895553
0.40535277 -0.056829993 0.95700824
0.25977206 -0.045157947 0.95805109
0.26541573 -0.045010887 0.95491326
0.27529725 -0.045226227 0.95402378
0.28472289 -0.044772189 0.95744818
0.40133902 -0.04495468 0.95366007
0.2648043 -0.034863241 0.95740777
0.27435106 -0.034311265 0.95692563
0.28215447 -0.035570588 0.9596796
0.40229335 -0.032046109 0.95592773
0.26596376 -0.023709968 0.95815921
0.27410069 -0.024535362 0.95710069
0.28085539 -0.024751093 0.95881236
0.26742351 -0.016464548 0.95744467
0.27473596 -0.016726019 0.95748597
0.40793541 -0.015057753 0.9508853
0.26572543 -0.0053227036 0.95862496
0.27292836 -0.0060476414 0.95846671
0.41234875 -0.0099256095 0.95511323
0.26547354 0.0046877922 0.9583658
0.27415466 0.0043856292 0.95819259
0.28114352 0.0083117746 0.95979595
0.40731919 0.0043816762 0.95551091
0.079184264 0.010813083 0.95004493
0.083724976 0.010898918 0.95758641
0.2652635 0.010915636 0.9590553
0.27410841 0.010903923 0.95802611
0.28387928 0.012175374 0.95586157
0.29124612 0.013520272 0.95865524
-0.1101337 0.21098503 0.95488292
-0.10973392 0.21798763 0.95141679
-0.11068565 0.22249019 0.95966846
-0.11549897 0.23992094 0.95626915
-0.10741828 0.24710193 0.95384848
-0.11476851 0.30305943 0.95022136
0.42801315 -0.14164576 0.96701115
0.43205866 -0.14124823 0.96429729
0.40434945 -0.13027769 0.96081346
0.4102647 -0.13311504 0.96242064
0.42596444 -0.13561107 0.96387082
0.43217862 -0.13431296 0.9616372
0.42544296 -0.12060782 0.96715152
0.43348545 -0.12638135 0.96601415
0.42487079 -0.11387317 0.96585089
0.42612693 -0.10760933 0.96077883
0.43183529 -0.10608136 0.96672797
0.42848465 -0.094596982 0.96363676
0.43414181 -0.095201068 0.96308458
0.25170705 -0.080701038 0.96211916
0.42982283 -0.088837214 0.96516484
0.25313792 -0.07388863 0.96425772
0.29704022 -0.07337106 0.96333879
0.30236387 -0.077337593 0.96920168
0.42445228 -0.070429511 0.96489942
0.2543886 -0.063802451 0.96401048
0.29704124 -0.06516701 0.96475232
0.41472304 -0.065302216 0.96669883
0.25514278 -0.055157274 0.96422333
0.28942075 -0.051849842 0.96125853
0.29522565 -0.05516931 0.96597785
0.25717998 -0.045389242 0.96300155
0.28965819 -0.045348816 0.9620471
0.29430366 -0.046402879 0.96582592
0.40601322 -0.04941326 0.96476692
0.2578029 -0.035153069 0.96463782
0.26033455 -0.03610941 0.96012563
0.28542551 -0.034298062 0.96164238
0.29146796 -0.03529153 0.96630508
0.25914967 -0.02448464 0.96544665
0.26162499 -0.02482627 0.96167058
0.28535795 -0.024259113 0.96225435
0.29131344 -0.024537252 0.96754479
0.40782714 -0.025823226 0.96596575
0.2593821 -0.014427948 0.96631259
0.26332009 -0.0140757 0.96255386
0.27570364 -0.013290372 0.96360987
0.28479868 -0.014937989 0.96442193
0.40963867 -0.017832605 0.9609521
0.25911927 -0.0047781928 0.96533346
0.26255018 -0.0065051261 0.96186513
0.27908486 -0.0060668923 0.96170372
0.284861 -0.0043442859 0.96648955
0.41586968 -0.0021451288 0.96326864
0.25802603 0.0048547275 0.96453661
0.26044005 0.004397437 0.96051478
0.27890357 0.00047553194 0.96107912
0.28471559 0.0039740438 0.96401364
0.40689695 0.0017859284 0.96374452
0.088214323 0.010971384 0.96395332
0.091146126 0.011008609 0.96722388
0.25795996 0.010993756 0.9659189
0.26075435 0.01094544 0.96167386
0.28616893 0.010966432 0.96351826
0.29635704 0.013635376 0.96681672
0.41104048 0.013557723 0.96117437
0.42783493 -0.14157398 0.97561836
0.43510568 -0.14532909 0.97405809
0.4440259 -0.14341739 0.97910601
0.40918031 -0.13448045 0.97229254
0.42753303 -0.13178131 0.97190285
0.44190019 -0.13742146 0.97441864
0.41488737 -0.12890568 0.97016889
0.42739958 -0.12532629 0.97310323
0.43595585 -0.12486833 0.97299618
0.44415838 -0.12213503 0.97939813
0.43746942 -0.11419007 0.97414964
0.42840767 -0.10686804 0.97389114
0.43525904 -0.10493921 0.97442144
0.44114763 -0.10739094 0.97863251
0.25152382 -0.081919715 0.97664827
0.25184715 -0.074222259 0.97447908
0.30378309 -0.072397508 0.97375083
0.43623573 -0.074166067 0.97956496
0.25246492 -0.064542852 0.97516674
0.30370802 -0.065072201 0.97633737
0.41470745 -0.060806327 0.97909397
0.25391838 -0.054836631 0.97564912
0.3019315 -0.053989645 0.97633344
0.40954745 -0.052492067 0.97316492
0.25525185 -0.045384102 0.974944
0.29796022 -0.043170497 0.97204697
0.30236706 -0.047416676 0.97774196
0.25565574 -0.035214171 0.97553021
0.29628563 -0.035938315 0.97305125
0.3002193 -0.034167841 0.97941673
0.25709826 -0.025151292 0.97428375
0.29598212 -0.024704833 0.97424412
0.41363886 -0.020780399 0.97657108
0.25901845 -0.014553068 0.97484231
0.26072165 -0.012737466 0.97130299
0.2854284 -0.012778076 0.97439975
0.29244506 -0.014542826 0.9742372
0.41681558 -0.012741161 0.97158474
0.25872236 -0.0048196954 0.97372794
0.28827205 -0.0048024282 0.97060311
0.29332089 -0.0048304768 0.9771477
0.42078221 -0.0074758963 0.9746474
0.25758243 0.0051267967 0.97444379
0.28987837 0.0031250317 0.97156101
0.29265827 0.0049060211 0.97494072
0.41062057 0.00048277352 0.97571486
0.097003445 0.011075888 0.97313511
0.10409261 0.011126123 0.97754878
0.25437677 0.011066636 0.97232211
0.29259372 0.011060658 0.97179699
0.30338156 0.013774935 0.97671217
0.41301975 0.015490875 0.9730444
0.4416717 -0.15021206 0.98874903
0.43180525 -0.14557172 0.98465872
0.41332319 -0.13049585 0.98213679
0.42366102 -0.133479 0.98442352
0.43086803 -0.13631858 0.98558223
0.42819151 -0.12559043 0.98559594
0.43933266 -0.12494446 0.98052651
0.44557938 -0.12519994 0.98253155
0.44676894 -0.11748268 0.98515457
0.4324798 -0.10119587 0.98314822
0.44505477 -0.10368435 0.98137474
0.43413004 -0.095618285 0.98083109
0.25091699 -0.082594953 0.98469853
0.43688765 -0.087627314 0.98102885
0.25075087 -0.075839251 0.98404658
0.3086744 -0.076933354 0.98087215
0.31068826 -0.072062485 0.98727161
0.086424217 -0.064080745 0.98849761
0.090421572 -0.064053215 0.98807287
0.25154135 -0.065332949 0.98714882
0.30660492 -0.062372137 0.98279595
0.31138501 -0.069530994 0.98948562
0.25298876 -0.054470517 0.98494709
0.30803028 -0.054596592 0.98736477
0.41420069 -0.055767249 0.98422194
0.0871595 -0.044607107 0.98920316
0.090441667 -0.04254863 0.9882924
0.25376719 -0.045101844 0.98535907
0.30422443 -0.043689426 0.9837479
0.41217059 -0.045129251 0.98577332
0.086963594 -0.033624992 0.98952246
0.091424406 -0.038101252 0.98921871
0.2541897 -0.035776626 0.98699963
0.30064929 -0.034218363 0.98081952
0.41187105 -0.037042126 0.98505688
0.086702436 -0.026417946 0.9885937
0.090546042 -0.026439998 0.98943293
0.25511131 -0.025235862 0.9843502
0.30165806 -0.024951555 0.98411047
0.41322446 -0.026238758 0.98190218
0.25765166 -0.015557711 0.98228693
0.26060987 -0.012928866 0.98589832
0.29678792 -0.014234914 0.98351002
0.41805094 -0.015529662 0.98068601
0.08645007 -0.004893126 0.98878133
0.25813806 -0.0048576221 0.9815836
0.29570514 -0.0075332979 0.982131
0.42275715 -0.0030872454 0.98544538
0.086501546 0.00048953714 0.98938453
0.25745377 0.0040553929 0.98237675
0.29525024 0.0044885851 0.98062021
0.41397595 0.0045026033 0.98529375
0.10841811 0.011160645 0.98058188
0.11550462 0.011200457 0.98407972
0.12273773 0.011250039 0.9884361
0.25215277 0.011203073 0.98430967
0.29832581 0.011176313 0.98195851
0.30864215 0.013832159 0.98076969
0.31522173 0.013886496 0.98462248
0.37656713 0.016553873 0.98388028
0.38118726 0.016638653 0.98891926
0.40820879 0.016642973 0.98917598
0.41108969 0.016596355 0.98640513
0.42106819 0.012589324 0.98776406
0.43917105 -0.15073942 0.99222022
0.4363409 -0.1489163 0.99810112
0.45292833 -0.14901109 0.99873644
0.43300983 -0.13969202 0.9904815
0.45157602 -0.13501538 0.99575454
0.43398738 -0.12109412 0.99271756
0.44779396 -0.12191059 0.99941093
0.45176977 -0.12965065 0.99618173
0.43644768 -0.11227252 0.99834532
0.45178384 -0.112028 0.99621272
0.43345684 -0.10483492 0.99593246
0.4502964 -0.10760798 0.99293286
0.42703834 -0.096079297 0.99668473
0.43328744 -0.098310314 0.99733126
0.24970113 -0.080386259 0.99050671
0.250137 -0.083227172 0.99223578
0.25112349 -0.075417697 0.99614894
0.31685293 -0.076937005 0.99822748
0.085612848 -0.063405491 0.99472839
0.09488187 -0.06384407 0.99407887
0.10498281 -0.063380927 0.99866599
0.25144225 -0.068728931 0.9974134
0.31326276 -0.067240953 0.99545258
0.42340043 -0.064801604 0.99961746
0.085471503 -0.054918222 0.99310565
0.094936423 -0.054916706 0.99306017
0.10425017 -0.056214001 0.99742508
0.25293934 -0.053539746 0.99263501
0.41498354 -0.055387948 0.99808329
0.083731323 -0.045038175 0.99381655
0.095592707 -0.044798598 0.99231982
0.10391767 -0.043655168 0.99821973
0.25359944 -0.04419741 0.99522549
0.30975437 -0.048151359 0.99289125
0.31193349 -0.045768727 0.99987626
0.085108228 -0.036322456 0.99280262
0.095411107 -0.034680415 0.99413049
0.10235975 -0.037594482 0.99960762
0.25410339 -0.034786642 0.99720329
0.30672315 -0.03595084 0.99182791
0.41461077 -0.031895917 0.99160945
0.083384551 -0.0241405 0.9933188
0.095061615 -0.024835091 0.99435282
0.10329621 -0.024499191 0.99813205
0.25556698 -0.022464981 0.9923476
0.30806392 -0.027974486 0.99616343
0.41813135 -0.026641916 0.99679154
0.08506462 -0.014062844 0.99322593
0.095212035 -0.014415669 0.99594092
0.10225257 -0.015812457 0.99856085
0.25803894 -0.014853793 0.99494314
0.29880047 -0.01301428 0.99241161
0.30422905 -0.014854491 0.99544877
0.42353705 -0.014387427 0.99356484
0.083995931 -0.0052179345 0.99345696
