# .PCD v0.7 - Point Cloud Data file format
VERSION 0.7
FIELDS x y z
SIZE 4 4 4
TYPE F F F
COUNT 1 1 1
WIDTH 1434
HEIGHT 1
VIEWPOINT 0 0 0 1 0 0 0
POINTS 1434
DATA ascii
0.44235078 -0.13495734 1.1316159
0.44509321 -0.13485509 1.1307585
0.44805086 -0.13481899 1.1304559
0.45115021 -0.13482574 1.1305124
0.45491651 -0.13503036 1.1322281
0.45943096 -0.13545281 1.1357703
0.46300781 -0.13559501 1.1369628
0.46437988 -0.13509394 1.1327612
0.4666484 -0.13485855 1.1307875
0.46860507 -0.1345367 1.1280888
0.47213686 -0.13466832 1.1291925
0.47467059 -0.1345154 1.1279103
0.47863492 -0.13476726 1.130022
0.481722 -0.13477047 1.130049
0.48416951 -0.13459584 1.1285847
0.48671934 -0.13445169 1.127376
0.48962107 -0.13440593 1.1269923
0.49292457 -0.13447034 1.1275325
0.49591419 -0.13444889 1.1273525
0.49995166 -0.13388671 1.1226387
0.50230187 -0.133699 1.1210647
0.50577897 -0.13381167 1.1220094
0.50901908 -0.13386065 1.1224202
-0.44215369 -0.14747401 1.2654475
-0.43599752 -0.14656237 1.2576249
-0.42787734 -0.14730202 1.2639717
-0.42028758 -0.14705379 1.2618418
-0.41713011 -0.14715149 1.2626801
-0.41295925 -0.14689033 1.260439
-0.40891728 -0.14667103 1.2585573
-0.40613464 -0.14690354 1.2605524
-0.40281603 -0.14694448 1.2609037
-0.39715171 -0.14612308 1.2538555
-0.39415091 -0.14627592 1.255167
-0.39105642 -0.14639637 1.2562004
-0.38809413 -0.14656885 1.2576805
-0.38392478 -0.14628451 1.2552406
-0.37054414 -0.1463971 1.2562068
-0.36785585 -0.14668849 1.2587072
-0.36302164 -0.14612161 1.2538428
-0.36014459 -0.14633922 1.2557101
-0.35592631 -0.14601079 1.2528919
-0.35236821 -0.14594945 1.2523656
-0.34738016 -0.14528887 1.2466972
-0.34400773 -0.14529762 1.2467723
-0.3408637 -0.14540398 1.247685
-0.337542 -0.14543591 1.247959
-0.3339358 -0.14534469 1.2471762
-0.33185822 -0.14592373 1.2521449
-0.3248848 -0.14585306 1.2515384
-0.32020178 -0.14527383 1.2465682
-0.31719196 -0.14544944 1.2480751
-0.31367177 -0.14539231 1.2475848
-0.31053504 -0.14551361 1.2486256
-0.30758777 -0.14572734 1.2504597
-0.30232894 -0.14483844 1.2428322
-0.29953441 -0.14512338 1.2452772
-0.29577631 -0.14494264 1.2437264
-0.29354402 -0.14551409 1.2486298
-0.28958306 -0.14523196 1.2462089
-0.28609422 -0.14518274 1.2457865
-0.28308609 -0.1453792 1.2474723
-0.27964914 -0.14535752 1.2472863
-0.27625069 -0.1453556 1.2472697
-0.27213484 -0.14497142 1.2439733
-0.26917094 -0.14519899 1.2459259
-0.26512972 -0.14484377 1.242878
-0.26193699 -0.14494894 1.2437804
-0.2577554 -0.14450248 1.2399493
-0.25440234 -0.14451483 1.2400553
-0.25039002 -0.14414796 1.2369074
-0.24713287 -0.14421178 1.237455
-0.24364088 -0.14413844 1.2368256
-0.22308326 -0.14390628 1.2348335
-0.21954712 -0.14379148 1.2338485
-0.20373845 -0.14448808 1.2398258
-0.20081627 -0.14481424 1.2426245
-0.19695345 -0.1444616 1.2395986
-0.19296192 -0.14400065 1.2356433
-0.18894075 -0.14350082 1.2313544
-0.18571508 -0.14359803 1.2321885
-0.18234423 -0.1435845 1.2320724
-0.17951687 -0.14400645 1.235693
-0.17229758 -0.14359568 1.2321683
-0.16898701 -0.14363226 1.2324822
-0.1656587 -0.14365494 1.2326769
-0.15870965 -0.14343889 1.2308229
-0.12151043 -0.1430272 1.2272903
-0.11799456 -0.14281474 1.2254672
-0.11479129 -0.14297928 1.2268791
-0.11153711 -0.14308837 1.2278152
-0.10800768 -0.14284019 1.2256856
-0.10438619 -0.14245056 1.2223421
-0.10111598 -0.14253041 1.2230275
-0.097764738 -0.1424976 1.2227459
-0.094607405 -0.14275509 1.2249553
-0.081143066 -0.14252952 1.2230197
-0.07776811 -0.14244482 1.2222929
-0.074622884 -0.14279214 1.2252733
-0.071288586 -0.14279324 1.2252827
-0.067930676 -0.14274482 1.2248672
-0.064424917 -0.14236471 1.2216055
-0.061001729 -0.14213561 1.2196397
-0.057639148 -0.14202948 1.218729
-0.054281201 -0.1419225 1.2178111
-0.050980188 -0.14196017 1.2181343
-0.04758634 -0.14172658 1.2161299
-0.044353336 -0.14197291 1.2182436
-0.040961899 -0.14171094 1.2159957
-0.03764791 -0.14169441 1.2158538
-0.034255993 -0.14135313 1.2129253
-0.030971114 -0.14142783 1.2135663
-0.021108652 -0.14173998 1.2162448
-0.017812107 -0.14184931 1.217183
-0.014489393 -0.14175259 1.2163531
-0.011158331 -0.14149271 1.2141231
-0.0045403806 -0.14121427 1.2117338
-0.0012406268 -0.14101447 1.2100194
0.0020564634 -0.14127281 1.2122362
0.0053652246 -0.14152071 1.2143633
0.0086592883 -0.14133972 1.2128103
0.011931814 -0.1410041 1.2099304
0.015182877 -0.14061488 1.2065907
0.018498318 -0.14085431 1.2086451
0.031721458 -0.14114255 1.2111185
0.035004038 -0.14108717 1.2106433
0.038214374 -0.14077519 1.2079662
0.041391507 -0.14039999 1.2047467
0.044683222 -0.14044003 1.2050903
0.047928255 -0.1403379 1.2042139
0.057817534 -0.14047565 1.2053958
0.070496097 -0.13959561 1.1978444
0.073869228 -0.13980936 1.1996785
0.077107549 -0.13976066 1.1992607
0.080472976 -0.13993695 1.2007735
0.083575994 -0.13966098 1.1984054
0.086805277 -0.13960882 1.1979578
0.090048462 -0.13958198 1.1977274
0.093520142 -0.13989882 1.2004462
0.10323003 -0.13977435 1.1993781
0.10644434 -0.13970864 1.1988143
0.11590463 -0.13931414 1.1954292
0.11896402 -0.13908705 1.1934806
0.12207446 -0.13893016 1.1921343
0.12573478 -0.13939096 1.1960883
0.13542949 -0.13931738 1.195457
0.13864389 -0.13927791 1.1951183
0.14212641 -0.13950342 1.1970533
0.15715887 -0.13839583 1.1875494
0.16005233 -0.13810357 1.1850415
0.16316532 -0.13800853 1.184226
0.16628501 -0.13792273 1.1834898
0.16953222 -0.13794398 1.1836721
0.17268258 -0.13788708 1.1831838
0.17607673 -0.13802335 1.1843531
0.17880891 -0.13764517 1.181108
0.18213055 -0.13772607 1.1818023
0.18537518 -0.13774696 1.1819814
0.18887213 -0.1379514 1.1837358
0.19209719 -0.13795376 1.183756
0.19537862 -0.13799584 1.1841171
0.198807 -0.13813867 1.1853427
0.20174336 -0.13794053 1.1836424
0.20712818 -0.13723934 1.1776257
0.21019448 -0.13714872 1.1768482
0.21350485 -0.1372177 1.17744
0.21671288 -0.13721983 1.1774583
0.21989919 -0.13720836 1.1773598
0.22326939 -0.1373103 1.1782346
0.22601651 -0.13703158 1.175843
0.22891842 -0.13685319 1.1743122
0.23213047 -0.13686258 1.1743927
0.23588271 -0.13718586 1.1771668
0.238701 -0.1369646 1.1752682
0.24169558 -0.136849 1.1742762
0.24464402 -0.13671063 1.1730889
0.25336319 -0.13624854 1.1691239
0.25652602 -0.13623835 1.1690364
0.26046613 -0.13663615 1.1724498
0.26425025 -0.13694349 1.1750871
0.26753333 -0.13698693 1.1754597
0.27000514 -0.13661884 1.1723013
0.272192 -0.13611686 1.1679939
0.27535379 -0.13610837 1.1679211
0.27865022 -0.13616589 1.1684146
0.28506273 -0.13619088 1.1686291
0.2880725 -0.13611013 1.1679361
0.29042655 -0.13572471 1.1646289
0.29337239 -0.13562118 1.1637405
0.29633114 -0.13552576 1.1629218
0.29912117 -0.13535602 1.1614653
0.30233261 -0.13537852 1.1616584
0.30555576 -0.13540576 1.1618921
0.30866987 -0.1353846 1.1617105
0.31168368 -0.13532034 1.161159
0.31483352 -0.13531582 1.1611203
0.31776619 -0.13521898 1.1602893
0.32169366 -0.1355432 1.1630714
0.32448339 -0.13538639 1.1617259
0.3272512 -0.13522355 1.1603286
0.32875502 -0.13454653 1.1545192
0.33223411 -0.13468307 1.1556908
0.33529836 -0.13465045 1.1554109
0.33884567 -0.13481063 1.1567854
0.34129369 -0.13453452 1.1544162
0.34362742 -0.13421884 1.1517073
0.34668109 -0.13418749 1.1514384
0.35036132 -0.13439707 1.1532367
0.35385901 -0.13453352 1.1544076
0.35621327 -0.13423669 1.1518605
0.35984024 -0.13442044 1.1534373
0.36266869 -0.13430531 1.1524494
0.36549971 -0.13419311 1.1514865
0.36775097 -0.13387176 1.1487291
0.37141037 -0.13406411 1.1503797
0.37837464 -0.13431339 1.1525186
0.38178381 -0.13440928 1.1533414
0.38651538 -0.13387361 1.1487449
0.38966435 -0.1338813 1.148811
0.3922255 -0.13368852 1.1471568
0.39550069 -0.13374025 1.1476007
0.39813343 -0.1335756 1.1461879
0.40088481 -0.13345304 1.1451361
0.40369099 -0.13335046 1.1442559
0.40597755 -0.13307911 1.1419275
0.40955362 -0.13323137 1.143234
0.41209307 -0.13304667 1.1416491
0.41503713 -0.13299437 1.1412004
0.41806331 -0.13296898 1.1409825
0.42289162 -0.13351291 1.1456499
0.42719322 -0.13388382 1.1488326
0.43002224 -0.13379116 1.1480376
0.43771982 -0.13233966 1.1355824
0.44002518 -0.13210388 1.1335592
0.44311842 -0.13210626 1.1335797
0.4465149 -0.13219841 1.1343703
0.45005795 -0.13233237 1.1355199
0.45162329 -0.13188696 1.1316979
0.45457286 -0.13184908 1.1313728
0.45831352 -0.13203962 1.1330079
0.46353266 -0.13265072 1.1382515
0.46561423 -0.13236178 1.1357722
0.46801183 -0.13216589 1.1340914
0.46930125 -0.13166168 1.1297648
0.47384277 -0.13207045 1.1332724
0.47652036 -0.13195778 1.1323056
0.48051599 -0.13220921 1.1344631
0.48287901 -0.1320111 1.1327631
0.48551401 -0.13188939 1.1317188
0.48849091 -0.13186149 1.1314794
0.49156711 -0.13186058 1.1314716
0.50847286 -0.13066538 1.1212157
-0.41611937 -0.14336659 1.2596204
-0.41285506 -0.14342359 1.2601211
-0.40889341 -0.14323722 1.2584838
-0.40593657 -0.1434027 1.2599376
-0.39720991 -0.14273137 1.2540393
-0.39007902 -0.14261998 1.2530607
-0.38675278 -0.14265105 1.2533337
-0.38296688 -0.14251164 1.2521087
-0.37109795 -0.14319175 1.2580843
-0.36733222 -0.14305872 1.2569155
-0.36273018 -0.14259443 1.2528361
-0.36016938 -0.14293137 1.2557966
-0.35634568 -0.1427688 1.2543682
-0.35270858 -0.14267856 1.2535753
-0.34799081 -0.14214514 1.2488887
-0.3447943 -0.14222872 1.2496231
-0.34096658 -0.142051 1.2480615
-0.33690247 -0.14177021 1.2455946
-0.33326563 -0.14166535 1.2446733
-0.3312934 -0.1422732 1.2500138
-0.32870507 -0.14262633 1.2531165
-0.32497987 -0.14248841 1.2519046
-0.3203375 -0.14194116 1.2470965
-0.31679857 -0.14187635 1.2465272
-0.31284034 -0.14162035 1.244278
-0.30973449 -0.14174882 1.2454066
-0.30685231 -0.14198363 1.2474697
-0.30301455 -0.14177659 1.2456506
-0.29995787 -0.14193445 1.2470376
-0.29644632 -0.14187825 1.2465438
-0.29294071 -0.14182359 1.2460636
-0.27646944 -0.14207329 1.2482574
-0.27216327 -0.14160047 1.2441033
-0.26876071 -0.1415918 1.244027
-0.26493663 -0.14135799 1.2419728
-0.26146102 -0.14130649 1.2415203
-0.25715023 -0.14079635 1.2370383
-0.25351578 -0.14064789 1.2357339
-0.24997266 -0.1405468 1.2348456
-0.2469186 -0.14072168 1.2363821
-0.22320358 -0.14062122 1.2354995
-0.21955185 -0.14043632 1.233875
-0.21599396 -0.14030664 1.2327356
-0.20311466 -0.14068158 1.2360299
-0.20062889 -0.14130019 1.241465
-0.19704007 -0.14114983 1.2401439
-0.19299585 -0.1406623 1.2358605
-0.18866979 -0.13994843 1.2295884
-0.18528427 -0.13991904 1.2293302
-0.18216665 -0.14009459 1.2308725
-0.17936245 -0.14052227 1.2346301
-0.17592485 -0.14046055 1.2340879
-0.17196193 -0.13996886 1.2297679
-0.16872202 -0.14005783 1.2305496
-0.16561483 -0.14026278 1.2323503
-0.15540387 -0.14012876 1.2311728
-0.15239191 -0.14044113 1.2339172
-0.12493983 -0.13978651 1.2281657
-0.12124157 -0.13937779 1.2245747
-0.11761257 -0.13902782 1.2214999
-0.11447984 -0.1392612 1.2235503
-0.11138888 -0.13956088 1.2261834
-0.1080328 -0.13953666 1.2259706
-0.10445457 -0.13921481 1.2231429
-0.10115739 -0.13925868 1.2235283
-0.097818196 -0.13924573 1.2234145
-0.087771416 -0.13915472 1.2226148
-0.084344372 -0.13899085 1.2211751
-0.080883764 -0.13875598 1.2191114
-0.077450022 -0.13854906 1.2172935
-0.074244626 -0.13875039 1.2190624
-0.070855901 -0.13861193 1.2178458
-0.067658812 -0.13885315 1.2199652
-0.064284638 -0.1387371 1.2189456
-0.060946964 -0.13869147 1.2185447
-0.057596531 -0.13860989 1.2178279
-0.054215897 -0.13844122 1.216346
-0.05089584 -0.13841537 1.2161188
-0.047505487 -0.13818143 1.2140635
-0.044244103 -0.13831572 1.2152433
-0.040897109 -0.13818243 1.2140723
-0.037604716 -0.13822642 1.2144588
-0.021101331 -0.1383817 1.2158231
-0.017773546 -0.13823657 1.214548
-0.014459057 -0.13815217 1.2138064
-0.011141126 -0.13797514 1.2122511
-0.0078486251 -0.1380966 1.2133182
-0.0045393831 -0.13788597 1.2114676
-0.0012413665 -0.13780326 1.2107408
0.0020568776 -0.13800123 1.2124803
0.0053583761 -0.13803913 1.2128133
0.0086216852 -0.13743936 1.2075436
0.011871291 -0.13701248 1.2037932
0.015111338 -0.13668382 1.2009054
0.018443678 -0.13715838 1.205075
0.031645045 -0.13751417 1.2082011
0.034934595 -0.13751879 1.2082416
0.038186293 -0.13738641 1.2070785
0.041428633 -0.13724402 1.2058274
0.044671506 -0.13712415 1.2047743
0.04786377 -0.13687597 1.2025937
0.057982344 -0.13758597 1.2088318
0.06113961 -0.13728771 1.2062112
0.067249179 -0.13636233 1.1980809
0.070634849 -0.13660374 1.200202
0.07395532 -0.13670331 1.2010767
0.077169895 -0.13660699 1.2002305
0.080324844 -0.13641721 1.1985631
0.083584756 -0.13641356 1.198531
0.086827435 -0.13638312 1.1982635
0.090013273 -0.13626884 1.1972594
0.093355857 -0.13639154 1.1983374
0.096612021 -0.13638395 1.1982708
0.099722445 -0.13617785 1.19646
0.10289529 -0.13606732 1.1954889
0.10619725 -0.13612907 1.1960315
0.11570564 -0.13582693 1.1933769
0.11853456 -0.13534838 1.1891723
0.12164854 -0.13521208 1.1879748
0.13533288 -0.13596661 1.1946042
0.13860689 -0.13598883 1.1947993
0.15076393 -0.13522591 1.1880963
0.15361927 -0.13489372 1.1851776
0.15665765 -0.13473259 1.183762
0.15944704 -0.13436814 1.1805599
0.16281255 -0.13449399 1.1816657
0.16600381 -0.13447383 1.1814885
0.16923936 -0.13448963 1.1816273
0.1723512 -0.13440835 1.1809132
0.1757988 -0.13458711 1.1824838
0.17868349 -0.13433622 1.1802795
0.18200371 -0.13441586 1.1809793
0.18524916 -0.13443848 1.181178
0.1886276 -0.13455519 1.1822033
0.19179375 -0.1345191 1.1818862
0.19514826 -0.13461411 1.182721
0.19871244 -0.13484833 1.1847788
0.20378232 -0.1339417 1.1768131
0.20634282 -0.13352595 1.1731604
0.20940429 -0.13344213 1.172424
0.21298689 -0.13368793 1.1745836
0.21656655 -0.13392463 1.1766633
0.21960635 -0.13382547 1.175792
0.22281328 -0.13382952 1.1758276
0.22539815 -0.13346513 1.172626
0.22864288 -0.13349617 1.1728988
0.23125079 -0.13315967 1.1699423
0.23500101 -0.13348114 1.1727667
0.23784906 -0.13328843 1.1710736
0.24198861 -0.13381499 1.1756999
0.24482091 -0.13361435 1.1739371
0.24827641 -0.13375463 1.1751696
0.25027215 -0.13311492 1.1695491
0.25318208 -0.13297139 1.1682881
0.25596803 -0.13276714 1.1664935
0.2595081 -0.13295425 1.1681374
0.26289928 -0.13306147 1.1690794
0.26626953 -0.13315567 1.1699071
0.26893598 -0.13289982 1.1676593
0.2717301 -0.13271232 1.1660118
0.27478775 -0.13265637 1.1655202
0.27800104 -0.13267596 1.1656924
0.28143063 -0.1327972 1.1667576
0.28452814 -0.13276076 1.1664375
0.28986251 -0.13229749 1.1623671
0.29274851 -0.13217212 1.1612657
0.29615045 -0.13227992 1.1622127
0.29898489 -0.13213462 1.1609361
0.30212298 -0.13212514 1.1608529
0.30542371 -0.13218626 1.1613899
0.30929297 -0.13248967 1.1640556
0.31203827 -0.13231033 1.16248
0.31468827 -0.13209461 1.1605846
0.31707656 -0.1317744 1.1577712
0.32027319 -0.13179313 1.1579357
0.32373402 -0.13191915 1.159043
0.32605967 -0.13158461 1.1561038
0.32893547 -0.13147639 1.1551529
0.33195332 -0.13142642 1.154714
0.3353301 -0.1315182 1.1555203
0.3384304 -0.13150084 1.1553677
0.34117243 -0.13134587 1.1540061
0.34360555 -0.13107587 1.151634
0.34625521 -0.13089262 1.1500239
0.34945944 -0.13092041 1.1502681
0.35300061 -0.13107282 1.1516072
0.35589296 -0.13098375 1.1508247
0.35968986 -0.13122626 1.1529553
0.36227265 -0.13102543 1.1511909
0.36509687 -0.13091464 1.1502174
0.3668673 -0.13043107 1.1459688
0.37077883 -0.13071047 1.1484236
0.37408271 -0.13077275 1.1489708
0.37823918 -0.13112959 1.152106
0.38132161 -0.13111128 1.1519451
0.38846081 -0.13035071 1.1452627
0.3913298 -0.13026813 1.1445371
0.39439654 -0.13025215 1.1443968
0.39685893 -0.1300384 1.1425188
0.3997032 -0.12995213 1.1417608
0.40314448 -0.13005979 1.1427068
0.40591326 -0.12995052 1.1417466
0.408409 -0.12975615 1.140039
0.41030571 -0.12937583 1.1366974
0.41324288 -0.12932682 1.1362668
0.41691625 -0.12950724 1.137852
0.42194238 -0.13010208 1.1430783
0.42518258 -0.1301416 1.1434255
0.42872065 -0.12933129 1.136306
0.43197116 -0.12937856 1.1367214
0.43467706 -0.12926319 1.1357077
0.43737242 -0.12914634 1.1346811
0.43970343 -0.12892431 1.1327304
0.44262275 -0.12887666 1.1323117
0.44672409 -0.12917146 1.1349018
0.45023513 -0.12929268 1.1359669
0.45206469 -0.12893268 1.1328039
0.45371008 -0.12852539 1.1292255
0.45693791 -0.12856884 1.1296072
0.46240988 -0.12923892 1.1354945
0.46595594 -0.1293654 1.1366057
0.46849716 -0.12921306 1.1352674
0.47079119 -0.12899502 1.1333516
0.47544578 -0.12942237 1.1371063
0.47887659 -0.12951322 1.1379045
0.48129383 -0.12933055 1.1362995
0.48257223 -0.12884614 1.1320435
0.48457864 -0.12856102 1.1295384
0.48737842 -0.12848864 1.1289026
0.49987 -0.12933573 1.1363451
-0.42378598 -0.14020623 1.2620325
-0.41920722 -0.1398247 1.2585982
-0.41641077 -0.14003627 1.2605026
-0.41366342 -0.140268 1.2625884
-0.41003838 -0.14020349 1.2620078
-0.40696737 -0.14032894 1.263137
-0.38675147 -0.13923937 1.2533295
-0.3824507 -0.13891625 1.250421
-0.37477818 -0.13986318 1.2589445
-0.37116238 -0.13979188 1.2583027
-0.36626792 -0.13923317 1.2532737
-0.36177257 -0.13881712 1.2495286
-0.35876644 -0.13897002 1.2509049
-0.35580251 -0.13914235 1.2524562
-0.35265759 -0.13924655 1.2533941
-0.34911278 -0.13919336 1.2529153
-0.34608391 -0.13934685 1.2542969
-0.34112439 -0.13871829 1.2486391
-0.33669776 -0.13829598 1.2448378
-0.33315784 -0.13823298 1.2442707
-0.33167955 -0.13903289 1.2514708
-0.32926816 -0.13945419 1.2552631
-0.32591364 -0.1394807 1.2555017
-0.32132331 -0.13897328 1.2509344
-0.31761622 -0.13884109 1.2497445
-0.31321225 -0.13839811 1.2457571
-0.30985248 -0.13841188 1.2458811
-0.30713922 -0.13871796 1.2486361
-0.30336726 -0.13854736 1.2471006
-0.30031231 -0.13870408 1.2485112
-0.29609543 -0.13832158 1.2450682
-0.29239109 -0.13817243 1.2437257
-0.27308592 -0.13868293 1.2483208
-0.26932013 -0.13849358 1.2466165
-0.26532266 -0.13817875 1.2437825
-0.26123235 -0.13780679 1.2404344
-0.25744006 -0.13758437 1.2384324
-0.25403234 -0.1375643 1.2382518
-0.25148684 -0.13801688 1.2423255
-0.23628975 -0.13902251 1.2513775
-0.22373305 -0.13758413 1.2384303
-0.21990381 -0.13729782 1.2358531
-0.2163001 -0.13714559 1.2344829
-0.20320176 -0.13737634 1.2365599
-0.20032382 -0.13771157 1.2395773
-0.19693354 -0.13770002 1.2394733
-0.19280903 -0.13716574 1.2346642
-0.18871136 -0.13663194 1.2298594
-0.18500847 -0.13636985 1.2275002
-0.18206677 -0.13666953 1.2301977
-0.17920588 -0.13704221 1.2335523
-0.17612706 -0.1372593 1.2355064
-0.17210934 -0.1367389 1.2308221
-0.16860281 -0.13661203 1.2296801
-0.16548245 -0.13679925 1.2313653
-0.14619169 -0.13756882 1.2382923
-0.14248025 -0.13724022 1.2353345
-0.13954866 -0.13766503 1.2391585
-0.12495501 -0.13646036 1.228315
-0.12115163 -0.13594392 1.2236663
-0.11774371 -0.13585456 1.2228619
-0.11453657 -0.1359984 1.2241566
-0.1113266 -0.13614739 1.2254978
-0.10816008 -0.13636038 1.227415
-0.10472798 -0.13624145 1.2263445
-0.10128673 -0.13610239 1.2250928
-0.097772427 -0.13585235 1.2228421
-0.094454847 -0.13586769 1.22298
-0.088179901 -0.13645923 1.2283047
-0.084605269 -0.13608681 1.2249525
-0.080873311 -0.13542038 1.2189538
-0.077443734 -0.13522495 1.2171947
-0.064494811 -0.13586222 1.2229308
-0.061182074 -0.13589716 1.2232454
-0.057784185 -0.13573611 1.2217957
-0.054362819 -0.13549687 1.2196423
-0.050952967 -0.13525708 1.2174839
-0.04768328 -0.13538189 1.2186073
-0.044319838 -0.13523927 1.2173235
-0.041063972 -0.13542838 1.2190259
-0.024450088 -0.13529187 1.217797
-0.021124309 -0.13521965 1.217147
-0.017770808 -0.13491014 1.214361
-0.0144863 -0.13510261 1.2160934
-0.011175264 -0.1350884 1.2159655
-0.0078709973 -0.13517852 1.2167767
-0.004539948 -0.13460545 1.2116184
-0.001241524 -0.13452502 1.2108943
0.002054519 -0.13454676 1.2110901
0.0053596324 -0.13476978 1.2130976
0.0086330185 -0.1343291 1.2091309
0.011899139 -0.13404982 1.206617
0.015153863 -0.13379073 1.2042849
0.018436247 -0.13382459 1.2045896
0.031624652 -0.1341393 1.2074225
0.034888882 -0.13405466 1.2066605
0.038128614 -0.13389854 1.2052553
0.041396085 -0.13385685 1.20488
0.044579845 -0.13357046 1.2023022
0.047723122 -0.13321026 1.1990598
0.057984933 -0.13430187 1.2088858
0.061163548 -0.13405721 1.2066835
0.064111799 -0.13335828 1.2003924
0.067231834 -0.13306718 1.1977719
0.070603006 -0.13327703 1.1996609
0.073949814 -0.13342439 1.2009873
0.077128425 -0.13326864 1.1995854
0.080347709 -0.13319297 1.1989043
0.083632015 -0.1332268 1.1992087
0.086862072 -0.1331749 1.1987416
0.10003919 -0.13334362 1.2002603
0.10309066 -0.13306572 1.1977588
0.10632278 -0.13303088 1.1974453
0.10963684 -0.1330976 1.1980458
0.11869045 -0.13228554 1.1907362
0.12177144 -0.13211209 1.189175
0.12523171 -0.13234849 1.1913029
0.15107708 -0.1322664 1.190564
0.15411544 -0.13209327 1.1890055
0.15718934 -0.13195707 1.1877797
0.16009425 -0.13168736 1.1853518
0.16367076 -0.13196982 1.1878945
0.16704232 -0.13207929 1.1888797
0.17035848 -0.13214163 1.189441
0.17287199 -0.13159066 1.1844815
0.17588392 -0.13143232 1.1830562
0.17852521 -0.13100769 1.179234
0.18217047 -0.13132179 1.1820613
0.18553242 -0.13142429 1.182984
0.192075 -0.13149488 1.1836193
0.19479677 -0.13115841 1.1805907
0.19806144 -0.13119248 1.1808974
0.20106679 -0.13105644 1.1796728
0.20387611 -0.13079891 1.1773547
0.20675312 -0.13059211 1.1754932
0.20962246 -0.13038683 1.1736455
0.21297751 -0.1304853 1.1745318
0.21678615 -0.13085465 1.1778564
0.22026801 -0.13101886 1.1793345
0.22352538 -0.13104673 1.1795855
0.22610331 -0.13068113 1.1762946
0.22933497 -0.13069829 1.1764491
0.23197906 -0.13038474 1.1736267
0.23511863 -0.1303544 1.1733537
0.23783015 -0.13009076 1.1709805
0.24181025 -0.13051879 1.1748333
0.24496301 -0.13049492 1.1746185
0.24830475 -0.13057105 1.1753037
0.25062388 -0.13011435 1.1711928
0.25373247 -0.1300738 1.1708279
0.25681365 -0.13002039 1.1703471
0.25974157 -0.12989166 1.1691884
0.26269966 -0.12978095 1.1681918
0.26625231 -0.1299631 1.1698314
0.26933414 -0.12991384 1.1693879
0.27236483 -0.12984136 1.1687355
0.27511549 -0.12963858 1.1669103
0.2785078 -0.12973934 1.1678174
0.28186455 -0.12982146 1.1685565
0.2847968 -0.12970841 1.1675389
0.29334134 -0.12927274 1.1636174
0.29694399 -0.12946266 1.1653268
0.29969886 -0.12928286 1.1637084
0.3023822 -0.12907629 1.1618489
0.30569774 -0.12914106 1.162432
0.30984136 -0.12955074 1.1661196
0.31231409 -0.12926055 1.1635076
0.31504831 -0.12908334 1.1619124
0.31658798 -0.12842508 1.1559873
0.31999829 -0.12853113 1.1569419
0.32322022 -0.12856019 1.1572034
0.32678369 -0.12872322 1.1586709
0.32977235 -0.12865888 1.1580918
0.33259892 -0.12853312 1.1569598
0.3357895 -0.12854908 1.1571034
0.33861324 -0.1284256 1.1559919
0.34146553 -0.12831512 1.1549975
0.34416845 -0.12815104 1.1535206
0.34709495 -0.12807243 1.152813
0.34988168 -0.12794411 1.1516579
0.35301664 -0.12794428 1.1516595
0.35644954 -0.12805149 1.1526245
0.36017483 -0.12826094 1.1545098
0.36270884 -0.1280462 1.1525769
0.36512092 -0.12779249 1.1502932
0.36749363 -0.12752943 1.1479253
0.37133899 -0.12777753 1.1501585
0.37912825 -0.12829475 1.1548141
0.38163981 -0.12808281 1.1529064
0.38861716 -0.12728484 1.1457237
0.39128527 -0.12713856 1.1444069
0.39445052 -0.12715483 1.1445534
0.39828607 -0.12738524 1.1466274
0.40116441 -0.12730829 1.1459348
0.40415585 -0.12726815 1.1455735
0.4106718 -0.12639473 1.1377116
0.41409436 -0.12649433 1.1386081
0.41785991 -0.12669644 1.1404274
0.422418 -0.1271341 1.1443669
0.42422315 -0.12674287 1.1408453
0.42606035 -0.12636684 1.1374605
0.42728832 -0.12581682 1.1325097
0.43147025 -0.12613827 1.1354032
0.43589103 -0.12652449 1.1388795
0.43896568 -0.12651727 1.1388146
0.4415606 -0.12637284 1.1375146
0.44391352 -0.12616166 1.1356137
0.44748533 -0.12629743 1.1368357
0.45044583 -0.12625995 1.1364985
0.45267555 -0.12601957 1.1343347
0.45529321 -0.1258897 1.1331657
0.45792583 -0.1257657 1.1320494
0.46250817 -0.12617524 1.1357359
0.46587896 -0.12625101 1.136418
0.46873069 -0.12618606 1.1358333
0.47139302 -0.1260713 1.1348003
0.47565439 -0.12638292 1.1376052
0.4789044 -0.12642351 1.1379706
0.48108831 -0.12618396 1.1358143
0.48288572 -0.12584673 1.1327789
0.48533317 -0.12568213 1.1312972
0.48865259 -0.12574397 1.1318539
0.49163473 -0.1257188 1.1316273
0.49597895 -0.12604007 1.1345192
0.49951956 -0.12615442 1.1355485
-0.42830768 -0.13711926 1.2652429
-0.42424399 -0.13691916 1.2633964
-0.41974244 -0.1365733 1.2602051
-0.4157322 -0.13638292 1.2584485
-0.41395935 -0.13692947 1.2634916
-0.41065684 -0.13697495 1.2639112
-0.40798822 -0.13723442 1.2663054
-0.40304875 -0.13672796 1.2616322
-0.39863098 -0.1363913 1.2585257
-0.38274017 -0.13561553 1.2513674
-0.3786411 -0.13536771 1.2490807
-0.37652868 -0.13583207 1.2533655
-0.3738997 -0.13611688 1.2559935
-0.37079918 -0.13623369 1.2570714
-0.36605442 -0.13574293 1.2525431
-0.36164859 -0.13536985 1.2491004
-0.35858527 -0.13549694 1.2502732
-0.35528079 -0.1355345 1.2506196
-0.35241425 -0.13574144 1.2525293
-0.34866956 -0.13561089 1.2513247
-0.34623778 -0.13599344 1.2548546
-0.3413808 -0.13542157 1.2495778
-0.33742934 -0.13520101 1.2475425
-0.33330581 -0.13490632 1.2448233
-0.33108902 -0.13538526 1.2492427
-0.32763472 -0.13536286 1.249036
-0.32430267 -0.13539103 1.2492959
-0.32110113 -0.13547485 1.2500694
-0.31717286 -0.13525058 1.248
-0.30816692 -0.13428646 1.2391037
-0.30587292 -0.13476162 1.2434881
-0.30362555 -0.13526818 1.2481624
-0.30086035 -0.1355529 1.2507895
-0.29639804 -0.13507077 1.2463408
-0.29208693 -0.13464715 1.2424319
-0.28764027 -0.1341504 1.2378483
-0.27321154 -0.13534759 1.248895
-0.26953238 -0.13520712 1.2475989
-0.26520365 -0.13473307 1.2432246
-0.26024836 -0.13392432 1.2357621
-0.25671428 -0.13383533 1.234941
-0.25366095 -0.13399795 1.2364415
-0.23940215 -0.13545056 1.2498451
-0.23567343 -0.13526288 1.2481134
-0.22290337 -0.13371576 1.2338377
-0.21901631 -0.13339365 1.2308654
-0.21592814 -0.13355562 1.23236
-0.20303497 -0.13390078 1.2355449
-0.1999066 -0.134058 1.2369956
-0.19645098 -0.13399738 1.2364362
-0.19260237 -0.13366193 1.2333409
-0.18825853 -0.13296479 1.2269082
-0.18488057 -0.13293698 1.2266517
-0.1815874 -0.13297026 1.2269586
-0.17878972 -0.13337439 1.2306877
-0.17540677 -0.13334903 1.2304537
-0.17191172 -0.1332358 1.2294089
-0.16831131 -0.13303478 1.2275541
-0.16550569 -0.13346657 1.2315383
-0.1417753 -0.13321559 1.2292224
-0.13507497 -0.13320658 1.2291393
-0.13158184 -0.13305716 1.2277606
-0.1281728 -0.1329872 1.227115
-0.12457489 -0.13271229 1.2245784
-0.12113987 -0.13260058 1.2235475
-0.11787215 -0.13267083 1.2241958
-0.11459883 -0.13273869 1.224822
-0.11116278 -0.13261651 1.2236946
-0.10778675 -0.13256057 1.2231784
-0.10459127 -0.1327302 1.2247436
-0.10137808 -0.13288778 1.2261976
-0.097771198 -0.13252246 1.2228267
-0.094505057 -0.13260952 1.2236301
-0.091426775 -0.13297617 1.2270133
-0.088191219 -0.13313322 1.2284623
-0.084586427 -0.13272327 1.2246797
-0.080980115 -0.13227721 1.2205637
-0.077513985 -0.13203175 1.2182988
-0.061144486 -0.13248639 1.2224939
-0.057806533 -0.13246194 1.2222682
-0.054391995 -0.13224828 1.2202969
-0.050906215 -0.13182238 1.2163668
-0.047646541 -0.13196343 1.2176684
-0.044274602 -0.1317914 1.216081
-0.021115219 -0.13185017 1.2166233
-0.017761862 -0.13153873 1.2137495
-0.014463032 -0.13158105 1.2141401
-0.011142274 -0.13138987 1.212376
-0.0078536589 -0.13157631 1.2140963
-0.004534292 -0.13114418 1.2101089
-0.0012409252 -0.13116601 1.2103103
0.0020489327 -0.13089363 1.2077971
0.0053415638 -0.13102487 1.209008
0.0086248135 -0.13091365 1.2079817
0.011896742 -0.13073941 1.2063739
0.015155326 -0.1305256 1.2044011
0.018402861 -0.13030963 1.2024082
0.021676101 -0.13031338 1.2024429
0.031606395 -0.13077751 1.2067255
0.034815453 -0.13049524 1.2041209
0.037998911 -0.13017385 1.2011553
0.041331172 -0.13037275 1.2029907
0.044518638 -0.13011925 1.2006515
0.047840189 -0.13026552 1.2020012
0.051093079 -0.13021807 1.2015634
0.05446215 -0.13045461 1.2037461
0.057767432 -0.13052021 1.2043513
0.0610753 -0.13058427 1.2049425
0.064228833 -0.13032864 1.2025837
0.067313254 -0.12996437 1.1992224
0.070552431 -0.12991877 1.1988016
0.073653489 -0.1296341 1.1961749
0.076978117 -0.12975037 1.1972477
0.080283761 -0.12982649 1.1979501
0.083514996 -0.12978104 1.1975307
0.086485721 -0.12934938 1.1935477
0.089690119 -0.12928583 1.1929612
0.099740788 -0.12968884 1.1966801
0.10294519 -0.12962259 1.1960688
0.10604414 -0.12943169 1.1943072
0.10931749 -0.12945867 1.1945561
0.112356 -0.12921402 1.1922987
0.11572031 -0.12934726 1.1935282
0.11857905 -0.12892357 1.1896186
0.12178007 -0.12888463 1.1892593
0.12487398 -0.1287373 1.1878998
0.12826879 -0.12889978 1.1893991
0.1473836 -0.12863058 1.1869152
0.15072887 -0.12872864 1.18782
0.1539385 -0.12870918 1.1876404
0.15672494 -0.12834397 1.1842705
0.15979376 -0.12822005 1.183127
0.16329023 -0.1284374 1.1851326
0.16693081 -0.12875749 1.1880862
0.17031589 -0.12887208 1.1891435
0.17304398 -0.12849456 1.18566
0.17584181 -0.12818168 1.182773
0.17861308 -0.12786105 1.1798145
0.18197322 -0.12796584 1.1807814
0.18548471 -0.12817158 1.1826798
0.18883333 -0.12825967 1.1834927
0.19179864 -0.12808883 1.1819162
0.19452804 -0.12776868 1.1789621
0.19772099 -0.12775844 1.1788676
0.20104896 -0.12783436 1.1795682
0.20434296 -0.12788667 1.1800507
0.20746507 -0.12783141 1.179541
0.20986055 -0.12733696 1.1749785
0.21321367 -0.12742969 1.1758342
0.21632852 -0.12737939 1.17537
0.21980742 -0.12754178 1.1768684
0.22270761 -0.12736855 1.17527
0.22549199 -0.12713492 1.1731142
0.22902536 -0.12732421 1.1748608
0.23188215 -0.12713733 1.1731365
0.23509362 -0.12714735 1.1732289
0.23754083 -0.12674929 1.1695559
0.24110313 -0.12694891 1.1713978
0.24446745 -0.12704043 1.1722423
0.2481657 -0.12730087 1.1746455
0.25099045 -0.12711233 1.1729057
0.25369188 -0.12686685 1.1706406
0.25641701 -0.12663916 1.1685396
0.25892648 -0.12631184 1.1655194
0.26250491 -0.12650761 1.1673257
0.26646981 -0.12688272 1.170787
0.26952699 -0.12682183 1.1702253
0.27271357 -0.12682256 1.1702319
0.27548671 -0.12663323 1.1684849
0.27930498 -0.12692313 1.17116
0.28199443 -0.12669934 1.1690949
0.28474113 -0.12650596 1.1673106
0.28721008 -0.12619482 1.1644396
0.29674467 -0.12620622 1.1645447
0.29960281 -0.12607516 1.1633354
0.30186456 -0.12569852 1.15986
0.30511349 -0.12573647 1.1602103
0.30941632 -0.12620352 1.1645199
0.31278074 -0.12628222 1.165246
0.3154099 -0.12606548 1.163246
0.31630278 -0.12516595 1.1549459
0.31893 -0.12496369 1.1530795
0.32237384 -0.12508221 1.1541731
0.32617524 -0.12533584 1.1565136
0.32957682 -0.12543248 1.1574051
0.33185586 -0.12510408 1.1543751
0.33556268 -0.12531506 1.1563218
0.33810785 -0.12509233 1.1542666
0.34146422 -0.12517107 1.1549931
0.34406942 -0.12497552 1.1531887
0.34709322 -0.12493418 1.1528072
0.34897321 -0.12448556 1.1486677
0.35183215 -0.12439102 1.1477953
0.3553375 -0.12452467 1.1490285
0.35881227 -0.12464536 1.1501422
0.36179659 -0.12459506 1.1496781
0.36492816 -0.1245959 1.1496859
0.36763453 -0.1244528 1.1483654
0.37105691 -0.12455244 1.1492848
0.37377095 -0.12441465 1.1480134
0.37826675 -0.1248673 1.1521901
0.38067108 -0.12462778 1.1499799
0.38594803 -0.12431119 1.1470587
0.38797426 -0.12396109 1.1438283
0.39018521 -0.12367512 1.1411895
0.39363515 -0.12378328 1.1421875
0.41784108 -0.12358695 1.140376
0.42126396 -0.12368064 1.1412405
0.42330393 -0.12336991 1.1383733
0.42528871 -0.12304773 1.1354004
0.42747492 -0.12278806 1.1330043
0.43088832 -0.12288208 1.1338719
0.43535757 -0.12327373 1.1374857
0.43862617 -0.12332228 1.1379337
0.44098687 -0.12311669 1.1360366
0.44288939 -0.12278692 1.1329938
0.44558001 -0.1226787 1.1319952
0.44868517 -0.12268531 1.1320562
0.4519231 -0.12272789 1.1324492
0.45544097 -0.1228454 1.1335335
0.45876938 -0.12291057 1.1341348
0.46213394 -0.12298449 1.1348169
0.46493542 -0.12290858 1.1341164
0.46728429 -0.12271481 1.1323284
0.47045767 -0.12273868 1.1325487
0.47447807 -0.12298178 1.1347919
0.47741544 -0.12294284 1.1344326
0.47913364 -0.12259246 1.1311995
0.48102608 -0.12229085 1.1284164
0.4836691 -0.12218268 1.1274183
0.4869079 -0.12222543 1.1278127
0.49078357 -0.1224265 1.1296681
0.49806988 -0.12270663 1.1322529
0.50055724 -0.12256112 1.1309103
0.50199389 -0.12216169 1.1272246
-0.43240327 -0.13387749 1.2671535
-0.43019506 -0.13426469 1.2708184
-0.42480189 -0.13365608 1.2650578
-0.42130914 -0.13364035 1.2649089
-0.41663572 -0.13324675 1.2611835
-0.41505846 -0.13384503 1.2668463
-0.41058186 -0.13351056 1.2636805
-0.40744719 -0.13361049 1.2646263
-0.40291506 -0.13324995 1.2612138
-0.39953315 -0.13326688 1.261374
-0.39622709 -0.13330962 1.2617786
-0.39317727 -0.13344008 1.2630134
-0.38910383 -0.13322237 1.2609527
-0.38469407 -0.13288461 1.2577558
-0.38035682 -0.13256605 1.2547406
-0.37778121 -0.13286126 1.2575349
-0.37111223 -0.13292442 1.2581327
-0.36570644 -0.13220808 1.2513524
-0.36120054 -0.13180664 1.2475529
-0.35746232 -0.1316804 1.2463579
-0.35545638 -0.13219596 1.2512378
-0.35255668 -0.13238589 1.2530354
-0.34896126 -0.13231575 1.2523715
-0.34627065 -0.13259067 1.2549736
-0.34287378 -0.13259794 1.2550426
-0.33930662 -0.13253886 1.2544832
-0.33500564 -0.13218899 1.2511718
-0.33130819 -0.13207254 1.2500696
-0.32714781 -0.13176723 1.2471797
-0.3235915 -0.13170135 1.2465563
-0.32046661 -0.13181153 1.2475991
-0.31740955 -0.13195227 1.2489313
-0.31218418 -0.13118491 1.2416681
-0.30865508 -0.13112134 1.2410665
-0.30661291 -0.13169503 1.2464964
-0.30435434 -0.13218758 1.2511584
-0.30141363 -0.13239163 1.2530898
-0.29640666 -0.1316824 1.2463769
-0.2918151 -0.13114345 1.2412757
-0.28794098 -0.13091806 1.2391423
-0.28509387 -0.1311598 1.2414305
-0.27306446 -0.13187741 1.2482227
-0.26991385 -0.13199806 1.2493646
-0.26581687 -0.13165307 1.2460992
-0.26112449 -0.13100046 1.2399223
-0.25752091 -0.13088414 1.2388214
-0.2543869 -0.13100657 1.2399801
-0.23076674 -0.1310088 1.2400013
-0.22708103 -0.13082977 1.2383066
-0.22290796 -0.13036029 1.2338631
-0.21911974 -0.13010499 1.2314466
-0.21624352 -0.13039166 1.2341599
-0.20309719 -0.13057798 1.2359235
-0.19991213 -0.13069485 1.2370298
-0.1965021 -0.13066614 1.236758
-0.19302244 -0.13058932 1.2360308
-0.18925846 -0.13031399 1.2334249
-0.18591018 -0.13032013 1.233483
-0.18248686 -0.13027292 1.2330362
-0.17581883 -0.13030547 1.2333442
-0.17231624 -0.13019532 1.2323017
-0.16855896 -0.12988456 1.2293602
-0.16542181 -0.13004872 1.2309141
-0.16200127 -0.12999228 1.2303798
-0.13171598 -0.12984779 1.2290123
-0.12812032 -0.12959425 1.2266126
-0.1247402 -0.12955102 1.2262033
-0.12131071 -0.12945274 1.225273
-0.11833414 -0.12984586 1.228994
-0.11151186 -0.12969196 1.2275373
-0.10780268 -0.12925053 1.2233592
-0.10439329 -0.12915185 1.2224252
-0.10146388 -0.12966006 1.2272353
-0.098058045 -0.12957332 1.2264143
-0.091540746 -0.1297982 1.2285429
-0.088183723 -0.12977867 1.228358
-0.080878302 -0.12879305 1.2190291
-0.07744199 -0.12859634 1.2171673
-0.074182101 -0.1286881 1.2180358
-0.061141782 -0.12915339 1.2224398
-0.057888631 -0.12931867 1.2240041
-0.054399971 -0.12894589 1.2204758
-0.050922036 -0.12855171 1.2167448
-0.047593649 -0.12850648 1.2163167
-0.044298876 -0.12855202 1.2167478
-0.031140003 -0.12891507 1.2201841
-0.02786118 -0.12911049 1.2220337
-0.024485696 -0.12885025 1.2195705
-0.021101262 -0.12845391 1.2158191
-0.01780054 -0.1285145 1.2163926
-0.014478809 -0.12841645 1.2154646
-0.011164356 -0.12834398 1.2147787
-0.0078584747 -0.12835054 1.2148408
-0.0045461277 -0.12818433 1.2132677
-0.0012429546 -0.12808101 1.2122897
0.0020491749 -0.12762143 1.2079397
0.0053377096 -0.12764212 1.2081356
0.0086338231 -0.12775919 1.2092437
0.031709686 -0.12790979 1.210669
0.034981351 -0.12782417 1.2098587
0.038144734 -0.12739164 1.2057648
0.041440036 -0.12743331 1.2061592
0.044684652 -0.12732445 1.2051288
0.048043117 -0.12753269 1.2070998
0.051343843 -0.12757081 1.2074606
0.054578848 -0.12745087 1.2063254
0.057823058 -0.12736483 1.205511
0.061028298 -0.12720679 1.2040151
0.064310767 -0.12721764 1.2041178
0.067486249 -0.12702605 1.2023045
0.070767537 -0.12704213 1.2024566
0.073936448 -0.12686396 1.2007703
0.077235833 -0.12691528 1.2012559
0.083422206 -0.12638113 1.1962003
0.086415783 -0.12599891 1.1925826
0.089691661 -0.12604108 1.1929817
0.093165703 -0.12634905 1.1958966
0.099857427 -0.12657967 1.1980795
0.10326602 -0.12676106 1.1997963
0.10634096 -0.12653431 1.1976501
0.10961898 -0.12655549 1.1978506
0.11254416 -0.12617987 1.1942954
0.11889987 -0.12602581 1.1928371
0.12202836 -0.12590398 1.191684
0.12494195 -0.12557249 1.1885464
0.12821738 -0.12561221 1.1889224
0.13165544 -0.12580538 1.1907507
0.14137839 -0.12580563 1.1907531
0.15069754 -0.12546965 1.1875732
0.1543339 -0.12579906 1.190691
0.15730794 -0.12558615 1.1886758
0.16053508 -0.12557982 1.1886158
0.16378078 -0.12558797 1.1886929
0.16679832 -0.12542424 1.1871432
0.17008579 -0.12546584 1.187537
0.1730133 -0.12524532 1.1854497
0.17628181 -0.12527519 1.1857326
0.17911254 -0.12499849 1.1831136
0.18231478 -0.12498625 1.1829977
0.18541119 -0.12490314 1.182211
0.18866076 -0.12492427 1.1824111
0.1919924 -0.12499814 1.1831102
0.19442008 -0.12449075 1.1783078
0.19749111 -0.12440508 1.1774969
0.20064893 -0.12437596 1.1772213
0.20469917 -0.12489223 1.1821078
0.21047977 -0.1245053 1.1784455
0.21399996 -0.12468755 1.1801704
0.216987 -0.12455836 1.1789477
0.22049142 -0.1247256 1.1805307
0.22304702 -0.12435903 1.1770611
0.22635093 -0.12441416 1.1775829
0.22946677 -0.12436581 1.1771252
0.23261596 -0.12433662 1.1768489
0.23538055 -0.12410544 1.1746608
0.23809074 -0.12385216 1.1722635
0.24110657 -0.12376246 1.1714145
0.24473391 -0.12398491 1.17352
0.24831925 -0.12418061 1.1753724
0.25132406 -0.12408472 1.1744647
0.25412637 -0.12389252 1.1726454
0.25695336 -0.12371696 1.1709838
0.25951326 -0.12341869 1.1681607
0.26287267 -0.12350326 1.1689612
0.27019432 -0.12394293 1.1731226
0.27340618 -0.12395152 1.1732039
0.27599511 -0.12368077 1.1706413
0.27948183 -0.12381392 1.1719016
0.28233743 -0.12366764 1.170517
0.2964426 -0.1229114 1.1633592
0.29987299 -0.12301974 1.1643846
0.30180532 -0.12251765 1.1596323
0.30456731 -0.12235928 1.1581334
0.308608 -0.12271261 1.1614777
0.31246901 -0.12298805 1.1640847
0.31591639 -0.12309679 1.1651139
0.317128 -0.12234087 1.1579591
0.32003289 -0.12224661 1.1570669
0.32304084 -0.12219319 1.1565613
0.32707992 -0.12252705 1.1597213
0.33009166 -0.12247337 1.1592132
0.33229789 -0.12212466 1.1559126
0.33591089 -0.12229465 1.1575216
0.33846799 -0.12208064 1.155496
0.34166443 -0.12209905 1.1556703
0.34393606 -0.12178963 1.1527417
0.34698498 -0.12175858 1.1524477
0.35016608 -0.12177405 1.1525941
0.35344172 -0.12182181 1.1530463
0.35673296 -0.12187409 1.153541
0.35920823 -0.12164909 1.1514114
0.36222246 -0.12160894 1.1510314
0.36545312 -0.12164152 1.1513398
0.36861682 -0.12165145 1.1514337
0.37111107 -0.12144214 1.1494526
0.37413117 -0.12140697 1.1491197
0.37852934 -0.12181586 1.1529899
0.38201633 -0.12192721 1.1540438
0.3850221 -0.12188441 1.1536387
0.38707024 -0.1215416 1.150394
0.38932922 -0.12126996 1.147823
0.39203373 -0.12114033 1.146596
0.39501226 -0.12109674 1.1461834
0.42234862 -0.12088495 1.1441789
0.42669317 -0.12035364 1.1391499
0.42858961 -0.12001649 1.1359588
0.43147656 -0.11995955 1.1354198
0.43563139 -0.12025341 1.1382012
0.44389644 -0.11997542 1.13557
0.44539198 -0.11954726 1.1315175
0.44884974 -0.11964805 1.1324714
0.45147011 -0.11952576 1.131314
0.45682693 -0.12012469 1.1369829
0.45966268 -0.12005709 1.1363431
0.46322608 -0.12017919 1.1374987
0.46495223 -0.11982617 1.1341574
0.46737742 -0.11965677 1.1325541
0.47020856 -0.11959284 1.1319489
0.47448933 -0.11989605 1.1348188
0.47704375 -0.11976192 1.1335493
0.47918162 -0.11952563 1.1313127
0.48112881 -0.11924509 1.1286575
0.48437956 -0.11928913 1.1290743
0.48754489 -0.11931173 1.1292882
0.49107581 -0.11942293 1.1303408
0.49837103 -0.11969729 1.1329376
0.50143397 -0.11969238 1.1328911
0.50323504 -0.11938815 1.1300116
-0.43555886 -0.1303409 1.2663009
-0.43186331 -0.13026579 1.2655711
-0.42942494 -0.13057172 1.2685434
-0.42408082 -0.12999192 1.2629105
-0.41952205 -0.12964535 1.2595434
-0.41483232 -0.12925225 1.2557244
-0.41193283 -0.12941508 1.2573062
-0.4022795 -0.12961251 1.2592243
-0.40012389 -0.13002574 1.263239
-0.39663473 -0.13000903 1.2630767
-0.3934972 -0.1301083 1.2640411
-0.38857469 -0.12961391 1.2592379
-0.38455045 -0.12941301 1.2572862
-0.3798458 -0.12897748 1.2530549
-0.37659296 -0.12903148 1.2535795
-0.37298086 -0.12896225 1.2529069
-0.37057224 -0.12931171 1.256302
-0.3664214 -0.12905405 1.2537988
-0.36179978 -0.1286242 1.2496226
-0.35825801 -0.12857372 1.2491322
-0.35665745 -0.12922563 1.2554656
-0.34912327 -0.12896699 1.2529529
-0.34451771 -0.12852107 1.2486206
-0.34184322 -0.12879379 1.2512703
-0.33907178 -0.12903513 1.2536149
-0.33462548 -0.12863752 1.249752
-0.33027798 -0.12827012 1.2461826
-0.32523745 -0.12762313 1.2398969
-0.32266447 -0.127941 1.2429851
-0.31927511 -0.12793846 1.2429606
-0.31723598 -0.12848274 1.2482483
-0.31296444 -0.12812486 1.2447715
-0.30938122 -0.12804404 1.2439861
-0.30680221 -0.12838164 1.2472661
-0.30391267 -0.12859538 1.2493427
-0.30030796 -0.12850793 1.2484931
-0.29597491 -0.12810326 1.2445614
-0.2914671 -0.12761267 1.2397953
-0.28817177 -0.1276477 1.2401356
-0.28532755 -0.12788571 1.2424481
-0.28205556 -0.12793542 1.242931
-0.27481487 -0.12771475 1.240787
-0.27201349 -0.12798561 1.2434186
-0.26885122 -0.12809137 1.2444459
-0.26500145 -0.12786809 1.2422768
-0.26116896 -0.12764749 1.2401335
-0.25758043 -0.12754188 1.2391076
-0.25375342 -0.12731385 1.2368922
-0.2503325 -0.12728617 1.2366233
-0.24715197 -0.12738162 1.2375506
-0.24355464 -0.12726192 1.2363877
-0.24068545 -0.12752467 1.2389405
-0.23032247 -0.12738815 1.237614
-0.22658144 -0.12717901 1.2355822
-0.22254412 -0.12679477 1.2318492
-0.20294562 -0.12711921 1.2350012
-0.19991072 -0.1273271 1.237021
-0.19613756 -0.12706387 1.2344636
-0.19299482 -0.12720698 1.2358539
-0.18937778 -0.127037 1.2342025
-0.18633825 -0.12725528 1.2363231
-0.16884115 -0.12675042 1.2314184
-0.16538724 -0.12667204 1.2306569
-0.16166276 -0.12637891 1.227809
-0.15843654 -0.12647112 1.2287048
-0.15527833 -0.12662278 1.2301782
-0.1518351 -0.12654358 1.2294087
-0.14834161 -0.12641798 1.2281885
-0.13489409 -0.12634642 1.2274933
-0.13143449 -0.1262324 1.2263856
-0.12811764 -0.12625311 1.2265868
-0.12499199 -0.12646841 1.2286785
-0.12152146 -0.12633698 1.2274016
-0.1115424 -0.12638554 1.2278734
-0.10762244 -0.12571037 1.2213138
-0.10402129 -0.12537639 1.2180692
-0.10132696 -0.12614942 1.2255794
-0.09802229 -0.12618934 1.2259672
-0.094690584 -0.12619603 1.2260323
-0.090992145 -0.12569661 1.2211803
-0.087633424 -0.12564641 1.2206925
-0.084160946 -0.12542273 1.2185193
-0.080829158 -0.12539896 1.2182884
-0.077326432 -0.1250966 1.215351
-0.074098103 -0.12523098 1.2166566
-0.061045595 -0.12562831 1.2205167
-0.057775915 -0.12574196 1.2216208
-0.054284692 -0.12535788 1.2178894
-0.050801452 -0.12494349 1.2138635
-0.047579862 -0.12515974 1.2159643
-0.034372959 -0.12527321 1.2170668
-0.024495089 -0.12557909 1.2200384
-0.021088652 -0.12507001 1.2150925
-0.017772244 -0.1250048 1.2144591
-0.014426254 -0.12465417 1.2110527
-0.01112951 -0.12464742 1.2109871
-0.0078381449 -0.12472061 1.2116981
-0.0045416793 -0.12475997 1.2120805
-0.0012423727 -0.12472308 1.2117221
0.0020487625 -0.12430874 1.2076967
0.0053339219 -0.12426568 1.2072783
0.0086191604 -0.12425658 1.2071899
0.021704989 -0.12393292 1.2040454
0.025019035 -0.12411635 1.2058275
0.028396565 -0.12453566 1.2099012
0.031665694 -0.12444182 1.2089895
0.034963202 -0.12446667 1.2092309
0.038184054 -0.12423784 1.2070078
0.041501332 -0.12433413 1.2079433
0.044794049 -0.12434812 1.2080792
0.048098903 -0.12439158 1.2085015
0.051379576 -0.12437094 1.2083009
0.054581236 -0.12417304 1.2063782
0.057780933 -0.12399337 1.2046328
0.061019029 -0.12391098 1.2038323
0.064341828 -0.12400023 1.2046994
0.067623056 -0.12400459 1.2047417
0.070853867 -0.12392037 1.2039235
0.074059658 -0.12380178 1.2027713
0.077415422 -0.1239333 1.2040491
0.083418921 -0.12312056 1.1961532
0.08633054 -0.12263195 1.1914061
0.089632764 -0.12271348 1.1921983
0.093028903 -0.12291341 1.1941406
0.096434176 -0.12311149 1.1960651
0.09965536 -0.1230693 1.1956551
0.10297799 -0.12315109 1.1964498
0.10604603 -0.12293275 1.1943284
0.1094225 -0.12307429 1.1957036
0.11244112 -0.12281679 1.1932019
0.11580896 -0.12294449 1.1944425
0.12217323 -0.12280618 1.1930988
0.12515911 -0.12255023 1.1906122
0.12817016 -0.12233123 1.1884845
0.13141896 -0.12234434 1.1886119
0.13475046 -0.12243195 1.189463
0.13806705 -0.12250223 1.1901459
0.14106134 -0.12228987 1.1880827
0.14372009 -0.12180268 1.1833495
0.14692192 -0.121787 1.1831971
0.15011315 -0.1217634 1.1829679
0.15349603 -0.12189297 1.1842268
0.15668528 -0.12186661 1.1839707
0.15991119 -0.12186927 1.1839964
0.16301675 -0.12178192 1.1831478
0.16605891 -0.12165149 1.1818807
0.16933095 -0.12169123 1.1822667
0.17300357 -0.122012 1.1853831
0.17654184 -0.122228 1.1874816
0.17946249 -0.12201633 1.1854252
0.18225171 -0.12172434 1.1825885
0.18507887 -0.12146739 1.1800921
0.18830568 -0.12147702 1.1801857
0.19161555 -0.12153903 1.180788
0.19442888 -0.12128922 1.1783611
0.19787766 -0.1214375 1.1798017
0.20122054 -0.12151708 1.1805749
0.20474425 -0.12170167 1.1823682
0.21018337 -0.12112709 1.1767859
0.21362476 -0.12126248 1.1781013
0.21650891 -0.12108223 1.1763501
0.21963261 -0.12103925 1.1759325
0.22226556 -0.12073093 1.1729372
0.22580045 -0.12091433 1.174719
0.22891042 -0.12086825 1.1742712
0.23192601 -0.12077428 1.1733583
0.23450509 -0.12045864 1.1702918
0.2374893 -0.12035678 1.1693022
0.24097741 -0.12050961 1.170787
0.24443553 -0.12064365 1.1720892
0.24797656 -0.12081463 1.1737503
0.25094971 -0.12070809 1.1727153
0.25373265 -0.12051391 1.1708287
0.25638393 -0.12026277 1.1683888
0.25890273 -0.1199564 1.1654124
0.26231435 -0.12006613 1.1664784
0.26605093 -0.12032017 1.1689465
0.26956803 -0.12047014 1.1704035
0.27295446 -0.12055888 1.1712656
0.27558216 -0.12031433 1.1688898
0.27905166 -0.12043868 1.1700978
0.28186259 -0.12027919 1.1685483
0.28531894 -0.12039561 1.1696794
0.29586312 -0.11951099 1.1610851
0.2990191 -0.11950932 1.1610689
0.30135146 -0.11918197 1.1578885
0.3043099 -0.11910642 1.1571546
0.30833611 -0.11944608 1.1604544
0.31207475 -0.11966856 1.1626159
0.31553 -0.11977901 1.1636889
0.3171584 -0.11920065 1.1580701
0.31999522 -0.11908339 1.1569308
0.32308078 -0.11906006 1.1567042
0.32604882 -0.11899431 1.1560653
0.32916817 -0.11898451 1.1559701
0.33118767 -0.11858108 1.1520507
0.33505711 -0.11884139 1.1545796
0.33821175 -0.11884566 1.1546212
0.3415466 -0.11891261 1.1552716
0.34400243 -0.1186751 1.1529641
0.34666219 -0.11851159 1.1513757
0.34998605 -0.11857601 1.1520015
0.35321134 -0.11860619 1.1522946
0.35645685 -0.11864257 1.1526481
0.35950664 -0.11861373 1.1523679
0.36278793 -0.11866112 1.1528283
0.3659232 -0.11866034 1.1528207
0.36859494 -0.11851054 1.1513654
0.37079811 -0.11821388 1.1484833
0.37280977 -0.11786164 1.1450611
0.37698728 -0.11819427 1.1482928
0.3841019 -0.11846074 1.1508815
0.38618776 -0.11814059 1.1477712
0.3890163 -0.11805096 1.1469004
0.39183712 -0.11796043 1.1460209
0.39506233 -0.11799211 1.1463287
0.39835292 -0.11804266 1.1468198
0.40211633 -0.11823145 1.148654
0.40509996 -0.11818982 1.1482495
0.42991027 -0.11728502 1.1394591
0.43228951 -0.11708945 1.1375591
0.43541104 -0.11709628 1.1376255
0.43889785 -0.11720057 1.1386386
0.44195268 -0.11718883 1.1385247
0.4516539 -0.11649404 1.1317745
0.45532027 -0.11664417 1.1332331
0.45859379 -0.1166923 1.1337007
0.46149027 -0.1166445 1.1332363
0.46379131 -0.11644784 1.1313256
0.46648809 -0.11635246 1.130399
0.47029403 -0.11653318 1.1321547
0.47438636 -0.11678204 1.1345725
0.47744027 -0.11677371 1.1344916
0.47946832 -0.11651618 1.1319896
0.48136258 -0.11622965 1.1292058
0.48440427 -0.11622204 1.1291319
0.48709083 -0.11612986 1.1282364
0.49081314 -0.11628424 1.1297362
0.49299219 -0.11607333 1.1276872
0.4969044 -0.11627058 1.1296035
0.49903509 -0.1160511 1.1274712
0.50228292 -0.11609251 1.1278735
0.50461471 -0.11592299 1.1262265
0.50708532 -0.11578721 1.1249074
-0.43568122 -0.12693004 1.2666568
-0.43161133 -0.12674727 1.2648327
-0.42765689 -0.12659572 1.2633204
-0.42301458 -0.12623645 1.2597352
-0.41848356 -0.12590478 1.2564255
-0.41396907 -0.12557268 1.2531114
-0.41060701 -0.12558754 1.2532595
-0.40764451 -0.12572587 1.25464
-0.39955059 -0.12640619 1.2614291
-0.39620304 -0.12643354 1.2617019
-0.3925879 -0.12637523 1.2611201
-0.3881934 -0.1260628 1.2580023
-0.38481301 -0.12607706 1.2581446
-0.3801133 -0.12565544 1.2539372
-0.37688529 -0.1257171 1.2545526
-0.37362891 -0.12577035 1.2550839
-0.37234217 -0.12649371 1.2623024
-0.36866251 -0.12641002 1.2614673
-0.36357698 -0.12583819 1.2557609
-0.35913363 -0.12547988 1.2521852
