# .PCD v0.7 - Point Cloud Data file format
VERSION 0.7
FIELDS x y z
SIZE 4 4 4
TYPE F F F
COUNT 1 1 1
WIDTH 1426
HEIGHT 1
VIEWPOINT 0 0 0 1 0 0 0
POINTS 1426
DATA ascii
-0.16152859 0.20455101 0.66402155
-0.1594044 0.20414513 0.66270399
-0.15782733 0.20443869 0.66365695
-0.15598612 0.20439294 0.66350842
-0.15411679 0.20430882 0.66323537
-0.1518586 0.20370111 0.66126257
-0.14991315 0.20350334 0.66062057
-0.14831665 0.20378022 0.66151941
-0.14654911 0.20382601 0.66166806
-0.14465807 0.20369907 0.66125596
-0.14276952 0.20357244 0.66084486
-0.14139046 0.20417833 0.66281176
-0.13960265 0.204202 0.66288859
-0.13793352 0.20440215 0.66353834
-0.13614014 0.20442104 0.66359967
-0.13447985 0.20464298 0.66432011
-0.1324489 0.2042992 0.66320413
-0.13023731 0.20366348 0.66114044
-0.12852375 0.20379966 0.66158253
-0.12659654 0.2035961 0.66092169
-0.12496561 0.20387003 0.66181093
-0.12294985 0.20351498 0.66065836
-0.12131964 0.20379704 0.66157401
-0.11963899 0.20400161 0.66223806
-0.11786918 0.20405808 0.66242141
-0.1159854 0.20391591 0.66195989
-0.1141423 0.20384191 0.66171968
-0.11230621 0.20377828 0.66151309
-0.11048694 0.20374358 0.66140044
-0.10872409 0.20381349 0.66162741
-0.10708003 0.20411217 0.662597
-0.10521063 0.20398423 0.66218168
-0.10340727 0.20398208 0.6621747
-0.10126451 0.20329848 0.65995556
-0.099386543 0.20313138 0.6594131
-0.097608633 0.2031664 0.65952677
-0.09590631 0.203363 0.66016501
-0.094304562 0.20378447 0.66153318
-0.092439324 0.20364185 0.66107023
-0.090661116 0.20368911 0.66122365
-0.088737324 0.20340459 0.66030002
-0.086815983 0.20311405 0.65935683
-0.085086524 0.20326962 0.65986186
-0.083354123 0.20342472 0.66036534
-0.081420824 0.20308557 0.65926439
-0.079366475 0.2024224 0.65711159
-0.077464797 0.20212701 0.65615267
-0.075767845 0.20236447 0.65692353
-0.073963024 0.20231834 0.65677381
-0.072031982 0.20191613 0.65546811
-0.070280433 0.20200939 0.6557709
-0.06850113 0.20202568 0.65582377
-0.066887602 0.20254481 0.65750897
-0.065147936 0.20270003 0.65801287
-0.063398823 0.2028338 0.65844709
-0.061647728 0.20296882 0.65888542
-0.059807289 0.20280898 0.6583665
-0.058091592 0.20307532 0.65923113
-0.056095991 0.20234898 0.65687323
-0.054347169 0.20249428 0.65734494
-0.052553225 0.20247565 0.65728444
-0.050792344 0.20258757 0.65764779
-0.048920896 0.20225056 0.65655375
-0.04708942 0.20205951 0.65593356
-0.045394402 0.20246202 0.65724021
-0.043630585 0.20257811 0.65761709
-0.041767001 0.20222111 0.65645814
-0.039951943 0.20207763 0.65599239
-0.038189448 0.20219906 0.65638655
-0.036544606 0.20298587 0.65894073
-0.034802206 0.20328407 0.65990877
-0.033130061 0.2040474 0.66238672
-0.031407289 0.20456885 0.66407949
-0.029653193 0.20493749 0.66527617
-0.027843136 0.20494217 0.66529137
-0.02604913 0.20507386 0.66571885
-0.024246052 0.20514849 0.66596115
-0.022436233 0.20517354 0.66604245
-0.020642441 0.20536242 0.6666556
-0.018828167 0.20536432 0.66666174
-0.017045628 0.20574968 0.66791272
-0.015224055 0.20569962 0.66775024
-0.013411984 0.20578179 0.66801697
-0.011589814 0.20571049 0.66778553
-0.0097710732 0.20568484 0.66770226
-0.0079357494 0.20521866 0.6661889
-0.0061048586 0.20462492 0.66426152
-0.0042914315 0.20436323 0.66341197
-0.0024893691 0.20465565 0.66436124
-0.00068074034 0.20452766 0.66394579
0.0011230706 0.20393546 0.66202337
0.0029174588 0.2034159 0.66033673
0.0047084577 0.20314623 0.65946132
0.0065102144 0.20336147 0.66016001
0.0083035268 0.20327686 0.65988535
0.010088791 0.20306036 0.65918255
0.011883774 0.2030753 0.65923107
0.013656213 0.20275164 0.65818036
0.01542795 0.2024938 0.65734339
0.017191239 0.20219021 0.65635782
0.01896794 0.20208667 0.65602171
0.020787716 0.20242038 0.65710503
0.022576272 0.20242129 0.65710801
0.024403283 0.20274156 0.65814769
0.026137426 0.20229925 0.65671182
0.02791724 0.2022444 0.65653378
0.029671444 0.20202179 0.65581113
0.031472687 0.20212656 0.65615124
0.033240885 0.20201923 0.65580279
0.035061445 0.20222485 0.6564703
0.036836714 0.20216198 0.65626621
0.038710818 0.20262223 0.65776032
0.040467821 0.20245598 0.6572206
0.042192411 0.20214848 0.6562224
0.043810561 0.20137674 0.6537171
0.045430355 0.20067248 0.6514309
0.047165781 0.20051269 0.65091223
0.049022201 0.20086023 0.65204042
0.05093541 0.20140804 0.65381873
0.052699868 0.20135053 0.65363204
0.054426953 0.20115866 0.65300918
0.056129415 0.20089078 0.6521396
0.057965796 0.20110396 0.65283161
0.059823561 0.20137642 0.65371609
0.061658043 0.20155704 0.65430242
0.063339159 0.20124024 0.653274
0.065039314 0.20099959 0.65249282
0.066950791 0.20140743 0.65381676
0.068768725 0.20152006 0.65418237
0.070579752 0.20160726 0.65446544
0.072274588 0.20136645 0.65368372
0.073936708 0.20104824 0.65265071
0.075521618 0.20053995 0.65100068
0.07725855 0.20044936 0.65070665
0.07900615 0.20038991 0.65051365
0.08083868 0.20054378 0.65101314
0.08261326 0.20055033 0.65103441
0.084402971 0.20059261 0.65117162
0.086013101 0.2002151 0.64994615
0.087814353 0.20028873 0.65018517
0.089812934 0.20080063 0.65184695
0.091695778 0.20103896 0.65262061
0.093102664 0.20024453 0.6500417
0.094829381 0.2001548 0.64975041
0.096674651 0.20031402 0.65026724
0.098658197 0.20074886 0.65167886
0.10008219 0.20004986 0.64940977
0.10182467 0.20000072 0.64925021
0.10346229 0.19975077 0.64843881
0.10573608 0.20071685 0.65157497
0.10740601 0.20052366 0.65094781
0.10927499 0.20070234 0.65152788
0.1105691 0.19983634 0.64871663
0.11242466 0.19999632 0.64923596
0.11434379 0.20026271 0.65010071
0.1162044 0.20042002 0.6506114
0.11759199 0.19976906 0.64849824
0.11913247 0.19939323 0.64727819
0.12066623 0.19901727 0.64605772
0.12255722 0.19923283 0.64675748
0.12481157 0.20002462 0.64932781
0.12659803 0.20005493 0.64942622
0.12829341 0.19994245 0.64906108
0.12963007 0.19928156 0.64691567
0.13139741 0.19929159 0.64694822
0.13308641 0.19918412 0.64659935
0.1352392 0.19976452 0.64848346
0.13692197 0.19964464 0.6480943
0.13850543 0.19938484 0.64725095
0.13970125 0.19858056 0.64464009
0.14133586 0.19841221 0.64409357
0.14296873 0.19824558 0.64355266
0.14506255 0.19871442 0.64507461
0.1467315 0.19859698 0.64469337
0.14851709 0.19863833 0.6448276
0.14993978 0.19819902 0.6434015
0.15165405 0.19815083 0.64324504
0.15307219 0.19772123 0.64185047
0.1545952 0.19743526 0.64092213
0.15644023 0.19756232 0.64133459
0.15851876 0.19797821 0.6426847
0.16058961 0.19837554 0.64397448
0.1624828 0.19854718 0.64453173
0.16428535 0.1986056 0.64472133
0.1656523 0.19814175 0.6432156
0.1670226 0.19769156 0.64175415
0.16833583 0.19718383 0.64010596
0.17031142 0.19745444 0.64098442
0.17236012 0.19780345 0.64211738
0.17414732 0.19784838 0.64226323
0.17589372 0.19784652 0.64225715
0.17740186 0.19757932 0.64138979
0.1794017 0.19785962 0.64229971
0.18046355 0.19711001 0.63986629
0.18210533 0.1970021 0.639516
0.18379454 0.19694705 0.6393373
0.18564439 0.19706355 0.63971549
0.1872472 0.1969181 0.6392433
0.1890071 0.19693901 0.63931119
0.19091168 0.19710891 0.63986272
0.19281557 0.19727501 0.64040196
0.19436277 0.1970765 0.63975751
0.19639599 0.19736993 0.64071006
0.19809218 0.19732246 0.64055598
0.19969983 0.19718841 0.6401208
0.20115781 0.19691017 0.63921756
0.20284401 0.19685818 0.63904881
0.20437449 0.19665724 0.6383965
0.20612207 0.19666682 0.63842762
0.20765574 0.19647385 0.63780117
0.20889364 0.19600657 0.63628423
0.21015467 0.19556849 0.63486212
0.21165213 0.19535577 0.63417161
0.21359721 0.19555631 0.63482261
0.21596214 0.19613494 0.63670099
0.21782373 0.19625087 0.63707733
0.22004633 0.19668765 0.63849521
0.22109161 0.1960735 0.63650155
0.22294548 0.1961804 0.63684857
0.22440882 0.19594467 0.6360833
0.22646685 0.19622783 0.63700253
0.22777168 0.19585901 0.63580525
0.22919151 0.19559389 0.63494462
0.23098689 0.19565085 0.63512951
0.23232515 0.19532265 0.63406408
0.23384401 0.19514999 0.63350362
0.23483156 0.19453973 0.63152254
0.23735122 0.19519834 0.63366055
0.23953615 0.19557413 0.63488048
0.24162097 0.19586341 0.63581955
0.24286078 0.19546847 0.63453746
0.24371803 0.19477335 0.63228095
0.24476174 0.19423595 0.63053644
0.24679525 0.19448607 0.63134837
0.24880952 0.19471765 0.63210011
0.25037202 0.19459493 0.63170177
0.25140455 0.1940648 0.6299808
0.25258821 0.1936577 0.62865925
0.25514036 0.19429824 0.63073862
0.25661236 0.19411314 0.63013774
0.25892791 0.19456437 0.63160253
0.25984183 0.19396336 0.62965155
0.26241043 0.19459732 0.63170952
0.26398662 0.19449186 0.63136715
0.26565614 0.19445607 0.63125098
0.26603365 0.19348109 0.62808597
0.26732418 0.19317836 0.62710321
0.26887831 0.19306874 0.62674737
0.27106997 0.19341537 0.62787265
0.27224559 0.19303727 0.62664521
0.27397141 0.19305156 0.62669158
0.27578697 0.19312851 0.62694138
0.27809939 0.1935503 0.62831062
0.27959135 0.19339943 0.62782085
0.28062597 0.19293596 0.62631631
0.28216541 0.19282305 0.6259498
0.28365093 0.19267488 0.62546879
-0.49505633 0.22048189 0.7094686
-0.49312535 0.22048189 0.7094686
-0.48586982 0.21809185 0.70177794
-0.48480001 0.21847048 0.70299631
-0.48822379 0.22088516 0.71076626
-0.49404761 0.22440919 0.72210592
-0.48605898 0.22166234 0.71326709
-0.47935453 0.21948144 0.70624936
-0.47743231 0.21948144 0.70624936
-0.47933841 0.22124848 0.71193534
-0.47645405 0.22080974 0.71052361
-0.47131941 0.2193203 0.70573086
-0.46634054 0.21789147 0.70113313
-0.4615941 0.21655993 0.69684851
-0.46083769 0.21709707 0.69857693
-0.46233141 0.21870309 0.70374477
-0.46041602 0.21870309 0.70374477
-0.45389068 0.21650416 0.69666904
-0.4516336 0.21633126 0.69611269
-0.44760916 0.21530679 0.69281614
-0.44716865 0.21600486 0.6950624
-0.44314241 0.21496943 0.69173056
-0.4367871 0.21279049 0.68471915
-0.43202177 0.2113708 0.68015087
-0.43108043 0.21181786 0.68158942
-0.42922536 0.21181786 0.68158942
-0.43272763 0.21447314 0.69013363
-0.43230543 0.21519801 0.69246608
-0.43199691 0.21598604 0.69500184
-0.42794463 0.21490102 0.69151044
-0.42705745 0.21540284 0.69312519
-0.42113507 0.21335815 0.68654579
-0.41901076 0.213228 0.68612701
-0.4152424 0.21225634 0.68300039
-0.41628799 0.2137477 0.68779927
-0.41723591 0.21520215 0.69247943
-0.41535118 0.21520215 0.69247943
-0.41492102 0.21595924 0.69491559
-0.41086453 0.21482717 0.6912728
-0.40570977 0.21310779 0.68574017
-0.40200651 0.21213846 0.68262106
-0.39912206 0.21159424 0.68086988
-0.39491203 0.21033892 0.67683047
-0.39214912 0.2098462 0.67524499
-0.39060521 0.21000423 0.67575347
-0.38970152 0.21050955 0.67737955
-0.38808697 0.2106339 0.67777967
-0.38474375 0.20981671 0.6751501
-0.38265014 0.20967641 0.67469865
-0.37893119 0.20863985 0.67136317
-0.37767318 0.20895478 0.67237657
-0.37584314 0.20895478 0.67237657
-0.37381124 0.20884199 0.67201364
-0.37268904 0.20923881 0.67329055
-0.36999813 0.20875451 0.67173213
-0.3688004 0.20911202 0.67288256
-0.36672246 0.20897155 0.67243052
-0.36404842 0.20848824 0.67087537
-0.36143383 0.20803432 0.6694147
-0.35853869 0.20741348 0.66741699
-0.35648188 0.20727377 0.66696739
-0.35464439 0.2072608 0.66692567
-0.35299426 0.20735775 0.66723764
-0.35197708 0.20782945 0.66875547
-0.35103062 0.20834801 0.6704241
-0.34935534 0.20843716 0.67071098
-0.34633407 0.20771997 0.66840321
-0.34327054 0.20696972 0.66598904
-0.34249666 0.20759934 0.66801506
-0.3405138 0.20749897 0.66769207
-0.33935738 0.20790383 0.66899484
-0.3369948 0.20757014 0.66792107
-0.33562022 0.20784469 0.66880453
-0.33258665 0.20708922 0.66637355
-0.33084622 0.20713508 0.66652113
-0.32903212 0.20713508 0.66652113
-0.32693794 0.20695777 0.6659506
-0.32487467 0.20679815 0.66543698
-0.3218191 0.20600156 0.66287369
-0.32045898 0.20628741 0.6637935
-0.31889781 0.20644632 0.66430485
-0.31715846 0.20649105 0.6644488
-0.31493071 0.20621648 0.66356528
-0.3126353 0.2058942 0.66252822
-0.31043696 0.20563248 0.66168606
-0.3078008 0.20507598 0.65989536
-0.30386508 0.20364204 0.65528119
-0.30203059 0.20360766 0.65517056
-0.30066833 0.2038931 0.65608907
-0.29879314 0.20383205 0.65589261
-0.29621705 0.20328924 0.65414596
-0.29331076 0.20251189 0.65164459
-0.29178533 0.20268427 0.65219927
-0.29000148 0.20267816 0.6521796
-0.28854808 0.20290433 0.65290737
-0.28236157 0.20229147 0.65093535
-0.28099349 0.20258245 0.65187162
-0.27970788 0.20293695 0.65301234
-0.27792683 0.20293422 0.65300357
-0.27600425 0.20282744 0.65265995
-0.27304366 0.20195153 0.64984149
-0.27079198 0.20159198 0.6486845
-0.26873946 0.20137693 0.64799249
-0.26723036 0.20156893 0.64861035
-0.26589635 0.20189644 0.64966422
-0.26411575 0.20188697 0.64963371
-0.26259792 0.20207958 0.65025347
-0.25972059 0.20122151 0.64749241
-0.2586579 0.20176724 0.64924842
-0.25677085 0.201673 0.64894521
-0.25608185 0.20252495 0.65168661
-0.25376883 0.20209545 0.65030456
-0.25207737 0.20215839 0.65050709
-0.24300256 0.2019736 0.64991248
-0.2418545 0.20249338 0.65158504
-0.23993534 0.20237046 0.65118951
-0.23814112 0.20235188 0.65112972
-0.23644258 0.20241494 0.65133262
-0.23510665 0.20279171 0.65254498
-0.23284762 0.20237193 0.65119421
-0.2242949 0.20265122 0.65209293
-0.22280501 0.20291069 0.65292788
-0.22152378 0.20336591 0.65439266
-0.22015882 0.20375101 0.65563184
-0.21836449 0.20374179 0.65560216
-0.21634051 0.20351638 0.65487683
-0.21431199 0.20328291 0.65412557
-0.21287271 0.20360914 0.65517533
-0.21111706 0.20363571 0.6552608
-0.2093273 0.20362955 0.65524101
-0.20756707 0.20365226 0.65531409
-0.20562275 0.20349318 0.6548022
-0.20391563 0.20356813 0.65504336
-0.20229892 0.20373546 0.65558177
-0.20062496 0.20384756 0.6559425
-0.19897573 0.20398703 0.65639132
-0.19706987 0.20386358 0.65599406
-0.19524254 0.20381984 0.65585333
-0.19359408 0.20396376 0.6563164
-0.1922964 0.20448333 0.65798831
-0.1905867 0.20457044 0.65826863
-0.18886425 0.2046454 0.65850979
-0.18668532 0.20422243 0.65714878
-0.1849336 0.20426312 0.65727973
-0.18289587 0.20398565 0.65638685
-0.18171459 0.2046673 0.6585803
-0.17982306 0.2045546 0.65821767
-0.17786446 0.20436262 0.65759987
-0.1752879 0.20344944 0.65466148
-0.17368433 0.20365843 0.65533394
-0.17203511 0.2038177 0.65584642
-0.17023672 0.20380169 0.65579492
-0.16855155 0.20392233 0.65618312
-0.16660288 0.20372336 0.65554285
-0.16463868 0.20350087 0.65482694
-0.16252479 0.20308645 0.6534934
-0.16073173 0.20306823 0.65343475
-0.1590793 0.20322922 0.65395284
-0.15733084 0.20326981 0.65408343
-0.15545289 0.20314212 0.65367258
-0.15372485 0.20320962 0.65388978
-0.15178198 0.2029914 0.65318757
-0.1500522 0.20305638 0.65339667
-0.14827615 0.20305955 0.65340686
-0.14695284 0.20369032 0.65543658
-0.14506429 0.20354351 0.65496415
-0.14311458 0.20330615 0.65420038
-0.14095373 0.2027591 0.65244007
-0.13955854 0.20331353 0.6542241
-0.13778235 0.20332004 0.65424508
-0.13623156 0.20366371 0.65535092
-0.13435271 0.20351954 0.65488702
-0.13282444 0.2039097 0.65614247
-0.13066825 0.20333339 0.65428805
-0.12853183 0.20277235 0.65248269
-0.12671138 0.20270103 0.65225321
-0.12487755 0.20260599 0.65194738
-0.12325799 0.20286085 0.65276748
-0.121193 0.20237936 0.65121812
-0.11970101 0.2028546 0.65274739
-0.11800204 0.20298815 0.65317708
-0.11618976 0.20292784 0.65298307
-0.11437969 0.20286961 0.65279567
-0.11264144 0.20293893 0.65301871
-0.11072371 0.20268193 0.65219176
-0.10874494 0.20230301 0.65097243
-0.10692719 0.20221601 0.65069252
-0.10542104 0.20272535 0.65233147
-0.10376891 0.20296659 0.6531077
-0.10211261 0.20320791 0.65388423
-0.10013262 0.20280223 0.65257883
-0.098300219 0.20268621 0.65220553
-0.096496664 0.2026265 0.65201336
-0.094653219 0.20247921 0.65153944
-0.093000367 0.2027418 0.6523844
-0.091155864 0.20258869 0.65189171
-0.089522637 0.20290837 0.65292037
-0.087710232 0.20282663 0.65265739
-0.085802734 0.20251708 0.65166128
-0.083942249 0.20230778 0.6509878
-0.082051918 0.20201597 0.65004879
-0.080187738 0.20177709 0.64928013
-0.078119576 0.20100258 0.64678794
-0.076401003 0.20111261 0.64714199
-0.0746575 0.20116067 0.64729661
-0.072910719 0.20120199 0.64742959
-0.0710342 0.2008785 0.64638865
-0.069433615 0.20133868 0.64786941
-0.067767181 0.20162694 0.64879698
-0.066083863 0.20187904 0.64960819
-0.06431821 0.20188656 0.64963239
-0.062640019 0.20217679 0.65056634
-0.060941774 0.20241731 0.65134025
-0.059084833 0.20212935 0.65041363
-0.057285227 0.20202579 0.65008038
-0.055373818 0.20150876 0.6484167
-0.053652871 0.20167363 0.64894724
-0.051900696 0.20172833 0.64912325
-0.050161961 0.20184097 0.64948571
-0.048359744 0.20169708 0.6490227
-0.046578623 0.2016336 0.64881843
-0.044959374 0.20229344 0.65094167
-0.043128755 0.20201737 0.65005332
-0.041325644 0.20185204 0.64952129
-0.039538462 0.20175318 0.64920324
-0.037917592 0.20253345 0.65171397
-0.03627833 0.20328724 0.65413952
-0.034495417 0.20327233 0.65409154
-0.032804649 0.20382832 0.65588063
-0.031070795 0.20416519 0.6569646
-0.02932285 0.20444494 0.65786481
-0.027516719 0.20432904 0.65749186
-0.025745261 0.20447241 0.65795314
-0.023995614 0.20482334 0.65908241
-0.022241434 0.20518918 0.6602596
-0.020486897 0.20561576 0.66163224
-0.018682897 0.20558026 0.66151804
-0.016906798 0.20587698 0.66247278
-0.015106631 0.20591645 0.6625998
-0.013314745 0.20609483 0.66317379
-0.011497283 0.20587115 0.66245407
-0.0096922144 0.20582747 0.66231352
-0.0078590177 0.20503001 0.65974742
-0.0060526659 0.20466799 0.65858251
-0.0042485981 0.20411105 0.65679038
-0.0024646719 0.2044155 0.65777004
-0.00067240203 0.20380737 0.65581322
0.0011105865 0.20345032 0.65466428
0.0028874942 0.20310545 0.65355456
0.0046669729 0.20313542 0.653651
0.0064362781 0.20282824 0.65266258
0.0082136858 0.20285407 0.65274566
0.0099731656 0.20250666 0.65162778
0.011758078 0.20270263 0.65225834
0.013505318 0.20228291 0.65090775
0.015260106 0.20206048 0.65019202
0.01703055 0.20207003 0.65022278
0.01880746 0.20214729 0.65047139
0.020571597 0.20208578 0.65027344
0.022316154 0.2018569 0.64953697
0.024048025 0.20155531 0.64856648
0.025822205 0.20162532 0.64879179
0.027569747 0.20149168 0.64836174
0.029366549 0.20171247 0.64907223
0.031128021 0.20167932 0.64896554
0.032877646 0.20157708 0.64863658
0.034620348 0.20144498 0.64821148
0.036351863 0.20126374 0.64762831
0.038136303 0.20137876 0.64799839
0.039944287 0.20160243 0.64871812
0.041599184 0.20106721 0.6469959
0.043278694 0.20068961 0.64578086
0.044836391 0.19979867 0.642914
0.046719044 0.20036833 0.64474702
0.04851681 0.20054586 0.64531827
0.050384782 0.20099103 0.64675075
0.05201073 0.20047328 0.64508474
0.053699896 0.20022507 0.64428604
0.055331014 0.19978295 0.64286339
0.057152592 0.20003456 0.643673
0.058943953 0.20016858 0.64410424
0.060852382 0.20068093 0.64575291
0.062589034 0.20061393 0.64553732
0.064413965 0.2008258 0.64621907
0.066181526 0.20085232 0.64630443
0.067856207 0.20060289 0.64550179
0.069516473 0.20032449 0.64460593
0.07130006 0.20040643 0.64486963
0.072890073 0.19995342 0.64341193
0.074549429 0.19970742 0.64262033
0.076137505 0.19928613 0.64126474
0.078151144 0.19997264 0.6434738
0.079840459 0.19981739 0.6429742
0.081673801 0.20002152 0.64363104
0.083264008 0.19963412 0.64238447
0.085070796 0.19977127 0.64282578
0.086938381 0.20004275 0.64369941
0.088896267 0.20050722 0.64519393
0.090558901 0.20030062 0.64452916
0.091950879 0.19951463 0.64199996
0.093744837 0.19961388 0.64231938
0.095640115 0.19992131 0.64330858
0.097494327 0.20013338 0.64399099
0.099047251 0.1997304 0.64269429
0.10067161 0.19948296 0.6418981
0.10239401 0.19943492 0.64174348
0.10430524 0.19975013 0.64275777
0.10621747 0.20005679 0.64374453
0.10773247 0.19961749 0.64233094
0.1091843 0.19907704 0.64059192
0.11077353 0.19880016 0.63970095
0.11279744 0.19929989 0.64130896
0.11455786 0.1993259 0.64139271
0.11627129 0.19927062 0.64121479
0.11789826 0.19907099 0.64057243
0.11934482 0.19857697 0.63898277
0.12117479 0.19872595 0.63946217
0.12318344 0.19915961 0.64085758
0.12507039 0.1993871 0.64158964
0.12658465 0.1990224 0.64041609
0.12810104 0.19867091 0.63928503
0.12963197 0.19835109 0.63825589
0.13140032 0.19839819 0.63840747
0.13327022 0.19859539 0.63904202
0.13514607 0.19879627 0.63968843
0.13670999 0.19853903 0.6388607
0.13807988 0.19801001 0.63715839
0.13941829 0.19744954 0.63535488
0.14093541 0.19715276 0.63439995
0.143025 0.19765432 0.63601387
0.14484219 0.19777195 0.63639235
0.14661433 0.197826 0.63656628
0.14794019 0.19728366 0.63482112
0.1494655 0.19701675 0.63396227
0.15102193 0.19679646 0.63325346
0.15253247 0.19652206 0.63237047
0.15457943 0.19693717 0.63370621
0.15653835 0.19723219 0.63465554
0.15871884 0.19779688 0.63647258
0.1603094 0.19762217 0.63591039
0.16206303 0.19765005 0.6360001
0.16329129 0.19704336 0.63404793
0.16484557 0.19683868 0.63338929
0.16637994 0.19661471 0.63266861
0.16836534 0.19692285 0.63366014
0.1703572 0.19723222 0.63465559
0.17209062 0.19723918 0.63467801
0.17366351 0.19706383 0.63411379
0.17543875 0.1971193 0.63429224
0.17748852 0.19747913 0.63545012
0.17905654 0.19730118 0.6348775
0.18017794 0.19663921 0.63274741
0.18154128 0.1962513 0.63149923
0.18328001 0.19627269 0.63156801
0.18521202 0.19649872 0.63229537
0.1868014 0.19636047 0.63185048
0.1883395 0.19617128 0.63124174
0.19009224 0.19620708 0.63135689
0.1920017 0.19640255 0.6319859
0.19400999 0.19669473 0.63292611
0.19599126 0.19695464 0.63376242
0.1972506 0.19649085 0.63227004
0.19886789 0.19638857 0.6319409
0.2002109 0.1960195 0.63075334
0.20192882 0.19602065 0.63075703
0.20326902 0.19565821 0.62959075
0.20480546 0.19548914 0.62904674
0.20630811 0.19529089 0.62840879
0.20795859 0.19523469 0.62822795
0.2097078 0.19527133 0.62834585
0.2113746 0.19523126 0.62821692
0.21333696 0.19546264 0.62896144
0.21484634 0.19527861 0.62836927
0.21661511 0.19533138 0.62853909
0.21804236 0.19507778 0.62772304
0.21973982 0.195068 0.62769157
0.22196145 0.19552007 0.62914628
0.22395888 0.19576928 0.62994814
0.22560211 0.19570741 0.62974906
0.22666141 0.19514376 0.62793535
0.22820799 0.19500491 0.62748855
0.22948322 0.19463798 0.62630785
0.23106906 0.19453797 0.62598604
0.23206271 0.1939445 0.62407637
0.2341371 0.19425632 0.62507975
0.23584388 0.19426084 0.62509429
0.23797882 0.19461544 0.62623531
0.23947428 0.19444576 0.62568933
0.24074613 0.19409819 0.62457091
0.24183668 0.19361036 0.62300116
0.24339093 0.19349796 0.62263948
0.24530634 0.19367224 0.6232003
0.24691445 0.19360319 0.62297809
0.2482903 0.19335422 0.62217695
0.24945103 0.19294222 0.62085122
0.25165206 0.19333501 0.62211514
0.2531172 0.19316094 0.62155503
0.25538665 0.19359891 0.62296432
0.25707334 0.19359227 0.62294292
0.25959718 0.19421197 0.62493706
0.26091436 0.19392677 0.62401932
0.26152599 0.19312425 0.62143695
0.26246983 0.19257577 0.61967206
0.264029 0.19248289 0.6193732
0.266442 0.1930097 0.62106836
0.26830584 0.19313456 0.62147015
0.26974392 0.19295333 0.62088698
0.27125162 0.19282381 0.62047023
0.2728444 0.19275603 0.62025207
0.27511761 0.19316679 0.62157387
0.27642781 0.19290054 0.62071711
0.27760381 0.19254445 0.61957127
0.2784732 0.19198127 0.61775905
0.2797001 0.19166984 0.61675692
-0.49505633 0.22241285 0.7094686
-0.48600197 0.21920002 0.69922006
-0.4777272 0.21631491 0.69001693
-0.47455087 0.21572472 0.68813431
-0.48077443 0.21941985 0.69992131
-0.48631117 0.22282967 0.7107982
-0.47743618 0.21963687 0.70061356
-0.47593889 0.21982604 0.701217
-0.47403038 0.21982604 0.701217
-0.47359061 0.22050992 0.70339847
-0.47383481 0.22151908 0.70661759
-0.47086 0.22102545 0.70504296
-0.46559769 0.21944962 0.70001626
-0.4619253 0.2186133 0.69734848
-0.46056557 0.21886908 0.6981644
-0.45639443 0.21778543 0.69470769
-0.45450363 0.21778543 0.69470769
-0.45443472 0.21866207 0.69750404
-0.45251271 0.21865067 0.69746768
-0.44760916 0.21719244 0.69281614
-0.4426918 0.21571514 0.68810374
-0.44017693 0.21540096 0.68710154
-0.4375889 0.21504813 0.68597609
-0.43350238 0.21395272 0.68248183
-0.43175274 0.21400619 0.68265241
-0.43216497 0.21513633 0.68625742
-0.43029717 0.21513633 0.68625742
-0.42997065 0.21591029 0.68872625
-0.42614618 0.21492682 0.68558913
-0.42420948 0.21489099 0.68547481
-0.42183954 0.21463442 0.68465638
-0.41830334 0.21377954 0.68192941
-0.41269535 0.2118535 0.6757856
-0.41022298 0.21152706 0.67474431
-0.41138843 0.21308193 0.67970413
-0.4145343 0.21568124 0.68799561
-0.41336274 0.21604761 0.68916428
-0.41148704 0.21604761 0.68916428
-0.40786067 0.21512425 0.68621886
-0.40198007 0.21299791 0.67943615
-0.3994894 0.21265645 0.67834693
-0.3968097 0.21221074 0.67692518
-0.39306721 0.21118987 0.67366868
-0.39078134 0.21094568 0.67288977
-0.39060521 0.21184343 0.67575347
-0.38604626 0.21036141 0.67102599
-0.38354805 0.20999356 0.66985261
-0.37964106 0.20884719 0.66619587
-0.37799436 0.20893922 0.66648942
-0.37502876 0.20829959 0.6644491
-0.3742708 0.20888589 0.66631931
-0.3709507 0.20804095 0.66362405
-0.3691445 0.20804095 0.66362405
-0.36641365 0.20751728 0.66195363
-0.364586 0.20750248 0.66190642
-0.36428198 0.20835902 0.66463864
-0.36275357 0.20852026 0.66515303
-0.35996747 0.20795658 0.66335493
-0.35755 0.20760123 0.66222143
-0.3545225 0.20688629 0.65994084
-0.35275221 0.20690148 0.6599893
-0.35095206 0.20689923 0.65998209
-0.350216 0.20752747 0.66198611
-0.3493042 0.20805754 0.66367698
-0.34819165 0.20847294 0.66500205
-0.34581518 0.20813198 0.66391444
-0.34266272 0.20731795 0.66131777
-0.33908671 0.20733251 0.6613642
-0.33710921 0.20722342 0.66101623
-0.33535799 0.20725301 0.66111064
-0.3332355 0.20705223 0.66047019
-0.33185336 0.20731178 0.6612981
-0.32973385 0.20711102 0.6606577
-0.32749933 0.2068354 0.65977854
-0.3250933 0.20644784 0.65854222
-0.32330093 0.20644784 0.65854222
-0.32066551 0.2059065 0.65681541
-0.31796741 0.2053186 0.65494013
-0.31672034 0.20566633 0.65604931
-0.31559753 0.20609917 0.65742999
-0.3139095 0.20616569 0.65764219
-0.31154475 0.20578599 0.65643102
-0.30880868 0.20515522 0.65441895
-0.30711955 0.20521672 0.6546151
-0.30527595 0.20517509 0.65448231
-0.30225554 0.2043374 0.65181023
-0.30101544 0.2047005 0.65296847
-0.29923153 0.20469591 0.6529538
-0.29732671 0.20460807 0.6526736
-0.29420653 0.20367777 0.64970607
-0.29138726 0.2029458 0.64737117
-0.27759176 0.2031655 0.648072
-0.27575666 0.20311303 0.64790463
-0.27453157 0.20351209 0.64917755
-0.27212188 0.20303248 0.64764768
-0.26464793 0.20270842 0.64661396
-0.26315808 0.20291665 0.64727819
-0.26142949 0.20294234 0.64736015
-0.22144468 0.20343807 0.64894146
-0.21996012 0.20369892 0.64977354
-0.21871072 0.20418353 0.65131938
-0.21679981 0.20405346 0.65090448
-0.21522382 0.20423907 0.65149653
-0.21300018 0.20380804 0.65012163
-0.21152423 0.20409125 0.651025
-0.20953625 0.203881 0.65035433
-0.20803601 0.20414579 0.65119898
-0.20610246 0.20398627 0.65069014
-0.2044059 0.20406058 0.65092719
-0.20214812 0.20357102 0.64936554
-0.20093511 0.20413423 0.65116209
-0.19926481 0.20423874 0.65149552
-0.19799744 0.20476183 0.65316409
-0.19597812 0.20450972 0.6523599
-0.19450524 0.20482847 0.65337664
-0.19248745 0.20457393 0.6525647
-0.19110632 0.20499761 0.65391618
-0.18896806 0.20460945 0.65267801
-0.18763487 0.20509391 0.65422338
-0.18523891 0.20441486 0.65205729
-0.18358167 0.20454574 0.65247476
-0.18146271 0.20415971 0.65124339
-0.18017004 0.2047049 0.65298247
-0.17813487 0.20440891 0.65203834
-0.17639294 0.20444685 0.65215933
-0.17401233 0.20373778 0.64989752
-0.17248166 0.20401949 0.65079612
-0.17074879 0.2040654 0.65094256
-0.16901594 0.20411231 0.65109217
-0.16729513 0.20417488 0.65129179
-0.16540946 0.20403545 0.65084702
-0.16349232 0.20385376 0.65026742
-0.16133341 0.20336333 0.64870304
-0.15942733 0.20318426 0.64813185
-0.15766793 0.20319024 0.64815092
-0.15598069 0.2032904 0.6484704
-0.15422979 0.20330891 0.64852947
-0.15223694 0.20300524 0.64756078
-0.15040193 0.20290738 0.64724863
-0.14870279 0.20299266 0.64752066
-0.14765733 0.20398307 0.65067995
-0.14604828 0.20420945 0.65140206
-0.14438513 0.20436484 0.65189773
-0.14207689 0.20359966 0.64945692
-0.14015238 0.20337203 0.64873081
-0.13850544 0.20354651 0.64928734
-0.13709861 0.20408291 0.65099841
-0.13546117 0.20428558 0.65164489
-0.13365397 0.20423423 0.65148109
-0.13173109 0.20400235 0.65074146
-0.12977448 0.2037112 0.6498127
-0.12752406 0.20294443 0.64736682
-0.12575996 0.20294096 0.64735574
-0.12376457 0.20255885 0.64613682
-0.12224206 0.20295082 0.64738721
-0.12017355 0.20243451 0.64574021
-0.11875495 0.20301388 0.64758837
-0.11694554 0.20293258 0.64732903
-0.11517023 0.20290886 0.64725333
-0.11335851 0.20281926 0.64696753
-0.11166143 0.20293519 0.64733732
-0.10984544 0.20283526 0.64701855
-0.10796922 0.202619 0.64632875
-0.10600078 0.20221969 0.645055
-0.10434018 0.2024041 0.64564323
-0.10284043 0.20291218 0.64726394
-0.1014139 0.20358495 0.64941001
-0.099597238 0.20348454 0.64908969
-0.097673327 0.20315741 0.6480462
-0.095725842 0.20276833 0.64680505
-0.093837544 0.20249237 0.64592481
-0.092178524 0.20271009 0.64661932
-0.090462126 0.20280765 0.64693052
-0.088864625 0.20318094 0.64812124
-0.087213956 0.2034453 0.64896452
-0.085486345 0.20353742 0.64925838
-0.083629765 0.20331986 0.6485644
-0.081658557 0.20280826 0.64693242
-0.079600826 0.20205444 0.64452785
-0.077662021 0.20157535 0.64299965
-0.075943388 0.20165882 0.64326584
-0.074311279 0.20198138 0.6442948
-0.072460853 0.20171182 0.64343494
-0.070606455 0.20141757 0.64249629
-0.068992294 0.20181108 0.64375156
-0.067434028 0.20239288 0.64560741
-0.065682694 0.20241083 0.64566469
-0.063907027 0.20235272 0.64547932
-0.062109433 0.20221993 0.64505577
-0.060538892 0.20284019 0.64703429
-0.05859255 0.20220073 0.6449945
-0.056817744 0.20213202 0.64477533
-0.054844972 0.20133221 0.64222401
-0.053230003 0.20183645 0.6438325
-0.051559534 0.20215742 0.64485633
-0.049923584 0.20264111 0.64639926
-0.048072066 0.20225319 0.64516187
-0.046364211 0.20246321 0.64583176
-0.044702958 0.20290129 0.64722919
-0.042906463 0.20273627 0.64670283
-0.041110992 0.2025622 0.64614755
-0.03934567 0.20252776 0.6460377
-0.03764382 0.2028321 0.64700848
-0.035936788 0.20313701 0.64798111
-0.03415614 0.20303579 0.64765823
-0.032607872 0.20438007 0.65194631
-0.03087616 0.20466311 0.6528492
-0.029187961 0.20528677 0.65483856
-0.027355544 0.20491125 0.65364069
-0.025623567 0.20528819 0.65484309
-0.023877794 0.20560266 0.65584624
-0.022168422 0.20630676 0.6580922
-0.020378225 0.20631629 0.6581226
-0.018591672 0.20636813 0.658288
-0.016796544 0.20632571 0.65815264
-0.015011201 0.20640768 0.65841413
-0.013212733 0.20630695 0.6580928
-0.011406862 0.2060409 0.65724415
-0.0096214488 0.20611413 0.65747774
-0.0078202989 0.20580672 0.65649712
-0.006018186 0.20528434 0.65483081
-0.0042238245 0.20469804 0.6529606
-0.002445003 0.20456018 0.65252084
-0.0006681449 0.20429066 0.6516611
0.0011049155 0.20418414 0.65132135
0.0028742743 0.20394622 0.65056241
0.004649499 0.20414725 0.65120363
0.006417105 0.20399511 0.65071833
0.0081861187 0.20394386 0.6505549
0.009928151 0.20335819 0.64868665
0.011698605 0.20344362 0.64895916
0.013430454 0.20292336 0.64729959
0.015176266 0.20271024 0.6466198
0.016916793 0.20247819 0.64587957
0.018652657 0.20223926 0.6451174
0.020376371 0.20192105 0.64410233
0.022050792 0.20120347 0.64181334
0.023793494 0.20116852 0.64170188
0.025560267 0.20132796 0.64221048
0.027360594 0.20171437 0.64344305
0.029133145 0.20186183 0.64391345
0.030871551 0.2017694 0.64361858
0.032563031 0.20139663 0.64242953
0.034341533 0.20157267 0.64299107
0.036076993 0.20149125 0.64273137
0.037855513 0.20164672 0.64322728
0.039637659 0.20180692 0.64373827
0.04133654 0.20154758 0.64291102
0.043010306 0.2011918 0.64177614
0.04460885 0.20052566 0.63965124
0.046479136 0.20108522 0.64143616
0.048319004 0.20147742 0.64268726
0.050039683 0.20136261 0.64232099
0.051582988 0.20056587 0.63977951
0.053216882 0.20016189 0.63849086
0.054884348 0.19990575 0.6376738
0.056715481 0.20024315 0.63875008
0.058530744 0.20050614 0.63958895
0.060400918 0.2009366 0.64096206
0.062296435 0.20142482 0.64251947
0.064063579 0.20148265 0.64270395
0.065851778 0.20160188 0.64308423
0.067448981 0.20114534 0.64162791
0.069060236 0.20075268 0.64037538
0.070714973 0.20050263 0.63957781
0.072359383 0.20023605 0.63872743
0.073937483 0.19980277 0.63734531
0.075610429 0.1996398 0.63682544
0.077458486 0.19993611 0.63777065
0.079446323 0.20057234 0.63980013
0.081148237 0.20047489 0.63948929
0.082694523 0.20000516 0.63799089
0.084154516 0.19935031 0.63590205
0.086013794 0.19964865 0.63685369
0.08802183 0.20027366 0.63884741
0.089873634 0.20052588 0.63965195
0.091440834 0.20014557 0.63843882
0.093135275 0.20005277 0.63814276
0.094813712 0.19992961 0.63774991
0.096578628 0.19998996 0.63794243
0.098146737 0.19964783 0.63685107
0.099741779 0.19937141 0.63596934
0.10151143 0.19944748 0.63621199
0.10340542 0.19976121 0.63721275
0.10536014 0.20017999 0.63854861
0.10680317 0.19962876 0.63679022
0.10831912 0.19922924 0.63551581
0.11000005 0.19914097 0.63523424
0.11183782 0.19933496 0.63585305
0.11357098 0.19933942 0.6358673
0.1152649 0.19927593 0.63566476
0.11696566 0.19922595 0.63550532
0.11882462 0.19944298 0.63619763
0.12070505 0.19968927 0.63698328
0.12238693 0.19960478 0.63671374
0.12396847 0.19936126 0.63593698
0.12534086 0.19879277 0.63412356
0.12688231 0.19850419 0.63320303
0.12853368 0.198393 0.63284832
0.13036156 0.19855362 0.63336068
0.13228406 0.19885227 0.63431334
0.13404249 0.19889978 0.63446486
0.13568927 0.1987825 0.63409078
0.13719888 0.19846973 0.63309306
0.13857952 0.19798048 0.63153243
0.14010651 0.19770974 0.63066882
0.14212476 0.19813038 0.63201064
0.14397308 0.19830693 0.63257378
0.14574225 0.19837154 0.6327799
0.14713886 0.1979335 0.63138258
0.14882661 0.1978927 0.63125241
0.15043278 0.19774556 0.63078308
0.15157887 0.19700381 0.62841702
0.15324545 0.19694752 0.62823743
0.15512213 0.19715953 0.6289137
0.15748873 0.19798279 0.63153982
0.15910374 0.19785362 0.63112777
0.16077331 0.19779435 0.63093871
0.16196713 0.1971572 0.62890631
0.16377194 0.19726937 0.62926406
0.1652846 0.19703093 0.6285035
0.16736329 0.1974652 0.62988877
0.1690087 0.19738467 0.62963188
0.17065023 0.19730124 0.62936574
0.17217413 0.19708484 0.62867546
0.17405921 0.19728206 0.62930459
0.17602392 0.1975648 0.63020647
0.17759764 0.1974075 0.62970471
0.1787357 0.19677357 0.62768257
0.18042658 0.1967545 0.62762171
0.18229789 0.19693068 0.62818372
0.18411393 0.19704446 0.62854666
0.18533409 0.19652428 0.62688732
0.1866156 0.19607805 0.6254639
0.188293 0.19605207 0.62538105
0.19034696 0.19641513 0.62653917
0.19238091 0.19675128 0.62761146
0.19408496 0.19674709 0.62759811
0.19552159 0.19647427 0.62672782
0.19740772 0.19665393 0.62730092
0.19938146 0.19691704 0.62814021
0.20061059 0.19644654 0.62663937
0.20186867 0.19601206 0.62525344
0.20314744 0.19560477 0.62395424
0.20519277 0.19593622 0.6250115
0.20686762 0.19591135 0.62493217
0.20912197 0.19643123 0.62659055
0.2106933 0.1963063 0.62619203
0.21251069 0.19641082 0.6265254
0.21373568 0.19597051 0.62512088
0.2154226 0.19595733 0.62507886
0.21701974 0.19586332 0.62477899
0.2186936 0.19583949 0.62470299
0.22073221 0.19614016 0.62566203
0.22217198 0.19590814 0.62492198
0.22378856 0.1958344 0.62468672
0.22488415 0.19530928 0.62301165
0.22682029 0.19551657 0.6236729
0.22833179 0.19535747 0.62316537
0.2299605 0.19530025 0.62298286
0.23081315 0.1945896 0.62071598
0.23263179 0.19469775 0.62106097
0.23444423 0.1947992 0.62138456
0.23611885 0.19478551 0.62134087
0.23774053 0.19472863 0.62115943
0.23932098 0.19463903 0.62087363
0.24143443 0.19498113 0.62196487
0.24260879 0.19456536 0.62063861
0.24429016 0.19455911 0.6206187
0.24555826 0.19422607 0.61955637
0.24717791 0.19417375 0.61938947
0.24820694 0.19366132 0.61775488
0.24991977 0.19368571 0.61783266
0.25131997 0.19346912 0.61714178
0.25347307 0.19383113 0.61829656
0.25521785 0.19387819 0.61844665
0.25729412 0.1941748 0.61939281
0.25840661 0.19374494 0.61802161
0.25923315 0.19310763 0.61598867
0.26060197 0.19287987 0.61526215
0.26219502 0.19281992 0.61507094
0.26422927 0.19308315 0.61591059
0.26627558 0.19335179 0.61676753
0.26783293 0.19326428 0.61648834
0.26969376 0.19339545 0.61690676
0.2709294 0.19307943 0.61589873
0.27340633 0.19364651 0.61770761
0.27447051 0.19321214 0.61632204
0.27639252 0.19338325 0.61686784
0.27715203 0.19274384 0.61482823
0.27900571 0.19286846 0.61522573
-0.48790506 0.2211031 0.69922006
-0.47960523 0.21819293 0.69001693
-0.47033063 0.21481469 0.67933351
-0.47648266 0.21934912 0.69367325
-0.48106676 0.2223404 0.70313293
-0.47837174 0.22197786 0.70198643
-0.47085726 0.21936709 0.69373006
-0.47254667 0.22104052 0.69902217
-0.47064412 0.22104052 0.69902217
-0.46583995 0.21967223 0.69469506
-0.46620926 0.22074233 0.69807917
-0.46709394 0.22206622 0.70226586
-0.46537304 0.22215715 0.70255339
-0.46044078 0.22070949 0.69797528
-0.45476094 0.21888997 0.69222122
-0.4527002 0.21880457 0.69195116
-0.45081693 0.21880457 0.69195116
-0.4494606 0.2190614 0.69276339
-0.44845378 0.21949148 0.69412345
-0.4426918 0.21758796 0.68810374
-0.43820167 0.21629606 0.68401819
-0.43862414 0.21742834 0.68759894
-0.43338791 0.21575326 0.68230164
-0.42796797 0.2139719 0.67666823
-0.42737958 0.21460122 0.67865843
-0.42553246 0.21460122 0.67865843
-0.42516276 0.21534956 0.68102497
-0.42250815 0.21494202 0.6797362
-0.41815931 0.21366525 0.67569846
-0.41535312 0.21316889 0.67412877
-0.41223076 0.21250513 0.67202973
-0.40792426 0.21122234 0.66797298
-0.40617889 0.21126013 0.66809249
-0.40478221 0.21148044 0.66878921
-0.40589797 0.21302131 0.67366207
-0.40639439 0.21424964 0.67754656
-0.40455031 0.21424964 0.67754656
-0.40277284 0.21428509 0.67765868
-0.40036756 0.21398529 0.67671061
-0.39852819 0.21398662 0.67671478
-0.39511847 0.21314085 0.67404008
-0.39063239 0.21170384 0.6694957
-0.38763252 0.21106258 0.66746777
-0.38768828 0.2120869 0.67070711
-0.38383055 0.2109699 0.66717464
-0.38133395 0.21059395 0.66598576
-0.37824553 0.20988603 0.66374701
-0.37600574 0.20964445 0.66298306
-0.3731755 0.20906977 0.66116565
-0.37197939 0.20940945 0.66223985
-0.36928931 0.20890729 0.66065186
-0.36749119 0.20890729 0.66065186
-0.36451507 0.20823434 0.65852368
-0.36207315 0.20786141 0.65734434
-0.36176622 0.20871654 0.6600486
-0.36008573 0.20878378 0.66026121
-0.35811338 0.20868161 0.65993816
-0.35577771 0.20836565 0.65893894
-0.35321197 0.20791106 0.65750134
-0.3508682 0.20758314 0.65646434
-0.34931609 0.20772265 0.65690553
-0.34792408 0.20795929 0.65765387
-0.34703466 0.20850034 0.65936488
-0.34526232 0.20851378 0.65940738
-0.34302419 0.20824459 0.6585561
-0.3131941 0.20630533 0.65242332
-0.31150073 0.20635986 0.65259582
-0.3093071 0.20608173 0.65171623
-0.30706134 0.20576546 0.65071607
-0.30487761 0.20548733 0.64983648
-0.3038379 0.20598149 0.65139925
-0.30225554 0.20611145 0.65181023
-0.29832613 0.20463301 0.64713478
-0.29639581 0.2045164 0.64676601
-0.21320188 0.20407684 0.64537597
-0.21135928 0.20399378 0.64511329
-0.20955503 0.20394665 0.64496422
-0.20773745 0.20388561 0.64477122
-0.20593299 0.20383656 0.64461607
-0.20408683 0.20374501 0.64432657
-0.18890017 0.20439032 0.64636731
-0.18698975 0.2042252 0.64584512
-0.18499742 0.20396663 0.6450274
-0.17756008 0.203491 0.64352328
-0.17600675 0.20372036 0.6442486
-0.17404923 0.20348181 0.64349419
-0.1721864 0.20335023 0.64307809
-0.1704523 0.20336951 0.64313906
-0.16885063 0.20354886 0.64370626
-0.16692585 0.20333837 0.6430406
-0.1653567 0.2035612 0.6437453
-0.16322382 0.20308743 0.64224702
-0.16148818 0.20310298 0.6422962
-0.15761952 0.20262432 0.64078248
-0.15585768 0.20260116 0.64070922
-0.15433234 0.20288838 0.64161754
-0.15265103 0.2029748 0.64189082
-0.14565378 0.20296218 0.64185089
-0.14429176 0.20350504 0.64356768
-0.14264455 0.2036541 0.64403903
-0.14042589 0.20298083 0.6419099
-0.13540104 0.20330583 0.64293766
-0.13384485 0.20360048 0.64386952
-0.13188152 0.20327541 0.64284152
-0.12984212 0.20282277 0.64141005
-0.12782887 0.20239921 0.64007056
-0.12598482 0.20223553 0.63955295
-0.12415243 0.20208625 0.63908088
-0.12247454 0.20218779 0.63940197
-0.1205511 0.20188105 0.63843197
-0.1186057 0.20152801 0.63731551
-0.11696737 0.20169401 0.63784045
-0.11564684 0.20242125 0.6401403
-0.11404932 0.20267852 0.64095384
-0.11195609 0.20204914 0.63896352
-0.11035374 0.2022998 0.6397562
-0.10849021 0.20207201 0.63903582
-0.10686798 0.20229357 0.63973653
-0.1045628 0.20120828 0.63630438
-0.10278629 0.20112087 0.63602793
-0.10110884 0.20122762 0.63636553
-0.099871121 0.2022285 0.63953072
-0.098130636 0.20222878 0.63953161
-0.096221633 0.20187552 0.63841444
-0.094209924 0.20128982 0.63656223
-0.092386313 0.2010916 0.63593537
-0.090912774 0.20166233 0.63774025
-0.089286603 0.20191012 0.63852388
-0.087642677 0.20212682 0.63920915
-0.085823521 0.20193996 0.63861823
-0.084063254 0.2018868 0.63845015
-0.082348287 0.20194252 0.63862634
-0.080588378 0.20188802 0.63845402
-0.078721546 0.20155737 0.63740832
-0.076817498 0.20111439 0.63600743
-0.075168952 0.20133533 0.63670611
-0.073579185 0.20172782 0.63794738
-0.071838208 0.20171472 0.63790596
-0.070000999 0.20142409 0.63698685
-0.068360843 0.20170008 0.63785964
-0.066674359 0.20185021 0.63833439
-0.064918354 0.20179227 0.63815117
-0.063149638 0.20169054 0.63782948
-0.061401796 0.20165162 0.6377064
-0.059718512 0.20182863 0.63826615
-0.057889137 0.2015077 0.63725126
-0.056158002 0.20151947 0.63728851
-0.054409534 0.20146783 0.63712513
-0.052700665 0.20156422 0.63743001
-0.051060021 0.20193702 0.63860893
-0.049420889 0.20234226 0.63989049
-0.047563698 0.20185171 0.63833916
-0.045846168 0.20193915 0.63861567
-0.044144232 0.20210485 0.63913971
-0.042424999 0.20220171 0.63944602
-0.040709104 0.20232347 0.63983107
-0.039015509 0.20257187 0.6406166
-0.037329443 0.20288444 0.64160508
-0.035570748 0.20281357 0.64138097
-0.033802822 0.20268005 0.64095873
-0.032226816 0.20374537 0.6443277
-0.030539168 0.20418684 0.64572382
-0.028892953 0.20497617 0.64822
-0.027170081 0.20528898 0.6492092
-0.025448989 0.20565967 0.65038151
-0.023726024 0.20606951 0.65167761
-0.021981269 0.20634106 0.65253633
-0.020217555 0.20646672 0.65293372
-0.018430205 0.20635197 0.65257084
-0.016666194 0.20650192 0.65304506
-0.014894673 0.2065835 0.65330303
-0.013096619 0.20626932 0.65230948
-0.011292749 0.20575063 0.65066916
-0.0095164971 0.20563577 0.65030593
-0.007741638 0.20550542 0.6498937
-0.0059695286 0.20539245 0.64953643
-0.0041851797 0.20458613 0.64698654
-0.0024239111 0.20455618 0.64689183
-0.00066211761 0.20420541 0.64578253
0.0010981658 0.20469871 0.64734256
0.0028473092 0.20378692 0.64445913
0.0046041678 0.20391199 0.64485461
0.0063428828 0.20338623 0.64319193
0.0081088077 0.2037717 0.64441097
0.0098213628 0.20291738 0.64170927
0.011563394 0.20283811 0.64145857
0.013270404 0.20224589 0.63958573
0.015015461 0.20230365 0.63976836
0.016730906 0.20199189 0.63878244
0.018474815 0.20205012 0.63896662
0.020156132 0.20147268 0.63714051
0.021807071 0.20070714 0.63471955
0.023497641 0.20039196 0.63372284
0.025293313 0.20095493 0.63550317
0.027089739 0.20145144 0.63707334
0.028804857 0.20131993 0.63665748
0.03042173 0.20055568 0.63424057
0.032107309 0.20030212 0.63343871
0.033826061 0.20027082 0.6333397
0.035617724 0.20065327 0.6345492
0.037313253 0.20048384 0.63401341
0.039123442 0.20091824 0.63538712
0.040730178 0.20031524 0.63348019
0.042469706 0.20038778 0.63370961
0.044064946 0.19980043 0.63185215
0.046033751 0.2008874 0.63528961
0.047796447 0.20102879 0.63573676
0.049455419 0.20073929 0.63482124
0.05093753 0.1997757 0.63177395
0.052597847 0.19955114 0.63106376
0.054334462 0.19962107 0.63128495
0.056066819 0.19967157 0.63144463
0.05777543 0.199637 0.63133532
0.059603531 0.2000054 0.63250035
0.061425064 0.20033169 0.63353223
0.063263789 0.2006947 0.63468021
0.06495937 0.20059638 0.63436925
0.066666938 0.2005392 0.63418847
0.068251103 0.2001231 0.63287258
0.070026308 0.20027383 0.63334924
0.07167004 0.20005035 0.63264251
0.073330432 0.19988276 0.6321125
0.074927494 0.1995542 0.63107347
0.076670699 0.19962084 0.63128424
0.07854417 0.2000163 0.63253486
0.080180958 0.19980501 0.63186663
0.081766002 0.19947636 0.63082731
0.08326561 0.19895709 0.62918514
0.084982947 0.19896848 0.6292212
0.086789027 0.19918311 0.62989992
0.088563509 0.19931832 0.63032752
0.090243354 0.19923945 0.63007808
0.091967918 0.19926038 0.6301443
0.093637645 0.19916394 0.6298393
0.095303893 0.19906369 0.62952226
0.096911795 0.19884726 0.62883782
0.098479904 0.19855811 0.62792343
0.10028908 0.19875658 0.62855107
0.10204463 0.1988439 0.62882721
0.10414907 0.19959699 0.63120878
0.10566302 0.19921233 0.62999231
0.10727677 0.19902512 0.62940031
0.10884524 0.19876111 0.62856537
0.11053207 0.19871804 0.62842917
0.11210636 0.19847706 0.62766713
0.113816 0.19847935 0.62767434
0.11556728 0.1985531 0.62790757
0.1175503 0.19901703 0.62937474
0.11941887 0.19927669 0.63019586
0.12097214 0.19901027 0.62935334
0.12253153 0.19876121 0.62856573
0.12381438 0.19807662 0.62640077
0.12544571 0.19796056 0.62603372
0.1270442 0.19779645 0.62551475
0.12893817 0.19809067 0.62644517
0.13032295 0.1976051 0.62490964
0.13226378 0.19796433 0.62604564
0.13387966 0.19783424 0.62563425
0.1357968 0.19814698 0.62662327
0.13700236 0.19742659 0.62434506
0.13830189 0.19685757 0.6225456
0.14002438 0.19689707 0.62267053
0.14182214 0.19704022 0.62312323
0.14372653 0.19732635 0.62402809
0.14542858 0.19733129 0.6240437
0.14711283 0.19731219 0.62398332
0.14889495 0.19742334 0.62433481
0.14996743 0.19660166 0.62173629
0.15171015 0.19666715 0.62194341
0.15334451 0.19659229 0.62170666
0.1556067 0.19731517 0.62399274
0.15697667 0.19690329 0.6226902
0.15874837 0.19699875 0.62299204
0.16020939 0.19671071 0.62208116
0.16190493 0.19671363 0.6220904
0.16338278 0.19645475 0.62127173
0.16507646 0.19645803 0.6212821
0.16688687 0.19659875 0.62172711
0.1689254 0.19700269 0.62300456
0.17056453 0.19693744 0.6227982
0.17228068 0.19696154 0.62287438
0.17375235 0.19670837 0.62207377
0.17534575 0.19659656 0.62172019
0.17674968 0.19627652 0.62070805
0.1783307 0.19615732 0.62033111
0.18032849 0.19649446 0.62139732
0.18215981 0.19664566 0.62187546
0.18342727 0.19619098 0.62043756
0.18456391 0.19560592 0.61858737
0.18606675 0.19541606 0.61798698
0.18792683 0.19560143 0.61857319
0.18955423 0.19554348 0.6183899
0.19129327 0.1956007 0.61857086
0.19255027 0.19516833 0.61720353
0.19471154 0.19565207 0.61873329
0.19662139 0.19587705 0.61944479
0.19808279 0.19565524 0.61874336
0.19927765 0.19517614 0.61722821
0.20046866 0.19470128 0.61572653
0.20231284 0.19486344 0.61623931
0.20392968 0.19480574 0.61605686
0.20613573 0.19530725 0.61764288
0.20796302 0.1954447 0.61807752
0.209869 0.19565329 0.61873716
0.21100961 0.1951507 0.6171478
0.21253833 0.19501218 0.61670971
0.21371131 0.19455197 0.61525434
0.2155792 0.19472662 0.61580664
0.21760431 0.19503947 0.61679602
0.21928987 0.19504555 0.61681521
0.22091925 0.19500193 0.61667728
0.2222857 0.19472863 0.61581302
0.22437483 0.19508778 0.61694878
0.22563101 0.19472273 0.61579436
0.22720733 0.19463733 0.61552429
0.22809604 0.19396845 0.61340898
0.2305266 0.19461091 0.61544073
0.2319079 0.19436471 0.61466217
0.23353724 0.19432844 0.61454743
0.23459034 0.19381659 0.61292875
0.23670284 0.19418107 0.61408138
0.23854244 0.1943181 0.61451477
0.24007723 0.19420668 0.61416239
0.24115175 0.19372705 0.61264557
0.24259068 0.19354473 0.61206901
0.24375081 0.19314398 0.6108017
0.24522963 0.19299948 0.61034471
0.24661689 0.19278535 0.60966754
0.24864821 0.1930742 0.61058098
0.25049418 0.19321622 0.61103016
0.2524375 0.19343098 0.6117093
0.25364307 0.19308132 0.61060351
0.25525504 0.19304357 0.61048418
0.25646052 0.19270088 0.60940039
0.25840741 0.1929161 0.61008102
0.26002154 0.19288172 0.6099723
0.26167735 0.19287851 0.60996217
0.26288101 0.19254415 0.60890478
0.26414499 0.1922579 0.6079995
0.26561534 0.19212449 0.60757762
0.26733691 0.1921733 0.607732
0.26927549 0.19237655 0.60837477
0.27046895 0.19204825 0.60733652
0.27245829 0.19228561 0.60808718
0.27345324 0.19182259 0.60662287
0.27563468 0.19219239 0.60779238
-0.46655396 0.21492389 0.67387861
-0.4767963 0.22226341 0.69689119
-0.4730736 0.22140881 0.69421166
-0.47313485 0.22232544 0.69708568
-0.46563911 0.21968415 0.68880409
-0.4637644 0.21968415 0.68880409
-0.46125612 0.21938282 0.6878593
-0.45924196 0.21931502 0.68764669
-0.45925453 0.22021849 0.69047946
-0.45912102 0.22105905 0.693115
-0.45168117 0.21837415 0.68469667
-0.44909048 0.21802115 0.68358988
-0.44900769 0.21888779 0.68630713
-0.44713974 0.21888779 0.68630713
-0.44674602 0.21961248 0.68857938
-0.44086471 0.21763432 0.68237698
-0.43816552 0.21721691 0.68106824
-0.43442664 0.21627837 0.6781255
