# .PCD v0.7 - Point Cloud Data file format
VERSION 0.7
FIELDS x y z
SIZE 4 4 4
TYPE F F F
COUNT 1 1 1
WIDTH 1021
HEIGHT 1
VIEWPOINT 0 0 0 1 0 0 0
POINTS 1021
DATA ascii
0.20800646 0.16755757 1.1056459
0.22799465 0.16938099 1.1077104
0.23016611 0.16575871 1.1036661
0.25627533 0.1631235 1.106166
0.26702356 0.16383278 1.1008189
0.27435189 0.16538729 1.1062155
0.2848939 0.16459021 1.1039027
0.22794516 0.16743904 1.1148541
0.21602914 0.17064476 1.115975
0.22365783 0.17067574 1.1161777
0.12669478 0.20753753 1.1183697
0.13596898 0.2056134 1.1145531
0.14751917 0.19981168 1.1262938
0.095362365 0.20892069 1.1258233
0.1054609 0.20765737 1.1256381
0.11510283 0.20706151 1.1240638
0.12428887 0.20553599 1.1240952
0.13415028 0.2037642 1.1255702
0.1440243 0.20148575 1.1253976
-0.57089341 0.13914363 1.1315063
-0.5769214 0.14295383 1.1373186
0.14435627 0.19872737 1.1376351
0.022920264 0.2061599 1.13423
0.036040857 0.20831335 1.1392593
0.045343384 0.20832336 1.1393142
0.054588191 0.20810017 1.1380935
0.064519487 0.20861982 1.1337231
0.075953752 0.20723705 1.1333731
0.085216045 0.20725337 1.1334623
0.094279662 0.20683548 1.1311769
0.10463551 0.20598191 1.1349919
0.11579531 0.20415972 1.1368586
0.12490156 0.20263787 1.1352738
0.1345055 0.20097964 1.1328772
0.02812203 0.21016341 1.13252
0.035822958 0.21013334 1.1323578
0.32744098 0.11636838 1.1499045
0.33562118 0.11578956 1.1493375
0.34568778 0.11566989 1.146852
0.35449874 0.11600623 1.1463131
0.3647719 0.11580082 1.1442969
0.3188163 0.12856528 1.147032
0.32517368 0.12517336 1.1474359
0.33554289 0.125508 1.1476457
0.34514856 0.12536742 1.1463554
-0.5582546 0.13750218 1.1434664
0.29602787 0.13509405 1.1494567
0.30835813 0.13501331 1.1487699
0.31562665 0.13373804 1.1467867
0.32541513 0.13289556 1.1459198
-0.57263541 0.14032517 1.1411146
0.12951033 0.19970082 1.1432077
0.13661686 0.19882993 1.1453842
0.14518051 0.19674727 1.1441261
0.15388168 0.19359876 1.1439519
0.026845422 0.20710653 1.144032
0.034735121 0.2066678 1.1473382
0.045611005 0.20746246 1.1460063
0.055057168 0.20675874 1.1478431
0.065175809 0.20586643 1.1472325
0.075243585 0.20487361 1.1460531
0.086119875 0.20477292 1.1454843
0.095326483 0.20446059 1.1437399
0.10461404 0.20357966 1.143158
0.11472167 0.20200947 1.1430904
0.12541983 0.2006257 1.1485023
0.25764698 0.11736573 1.1597599
0.26591676 0.11453182 1.1584705
0.27654725 0.11403076 1.1579427
0.28522453 0.11387742 1.1563934
0.29465532 0.11438086 1.1551217
0.30514824 0.11368083 1.154376
0.31566468 0.11507677 1.1526182
0.32450265 0.11483028 1.1515934
0.3332192 0.11427338 1.15133
0.34115261 0.11746275 1.1504097
0.2465861 0.1236722 1.159698
0.25462377 0.12670594 1.1585767
0.26604009 0.12599395 1.1578262
0.27604276 0.12501009 1.1574768
0.28535008 0.12494735 1.1568999
0.29460347 0.12553833 1.1551307
0.3054637 0.12435863 1.1543758
0.31512839 0.12560464 1.1520934
0.23846315 0.13616528 1.1585715
0.24817166 0.13945827 1.1597332
0.25509018 0.13749763 1.1584028
0.2648313 0.13625501 1.1566817
0.27490458 0.13547143 1.1553607
0.28493378 0.13576838 1.1552043
0.29505312 0.13560635 1.1538148
0.30571198 0.13539603 1.1520547
0.31442988 0.13683702 1.1509683
0.32457644 0.13838911 1.150842
0.33238861 0.13838208 1.1507835
-0.58532429 0.14503634 1.1538866
-0.57829368 0.14563812 1.1586744
-0.56280595 0.1488658 1.1592515
0.25273669 0.14251941 1.158958
0.26488051 0.14226718 1.1569068
0.27422044 0.14363742 1.157781
0.28640574 0.1448946 1.1569211
0.29502976 0.14490886 1.1553587
0.30498359 0.14533551 1.1537597
0.31528664 0.1449904 1.1535338
0.3247492 0.14403324 1.1530468
0.33355108 0.14286302 1.1515555
0.21586561 0.1562838 1.1557835
0.23203962 0.1581587 1.157988
0.26642823 0.156202 1.1590618
0.2758953 0.1564308 1.1568701
0.28463396 0.15447019 1.1540078
0.29321456 0.15384071 1.1522286
0.30299568 0.15109155 1.152164
0.1941306 0.16753879 1.1574695
0.21277872 0.16340898 1.1561093
0.23646179 0.16424891 1.1564866
0.24170081 0.16460246 1.158976
0.25554392 0.16332696 1.157403
0.26423189 0.16158311 1.1554444
0.085543141 0.19926775 1.1587832
0.095017239 0.19929448 1.1589388
0.10583793 0.19888207 1.1565404
0.11509981 0.19857049 1.1547287
0.12445347 0.19845073 1.1540321
0.1333953 0.19677381 1.1552808
0.14478281 0.19499013 1.1558733
0.15569861 0.19196522 1.1528094
0.024993127 0.20371017 1.1541985
0.035259403 0.20414189 1.15426
0.045887969 0.20532821 1.1529758
0.055306874 0.20455194 1.1530136
0.064242542 0.20314358 1.1557344
0.074399769 0.2021327 1.1571293
0.083749019 0.2018991 1.155792
0.094737485 0.20185474 1.1555381
0.10546365 0.20131509 1.1524487
0.11318485 0.20110157 1.1512263
0.12093338 0.20095959 1.1504136
0.19937506 0.099274114 1.1697474
0.20894158 0.10246537 1.1698333
0.21828318 0.10395731 1.1687076
0.22399879 0.10503542 1.1674132
0.23460217 0.10576568 1.1676137
0.24500744 0.10493752 1.1651655
0.25520518 0.10503437 1.1630181
0.26395285 0.10489413 1.1614728
0.2716541 0.10381129 1.161163
0.20639898 0.11550435 1.1683152
0.21551499 0.11509793 1.168789
0.2243887 0.11495844 1.1673796
0.23495507 0.11468898 1.1646445
0.24572012 0.11453555 1.1630743
0.2546533 0.11406302 1.1623032
0.26349959 0.11356197 1.1612101
0.27201551 0.11427787 1.1604574
0.19934708 0.12472638 1.1695832
0.20589383 0.12419686 1.1683545
0.2153146 0.1249218 1.1677009
0.22419497 0.1243819 1.1663653
0.23477636 0.12410583 1.1637626
0.24515912 0.12397656 1.1625534
0.25396463 0.12222675 1.160965
0.26413631 0.12376159 1.1605347
-0.017111605 0.1374279 1.1693145
0.18337661 0.13105418 1.1692376
0.19678941 0.13574888 1.1685742
0.20592791 0.13415831 1.1685451
0.21484588 0.13401763 1.16732
0.22530666 0.13362744 1.1639264
0.23522902 0.13526016 1.1620768
0.2451566 0.13452788 1.1617614
0.25484601 0.13333568 1.161391
-0.61049736 0.14972894 1.1659728
-0.59203655 0.14987573 1.1671159
-0.58481485 0.14886355 1.1653895
-0.57409447 0.14578743 1.166168
-0.56496131 0.1478654 1.166307
0.18490846 0.14533028 1.1688741
0.19548926 0.14469765 1.1672833
0.20503534 0.14557567 1.1673777
0.21476601 0.14551249 1.1668797
0.22476445 0.1433928 1.1660484
0.23481619 0.14472258 1.1639626
0.24541338 0.14608069 1.1649594
0.25599602 0.14728785 1.1645672
0.26488504 0.14787081 1.1638359
0.27465826 0.14837934 1.1616173
0.28255588 0.14718722 1.1609467
0.1865423 0.1527876 1.169136
0.19528529 0.1564948 1.1690915
0.20865846 0.15796924 1.1682482
0.21408597 0.15552542 1.1666285
0.22448641 0.15315102 1.1678689
0.23510991 0.15369752 1.1680268
0.24473839 0.15627138 1.1674528
0.25494632 0.15559149 1.1647469
0.26407567 0.15504916 1.1630507
0.27528444 0.15224072 1.1609273
0.18550615 0.16600659 1.1666491
0.19544455 0.16391255 1.1652907
0.20490482 0.16387206 1.1650046
0.21040566 0.16163924 1.1603485
0.23761846 0.16188982 1.1621473
0.24616261 0.16315706 1.1621695
0.25170815 0.16179781 1.1614867
0.065392882 0.19875357 1.1650395
0.074921146 0.19878624 1.1652343
0.083702855 0.19813749 1.166074
0.094073087 0.19587696 1.1667759
0.1045111 0.19611509 1.1668446
0.11513659 0.1952173 1.1642005
0.12545875 0.19530217 1.1633501
0.13576077 0.19268718 1.1647886
0.14385767 0.19239043 1.1649179
0.15364614 0.19122432 1.1610113
-0.11204353 0.20960802 1.163661
0.034155235 0.20158117 1.1630502
0.045434166 0.20158786 1.1643925
0.055768207 0.20151584 1.1626706
-0.12374651 0.21066076 1.1695054
0.14709468 0.092390887 1.1794237
0.15653865 0.094523355 1.1780255
0.16530627 0.095045179 1.1765211
0.17479712 0.094984055 1.175761
0.18361342 0.095703535 1.1727837
0.19457635 0.094818845 1.1737337
0.14584385 0.10539216 1.1788437
0.15552832 0.10571229 1.1776408
0.16552523 0.10639558 1.1780934
0.17480937 0.10619185 1.1758349
0.18420617 0.10607294 1.1745335
0.19481367 0.10570669 1.1736716
0.20490865 0.10646962 1.1710579
0.21467328 0.10624073 1.1713303
0.22810565 0.10886208 1.1701429
0.14634573 0.11606145 1.1785723
0.15585235 0.1159728 1.1776757
0.16540229 0.11592674 1.1772089
0.1747406 0.11574768 1.1753813
0.18454082 0.11579163 1.1726043
0.19553374 0.11519696 1.1727585
0.20271626 0.11368851 1.1706567
0.21218513 0.11523355 1.170162
0.14959678 0.12411481 1.1788986
0.15583649 0.12557827 1.177569
0.16441476 0.12506679 1.1777732
0.1748668 0.12543593 1.1762464
0.18458575 0.12507719 1.1728876
0.19506787 0.12504642 1.1725736
0.20286638 0.12812187 1.1715237
0.21221156 0.1216184 1.1703078
-0.045966621 0.13805097 1.1746161
-0.037862442 0.13765973 1.1712872
-0.012360255 0.13770029 1.1716323
0.0036011348 0.13834232 1.1770951
0.14485717 0.13220394 1.1794955
0.15634696 0.13523877 1.1779652
0.16530973 0.13507429 1.176556
0.17458427 0.13482115 1.1743324
0.18383664 0.13616708 1.1721673
0.19377038 0.13375214 1.171963
0.20271583 0.13439916 1.1706543
-0.62358195 0.14777645 1.1756866
0.15760002 0.14335075 1.1787654
0.17443651 0.14428696 1.1733404
0.1854458 0.14096633 1.1722741
0.209048 0.14074448 1.1704292
0.21539046 0.14072573 1.1702733
-0.63607138 0.15590206 1.1765939
0.18447319 0.15614878 1.1733443
0.19604623 0.15476193 1.1720455
0.20559958 0.15581264 1.1719608
0.21250989 0.1536866 1.171953
0.22499745 0.15031554 1.1705408
0.23479912 0.15366147 1.1717614
0.24411675 0.15350391 1.1705599
0.18162864 0.16265154 1.1733671
0.19968802 0.1600156 1.1715835
0.20307423 0.16017136 1.172724
0.1175337 0.17067425 1.1791313
0.098220862 0.18981914 1.1784441
0.10448472 0.18954894 1.1767668
0.11411983 0.18958883 1.1770144
0.12453252 0.18804918 1.1759964
0.13633239 0.1876937 1.1752036
0.14599136 0.18937036 1.175658
0.15610491 0.1879434 1.1747576
0.045187846 0.19736615 1.1756496
0.056267925 0.19694099 1.1731175
0.065889016 0.19546889 1.1738498
0.075646423 0.19430965 1.1765277
0.085877717 0.19471513 1.1741376
0.0948456 0.19188499 1.176375
0.10431282 0.19243102 1.1748085
0.11383378 0.19231147 1.1740787
0.12470701 0.19183555 1.1711731
0.13264173 0.19178246 1.170849
0.14883058 0.19211194 1.1728605
0.15169385 0.19169629 1.1703229
-0.1456732 0.209254 1.179518
-0.13588837 0.2090137 1.1781636
-0.12599312 0.20856267 1.1756213
-0.11449929 0.20732711 1.1758941
-0.19493283 0.21272621 1.1765504
-0.18406081 0.21230489 1.1786331
-0.17401521 0.21179417 1.1757977
-0.16459924 0.21203104 1.1771126
-0.15480819 0.21178412 1.1757419
-0.1450246 0.21151762 1.1742624
-0.13527972 0.21126947 1.1728847
-0.12859859 0.21078698 1.1702062
0.079648279 0.094393544 1.1884679
0.085329711 0.093607545 1.188766
0.096703812 0.094352357 1.1879668
0.10538908 0.094268277 1.1869103
0.1149526 0.094166361 1.185625
0.12442712 0.094012298 1.1836594
0.13413012 0.094035923 1.1839796
0.14251691 0.094437681 1.1822804
0.15156081 0.09707351 1.1817151
0.087233767 0.10360336 1.1889842
0.095826291 0.10410411 1.1885334
0.10522304 0.10380082 1.1850718
0.11486115 0.10376666 1.1846687
0.12435661 0.1036179 1.1829845
0.13398488 0.10359469 1.182714
0.14506769 0.10346219 1.1812148
0.073257267 0.11392339 1.1897399
0.086167037 0.11386687 1.1891497
0.096762322 0.11382201 1.1886834
0.10560058 0.11474051 1.186018
0.11492448 0.11511227 1.1853244
0.12459181 0.11510025 1.1852098
0.13406938 0.11493018 1.1834762
0.14187279 0.114192 1.1813772
0.15622449 0.1162505 1.1804888
0.077218831 0.1251176 1.1884322
0.087219946 0.12407639 1.1887829
0.095395148 0.1234781 1.188188
0.10545512 0.12450123 1.1876812
0.11500328 0.12649427 1.1861455
0.12453376 0.12633699 1.1846701
0.1341601 0.12629229 1.1842585
0.14416234 0.12634119 1.1817108
0.1680201 0.12697136 1.1805897
-0.38620394 0.13969985 1.1886456
-0.37666699 0.13976307 1.1891835
-0.34209239 0.13952255 1.187137
-0.054369334 0.13910133 1.1835531
0.0084536383 0.1391547 1.1840072
0.011727732 0.1397692 1.1892357
0.076445557 0.1348844 1.1889756
0.088611752 0.13574013 1.1893851
0.095770694 0.13637289 1.1878439
0.10575546 0.1356744 1.1874138
0.11492741 0.13608684 1.1853642
0.12460949 0.13609028 1.1853989
0.13393348 0.13573028 1.1822573
0.14506529 0.13721636 1.181187
0.154677 0.13558021 1.1809416
-0.37640595 0.14501734 1.1858213
-0.3686125 0.14561167 1.1841033
-0.33345041 0.14638942 1.1851536
-0.067389935 0.14260954 1.1859391
0.016521974 0.14244977 1.1846104
0.02459411 0.1473726 1.1853476
0.07801038 0.14610931 1.1881509
0.086160474 0.14621821 1.1890363
0.096151374 0.1464425 1.1875738
0.10537602 0.14594144 1.1867831
0.11494794 0.14579192 1.1855742
0.12444062 0.14557488 1.1837999
0.1339003 0.14534537 1.1819479
0.14294095 0.14519635 1.1844869
0.15474294 0.14558905 1.1839408
-0.63450736 0.15313463 1.1841373
0.095657088 0.15558703 1.1864496
0.10527132 0.15547527 1.1855971
0.11471806 0.15516044 1.1832014
0.12439831 0.15518379 1.1833811
0.15651172 0.17608139 1.1867526
0.085933387 0.18617958 1.1859119
0.095744178 0.18643127 1.1875143
0.10525213 0.18448354 1.1854061
0.1148533 0.18435697 1.1845957
0.14388101 0.18490396 1.1846337
0.15510958 0.18416776 1.18566
0.043944519 0.19251978 1.1852036
0.05513696 0.1921805 1.1831213
0.066366449 0.19205633 1.1823567
0.075957216 0.19029282 1.1813848
0.08492326 0.19149186 1.1808505
0.091980852 0.1901805 1.1806875
-0.20555842 0.20922923 1.1854637
-0.18309784 0.20983332 1.1827836
-0.17482871 0.20957029 1.181301
-0.16506048 0.20893805 1.1850369
-0.15532261 0.2088546 1.1845655
-0.14511371 0.20753857 1.1880758
-0.13368259 0.2057436 1.1870618
-0.12400517 0.20576897 1.1872067
-0.1149463 0.20465742 1.1854453
-0.21536601 0.21151701 1.1832168
-0.20101213 0.21005167 1.1840143
-0.1946905 0.21018492 1.1847653
-0.18816189 0.21009628 1.1842659
0.0052948929 0.088685751 1.1987617
0.024860628 0.085389189 1.1982439
0.034606572 0.085297465 1.1969392
0.044291269 0.085125245 1.1945894
0.053965602 0.084994838 1.192745
0.063652463 0.084929042 1.1918287
0.024882518 0.096070856 1.199306
0.034654159 0.096827984 1.1985644
0.044373531 0.09505558 1.1967782
0.054127868 0.095022149 1.1963698
0.063816614 0.094903663 1.1948779
0.074674718 0.094805479 1.1936359
0.08693818 0.09523239 1.1908594
0.092803083 0.094611481 1.191242
-0.0028619482 0.10830934 1.1992872
0.01618154 0.10615163 1.1994994
0.024859531 0.10494986 1.1982124
0.034612976 0.10485666 1.1971278
0.044335622 0.10473789 1.1957768
0.053985257 0.1045127 1.1932225
0.063678212 0.10443281 1.1922859
0.074987791 0.10436364 1.1915125
0.084158532 0.10542174 1.1912565
0.015096291 0.11488044 1.1997347
0.025509337 0.11341204 1.1980349
0.034240518 0.11515757 1.1983708
0.044803549 0.11506374 1.1973926
0.054090083 0.1144792 1.1955376
0.063770622 0.11433232 1.1940175
0.075208738 0.11420663 1.1926929
0.086334653 0.11409117 1.191479
0.09279044 0.11405144 1.1910796
0.0085616503 0.12461555 1.1991352
0.015071374 0.12512763 1.1978394
0.024859795 0.12450842 1.1981281
0.034558482 0.12421445 1.1953053
0.044371236 0.12435475 1.196629
0.054520745 0.12429757 1.196084
0.063687839 0.12391999 1.1924621
0.073781699 0.12302983 1.1916891
0.084128998 0.1226719 1.1908374
0.099257655 0.12375663 1.1908835
0.10242917 0.12367244 1.1900734
-0.5198946 0.13759908 1.1985264
-0.4332768 0.13377984 1.1935554
-0.37076485 0.1399786 1.1910174
-0.34785256 0.13988972 1.1902611
-0.05016271 0.13760766 1.1986012
-0.043622755 0.13674149 1.1981649
-0.033827849 0.13620368 1.1977485
-0.024003703 0.13561861 1.1954718
-0.01425775 0.1357974 1.1970463
-0.0051447265 0.13635585 1.1990722
0.0061170403 0.13691446 1.1996729
0.01508148 0.13433139 1.1984793
0.02596413 0.13384335 1.1989725
0.034608047 0.1341626 1.1969624
0.04438594 0.13417619 1.1971051
0.054076683 0.13396715 1.1952314
0.063810572 0.13391609 1.1947702
0.074888147 0.13481981 1.1923084
0.085096292 0.13472603 1.1911469
0.09598358 0.13019466 1.1904769
0.10406104 0.13016626 1.1902173
-0.40405077 0.14028165 1.1935959
-0.39694926 0.14006734 1.1917725
-0.37472191 0.14512235 1.1932957
-0.36603534 0.14065424 1.1967661
-0.35582218 0.14047691 1.1952572
-0.33593398 0.1419493 1.1939763
-0.074331149 0.1435512 1.1937698
-0.064810164 0.14079654 1.1979768
-0.059678841 0.14023399 1.1931905
0.016660864 0.14041099 1.1946964
0.02563392 0.14384203 1.1962336
0.0345455 0.14368285 1.194867
0.044296604 0.14365923 1.1946722
0.053990655 0.1434989 1.1933365
0.063998692 0.14460786 1.1927414
0.073975965 0.14597443 1.1918502
0.086321965 0.1464929 1.1912745
0.092818923 0.14327165 1.1914452
-0.55266547 0.1534995 1.195335
-0.54746896 0.15665424 1.1946332
-0.53348488 0.15312858 1.1924466
-0.52377349 0.15638158 1.1925038
-0.37498 0.15009311 1.1941175
0.075518057 0.15514784 1.1913314
-0.54586083 0.16039516 1.1982406
0.15166676 0.1827608 1.1952111
-0.13509297 0.19975576 1.1995938
-0.12362263 0.19968544 1.1991715
-0.11864906 0.19955522 1.1983895
-0.21601103 0.20723683 1.1956789
-0.2059897 0.20665179 1.194185
-0.19630134 0.20704576 1.1945733
-0.18540062 0.20657103 1.1931729
-0.17504644 0.20690416 1.1937668
-0.16424318 0.20647478 1.1931555
-0.15397996 0.20534649 1.1941323
-0.14343366 0.20456001 1.1943059
-0.13469492 0.20242195 1.1960559
-0.12496573 0.20247889 1.1963924
-0.11507549 0.20227122 1.1951654
-0.072006412 0.076301493 1.2093253
-0.063717023 0.076229155 1.2081789
-0.052779056 0.086679965 1.2087259
-0.043571636 0.086494312 1.20804
-0.034075465 0.085976467 1.2065158
-0.02418456 0.08583428 1.2045178
-0.014334374 0.085747026 1.203289
-0.004503476 0.085633993 1.2017212
0.0053068502 0.083962277 1.2011973
0.015125647 0.085656643 1.2020488
0.024913428 0.085570499 1.2008307
-0.052538671 0.095962189 1.2082096
-0.043982875 0.094308339 1.2081037
-0.033031989 0.095424525 1.2083443
-0.024179203 0.095654167 1.2043158
-0.014345876 0.095643423 1.2042046
-0.0045103524 0.095597334 1.2036192
0.0053100782 0.095479541 1.2021099
0.015124474 0.095462672 1.2019268
0.024929462 0.094778731 1.2015656
0.034734048 0.092143387 1.2013034
-0.052750945 0.10525928 1.2080159
-0.044445816 0.10580137 1.2079397
-0.033639383 0.10577705 1.2076622
-0.024230052 0.10570814 1.2068692
-0.014358186 0.10555794 1.2051398
-0.0049721552 0.10436418 1.2021806
0.0053113708 0.10531058 1.2023224
0.014567716 0.10465062 1.201
0.024919957 0.10520091 1.2010646
-0.067067921 0.11579739 1.2093108
-0.052758187 0.1151438 1.208199
-0.044395335 0.11609218 1.2081001
-0.034111433 0.1156506 1.2077794
-0.024199603 0.11540951 1.205266
-0.014356325 0.11538763 1.2050446
-0.0045072478 0.11516676 1.2027111
0.0053103138 0.11510172 1.2020483
0.015133356 0.11515602 1.2025903
0.024103127 0.11664677 1.2011116
0.037976626 0.11168172 1.2004509
0.041242391 0.1116776 1.2004066
-0.073636897 0.12729388 1.2090937
-0.062123708 0.12565732 1.2091639
-0.053417802 0.12549403 1.2076279
-0.043914441 0.12534845 1.2062093
-0.034065209 0.12534226 1.2061656
-0.024193754 0.12522066 1.2049887
-0.01434052 0.12509249 1.2037321
-0.0045087696 0.12504295 1.2032598
0.0043742056 0.12488606 1.2017449
0.015108272 0.12395956 1.2006977
0.051048018 0.12475636 1.2005037
-0.52661818 0.13522588 1.2064565
-0.51987946 0.13846384 1.2060587
-0.44089216 0.13839914 1.2054952
-0.080252901 0.13557853 1.2096028
-0.072802857 0.13632424 1.2089137
-0.063681945 0.13698287 1.2074798
-0.054084323 0.13455117 1.2041278
-0.043802824 0.13289192 1.2031882
-0.033986934 0.13241926 1.2033477
-0.024140205 0.13148831 1.2023058
-0.014337055 0.13163722 1.2036675
-0.003687585 0.13233426 1.2025614
0.0046606772 0.13289401 1.2031931
0.015103466 0.13453147 1.2002589
0.022739306 0.13570487 1.2009945
-0.55441427 0.14625557 1.202646
-0.52605402 0.14820147 1.2051641
-0.33140817 0.14443363 1.2011082
-0.083309561 0.14422452 1.2062438
-0.076527499 0.14245602 1.2028279
-0.069897689 0.14119609 1.2013764
-0.5516293 0.15503743 1.2072985
-0.54845709 0.15460448 1.2039398
-0.53685349 0.15175271 1.207321
-0.52535295 0.15513609 1.2016941
-0.51737154 0.15839718 1.2078741
-0.15421966 0.19799152 1.208756
-0.1493793 0.19811736 1.2095242
-0.1359738 0.19694686 1.2074038
-0.12654468 0.19676943 1.2070583
-0.21465681 0.20252362 1.2063743
-0.20468919 0.20240377 1.2056611
-0.19464338 0.20219702 1.2044243
-0.18477431 0.20215988 1.2042066
-0.17505547 0.20228992 1.2049781
-0.1650444 0.20208052 1.2037309
-0.15514573 0.20198721 1.2031692
-0.14585321 0.20149155 1.2021666
-0.12446107 0.074638739 1.2180241
-0.093881533 0.075038202 1.2155206
-0.083784811 0.076539829 1.2130737
-0.074342787 0.076527871 1.2129124
-0.063892633 0.07644099 1.2115129
-0.055615675 0.079687454 1.2107614
-0.12404537 0.082466975 1.2193706
-0.114025 0.083524607 1.218688
-0.10399131 0.085110687 1.2176831
-0.093882978 0.085955501 1.2155648
-0.083824314 0.086485647 1.2136686
-0.073976606 0.086553134 1.2146282
-0.063958026 0.0864181 1.2127303
-0.056186061 0.085215174 1.2112496
-0.047364082 0.082961448 1.2104498
-0.13224748 0.096778497 1.2184957
-0.12399344 0.09459611 1.2188616
-0.1131946 0.093479425 1.218684
-0.10442183 0.094307818 1.2171901
-0.09336552 0.095555276 1.2149861
-0.083883457 0.096459694 1.2144911
-0.073869757 0.096334137 1.2128938
-0.063949518 0.09630879 1.2125918
-0.055635229 0.096200056 1.2112037
-0.044099253 0.099504732 1.2113115
-0.036421128 0.097342968 1.2117355
-0.11147931 0.10751574 1.2180598
-0.10407942 0.10542025 1.2187485
-0.094330609 0.10542719 1.2174436
-0.083923094 0.10642838 1.2150542
-0.073866315 0.1062322 1.2128413
-0.063993774 0.10628764 1.2134395
-0.056223255 0.10726055 1.2120327
-0.042432182 0.10605 1.2107586
-0.035833657 0.1060229 1.2104492
-0.11395167 0.11440771 1.2178782
-0.10344202 0.11557133 1.2168303
-0.093968987 0.11650639 1.216709
-0.083977103 0.11641827 1.2158152
-0.073845163 0.11610129 1.2124945
-0.063596927 0.11621686 1.2137182
-0.056222569 0.11715417 1.2120115
-0.040788174 0.11264811 1.2108384
-0.50586623 0.12922919 1.2118069
-0.12232228 0.1266503 1.2187362
-0.11510702 0.12219837 1.2184458
-0.10299249 0.12225088 1.2189658
-0.09391728 0.12636463 1.2159653
-0.083781257 0.12605388 1.2130029
-0.073779359 0.12457311 1.211419
-0.065203451 0.12588339 1.2113508
-0.057238359 0.12576967 1.2102547
-0.51944494 0.13592656 1.2127079
-0.35279563 0.13989484 1.2185231
-0.13402349 0.13005756 1.2195748
-0.12476276 0.13489081 1.2182678
-0.11342193 0.13467778 1.2193345
-0.093597777 0.13684769 1.2172345
-0.084242925 0.13603641 1.2136805
-0.074437551 0.13512155 1.2114239
-0.063926898 0.1325621 1.2121243
-0.55746329 0.14958833 1.216442
-0.5343951 0.14750484 1.2129312
-0.525006 0.14554012 1.2103097
-0.44589248 0.14222857 1.2101614
-0.55310643 0.15451279 1.2117445
-0.52618521 0.15530936 1.2145694
-0.24341409 0.17642108 1.2188342
-0.21483408 0.1984614 1.2166864
-0.20660661 0.19850655 1.2169666
-0.19504635 0.19771253 1.2171793
-0.14518586 0.19550849 1.2138084
-0.21215762 0.070907421 1.2299461
-0.20530856 0.070854351 1.2290256
-0.19525874 0.074194156 1.2289307
-0.18648644 0.072827779 1.2284254
-0.17445794 0.074062832 1.2267215
-0.16460295 0.073944785 1.2248046
-0.15449801 0.073894233 1.2239996
-0.14484201 0.07427229 1.2233326
-0.13537858 0.074318439 1.2218122
-0.19452111 0.085107386 1.229553
-0.18526791 0.085920975 1.2292194
-0.1756524 0.083264917 1.228822
-0.16451561 0.083697744 1.2272635
-0.15459009 0.083941169 1.2247202
-0.14457805 0.083933458 1.22463
-0.13437742 0.083805822 1.2227656
-0.12424879 0.084266864 1.2213708
-0.11418805 0.086967133 1.2204301
-0.10089216 0.080316573 1.2203202
-0.097574688 0.080319785 1.220369
-0.19318549 0.094231926 1.2285091
-0.18513799 0.094221234 1.2283664
-0.17559439 0.094221272 1.2284133
-0.1646679 0.094223 1.228411
-0.15471919 0.094017506 1.2257458
-0.14466305 0.093987815 1.2253312
-0.13476579 0.092779651 1.2219894
-0.12424959 0.093129992 1.221382
-0.11501224 0.094435662 1.220364
-0.1953436 0.10434254 1.2294687
-0.17193501 0.1043516 1.2295754
-0.16508423 0.10425077 1.2283978
-0.15485249 0.10411558 1.2267801
-0.14456308 0.10391821 1.2244996
-0.13438439 0.10378151 1.222842
-0.12438656 0.10377166 1.2227347
-0.11526493 0.10321277 1.2217854
-0.10425849 0.10361068 1.2208459
-0.19203287 0.11105543 1.229694
-0.18408793 0.11487536 1.2287811
-0.17501558 0.11421952 1.2277213
-0.1651617 0.11433499 1.2289655
-0.15464398 0.11397782 1.2251421
-0.14445379 0.11383212 1.2235583
-0.13436885 0.11375342 1.2227179
-0.1243055 0.11367975 1.2219197
-0.11757701 0.11360563 1.2211306
-0.18701991 0.12444773 1.2297413
-0.17527829 0.12442814 1.2295479
-0.16450305 0.12460524 1.2271711
-0.15484037 0.12414053 1.2267073
-0.14444731 0.12381551 1.2234961
-0.13428229 0.12365516 1.2219311
-0.12480596 0.12367949 1.2221674
-0.11364219 0.12406851 1.2205169
-0.10560622 0.12490059 1.2210726
-0.3925131 0.13102572 1.2286533
-0.38277677 0.13782032 1.2296035
-0.3528038 0.13632682 1.2262324
-0.18411157 0.13384403 1.2289474
-0.1758704 0.13373874 1.2290143
-0.16496241 0.13424222 1.2274806
-0.15477958 0.13410491 1.2262111
-0.14439619 0.1337605 1.2230725
-0.13435382 0.13536797 1.2225733
-0.12421697 0.13353817 1.2210493
-0.11431517 0.13362001 1.2217954
-0.10345283 0.13271646 1.2211313
-0.097547352 0.13342637 1.2200271
-0.52853125 0.14410533 1.2261299
-0.39732563 0.14098555 1.2280235
-0.38520473 0.14082932 1.2266629
-0.37568483 0.14101848 1.2283103
-0.36384833 0.14096408 1.2278365
-0.3575891 0.14047506 1.223577
-0.554901 0.15736112 1.2254063
-0.5304389 0.15203829 1.2228343
-0.52854139 0.1541198 1.2261534
-0.29554754 0.075265728 1.2387158
-0.28212756 0.075882748 1.2382926
-0.27474582 0.073797576 1.2383045
-0.26335347 0.073087007 1.2385061
-0.25379866 0.074687459 1.2371112
-0.24444087 0.074621305 1.2360035
-0.23503254 0.074948162 1.2358283
-0.22553809 0.074089825 1.2351375
-0.21645214 0.074853912 1.2329425
-0.20566198 0.076001637 1.2311337
-0.19552518 0.074295029 1.2306094
-0.18386227 0.07599321 1.2310059
-0.17873894 0.074278653 1.2303382
-0.28136891 0.081605583 1.2399052
-0.26429021 0.084913529 1.2389385
-0.25402442 0.084865101 1.2382098
-0.24407998 0.084776603 1.2369163
-0.23510098 0.084303111 1.2361777
-0.2258984 0.085006624 1.2341433
-0.21618541 0.084565893 1.2338285
-0.20601678 0.084524296 1.2332518
-0.19631052 0.083723024 1.2313379
-0.18559514 0.08305414 1.2313875
-0.1738043 0.087717235 1.2309566
-0.16882777 0.087743208 1.2313209
-0.30302387 0.09838742 1.238753
-0.29470003 0.098423555 1.2392079
-0.28356749 0.096212223 1.2396815
-0.27626038 0.098462492 1.2396982
-0.26220262 0.095006861 1.2386349
-0.25450784 0.094975159 1.2382246
-0.24379539 0.094366267 1.2376029
-0.23506635 0.095224254 1.2359957
-0.22605395 0.094727784 1.2349956
-0.21633881 0.094704315 1.2346997
-0.20576714 0.094479181 1.2317584
-0.19815266 0.094446301 1.2313238
-0.18543346 0.094369046 1.23032
-0.17375056 0.09438929 1.2305839
-0.16879418 0.094427027 1.2310759
-0.30155927 0.10352112 1.2396681
-0.29700205 0.10406305 1.2394255
-0.28345138 0.10572838 1.2391694
-0.27518675 0.10383756 1.2394222
-0.26467472 0.10471042 1.2387668
-0.25408515 0.10376059 1.2385076
-0.24375325 0.10405289 1.237395
-0.23404539 0.10500425 1.2372546
-0.22560582 0.1048532 1.2354996
-0.21638863 0.10481137 1.2349877
-0.20605803 0.10468612 1.2335005
-0.19574729 0.10455855 1.2320026
-0.18569624 0.10456321 1.2320638
-0.17596751 0.10451145 1.2314472
-0.31307095 0.11859149 1.2384906
-0.30409741 0.11837894 1.2362708
-0.29422525 0.11846855 1.2372067
-0.28393775 0.1159744 1.2393328
-0.27370805 0.1153228 1.2395967
-0.26600388 0.11527471 1.2390733
-0.25298774 0.11579701 1.2386343
-0.24467444 0.1145617 1.2386544
-0.23372567 0.11571603 1.2377851
-0.2248386 0.11450092 1.2352514
-0.21588138 0.11484817 1.2344869
-0.20606665 0.11476157 1.2335619
-0.19616163 0.11503214 1.2319678
-0.18778059 0.11341425 1.2310715
-0.16553998 0.11459622 1.2317784
-0.40424758 0.12875602 1.2389916
-0.39493805 0.12847044 1.2362434
-0.385324 0.12863073 1.2377858
-0.3753075 0.12866203 1.2380872
-0.36506516 0.12861493 1.2376339
-0.35447383 0.12843697 1.2359213
-0.34526449 0.12649415 1.2366866
-0.33768719 0.12845114 1.2360578
-0.32420176 0.12675872 1.2359178
-0.27385542 0.12631094 1.2386363
-0.26487505 0.12542681 1.2394221
-0.25472623 0.12541319 1.2392825
-0.24395035 0.1270093 1.2383969
-0.2337219 0.12526181 1.2377808
-0.22448613 0.12569223 1.2372741
-0.21544582 0.12508437 1.2360131
-0.20591804 0.12457751 1.2351816
-0.19582081 0.12472263 1.2324628
-0.18515542 0.12463988 1.2316532
-0.17549893 0.12458449 1.2310965
-0.16865474 0.12113199 1.2300588
-0.40429378 0.13495368 1.2339855
-0.39484087 0.13596392 1.2344434
-0.38535395 0.13367927 1.2338493
-0.37479669 0.13530795 1.234187
-0.3644343 0.13454096 1.2340759
-0.35692716 0.13398245 1.2327939
-0.33376825 0.13428022 1.2340226
-0.26315823 0.13492921 1.2389014
-0.25396082 0.13538067 1.2379051
-0.24401279 0.13547149 1.2387153
-0.2337939 0.13540828 1.2381561
-0.22415918 0.13511294 1.2354685
-0.21590251 0.13501827 1.2346117
-0.20581487 0.13473982 1.2320467
-0.1957541 0.1347419 1.2320515
-0.18772537 0.13571095 1.2307084
-0.17463179 0.13545218 1.2308966
-0.56778598 0.14224194 1.2389671
-0.53729498 0.14466791 1.2309166
-0.41500276 0.14131442 1.2308881
-0.39321271 0.14130926 1.2308432
-0.36956254 0.14123279 1.230177
-0.16868837 0.14124738 1.2303041
-0.5617708 0.15164484 1.2331653
-0.5575515 0.15691166 1.2349759
-0.53113222 0.15152168 1.2321638
-0.52549738 0.15519379 1.2346978
-0.5151915 0.15563241 1.2381873
-0.36170593 0.068622865 1.2492985
-0.38220641 0.078844003 1.2496223
-0.3757917 0.074705601 1.2486527
-0.36301899 0.075342536 1.2479643
-0.35411355 0.07525412 1.2465076
-0.3440555 0.075613491 1.2454121
-0.33574682 0.074674472 1.2449028
-0.32623881 0.075085677 1.2437128
-0.31575003 0.075005747 1.2423992
-0.3057918 0.075371549 1.2414367
-0.29164898 0.073208645 1.2405691
-0.28628886 0.074402943 1.2417207
-0.27310979 0.078281969 1.2407144
-0.26525384 0.076229982 1.2402958
-0.38217065 0.085638225 1.2495054
-0.37855569 0.085589811 1.248799
-0.36376819 0.085009061 1.2485946
-0.35437432 0.085496441 1.2474294
-0.34412616 0.085480563 1.247196
-0.33400151 0.085810281 1.2458384
-0.32548338 0.08481238 1.2445183
-0.31554759 0.085097149 1.2416042
-0.30584022 0.085216418 1.2433583
-0.2952984 0.085106373 1.2417105
-0.2855072 0.085505977 1.241393
-0.27503759 0.085110158 1.2417886
-0.38208809 0.095821768 1.2492355
-0.374722 0.095255032 1.2492404
-0.36484158 0.095755681 1.2483889
-0.35410285 0.09560661 1.246469
-0.34462681 0.095532246 1.2455047
-0.33486181 0.09510313 1.2443144
-0.3252708 0.095878914 1.243711
-0.31621316 0.095437296 1.244225
-0.30602607 0.094310381 1.2421442
-0.2952134 0.093526497 1.2413578
-0.28551728 0.094612025 1.2408261
-0.27455825 0.094284669 1.2418053
-0.26728648 0.095197089 1.2411107
-0.25289428 0.095183611 1.2409396
-0.24608639 0.095162541 1.240665
-0.37355965 0.10601184 1.2491379
-0.36521873 0.10605824 1.2496848
-0.35423791 0.10582664 1.2469412
-0.34368426 0.10571201 1.2455988
-0.33419356 0.10610602 1.2445253
-0.32609278 0.1052184 1.2447758
-0.3161962 0.10558835 1.2441516
-0.30644107 0.10587855 1.2418696
-0.29398069 0.10587712 1.2409081
-0.28716987 0.1041671 1.2406687
-0.27409023 0.10703802 1.24133
-0.26118365 0.10862905 1.2402033
-0.25445679 0.10695156 1.2403202
-0.24431476 0.10863307 1.2402492
-0.42980796 0.11965349 1.2495813
-0.38218737 0.11965146 1.2495601
-0.37529704 0.11962356 1.2492688
-0.36433354 0.1161136 1.2481024
-0.35446438 0.11608153 1.2477404
-0.34359971 0.11585417 1.245295
-0.33481687 0.11574546 1.2441418
-0.32620612 0.11569528 1.2435856
-0.31620264 0.11460672 1.2422841
-0.30532178 0.11378866 1.2412483
-0.295048 0.11373421 1.2406621
-0.285781 0.11458676 1.2407477
-0.27548671 0.11543262 1.2407706
-0.26327166 0.1154076 1.2405008
-0.25666377 0.11424633 1.2401103
-0.24375466 0.11636322 1.241697
-0.23609713 0.11549163 1.241403
-0.4315846 0.12767613 1.2448959
-0.41128829 0.12938005 1.2449964
-0.40524334 0.12621927 1.2472471
-0.3944875 0.12603655 1.2454413
-0.38396215 0.12591916 1.2442815
-0.37634939 0.12488268 1.2452439
-0.365123 0.12460633 1.2447356
-0.35535729 0.12428743 1.2449344
-0.34379756 0.12270263 1.2460083
-0.33458179 0.12565358 1.2453877
-0.32506686 0.12358686 1.2435408
-0.28152969 0.12217139 1.2406137
-0.27660674 0.12223409 1.2412503
-0.26288253 0.12551218 1.2402546
-0.25278088 0.12552312 1.2403772
-0.24433142 0.12214363 1.2403316
-0.4231956 0.13336346 1.2426519
-0.41597113 0.13358733 1.2421111
-0.23421231 0.13565172 1.2403754
-0.57102656 0.14644514 1.2460384
-0.56848592 0.14916983 1.2404944
-0.5356425 0.1494263 1.2426271
-0.53119218 0.15298884 1.2440946
-0.8334583 0.17688242 1.24544
-0.39469299 0.065944344 1.2537866
-0.41508079 0.075855158 1.2564766
-0.40439868 0.075776376 1.2551575
-0.39436918 0.07563208 1.2527614
-0.38634798 0.075101472 1.2520195
-0.37500143 0.076384246 1.2511169
-0.36891055 0.075506017 1.2506685
-0.4146882 0.086035311 1.2552886
-0.4041774 0.085979268 1.2544786
-0.39496326 0.085831985 1.2523249
-0.38667393 0.085787803 1.2516983
-0.37540007 0.085741386 1.251026
-0.36769804 0.086833321 1.2504028
-0.4146522 0.096275568 1.2551773
-0.40416145 0.096219167 1.2544279
-0.39471528 0.096174493 1.2538581
-0.38675135 0.095993176 1.2514889
-0.37685382 0.097064577 1.2506721
-0.41492504 0.10488433 1.2560047
-0.40408406 0.10643915 1.2541832
-0.39414436 0.10640675 1.2537887
-0.38510925 0.10681339 1.2535393
-0.3759647 0.10564266 1.2514831
-0.36555004 0.10615402 1.2508156
-0.43094438 0.11485626 1.2528853
-0.42504764 0.11463489 1.2556108
-0.41421163 0.11455926 1.2547827
-0.40398604 0.11665131 1.253884
-0.39431623 0.1165323 1.252591
-0.38634697 0.11599247 1.2520218
-0.37590003 0.11470689 1.2512693
-0.3687205 0.1162937 1.2500243
-0.43045753 0.12664479 1.2514699
-0.42528835 0.12469685 1.2563275
-0.41560447 0.12491305 1.2536354
-0.40370888 0.12339325 1.2530212
-0.39360976 0.12343507 1.2534459
-0.38453254 0.12325856 1.2516536
-0.37396309 0.12314393 1.2504895
-0.36892745 0.12316721 1.2507259
-0.42498028 0.13046317 1.255419
-0.5638656 0.15632495 1.2527339
-0.50335944 0.15719885 1.2506498
-0.49429625 0.15756707 1.2535793
-0.48744655 0.15810981 1.2578973
-0.47542763 0.15638706 1.2577977
-0.48342395 0.16076577 1.251919
-0.47542989 0.13633814 1.2623503
-0.4944618 0.14547324 1.2670976
-0.48532087 0.14531797 1.2657446
-0.47539249 0.14491375 1.2622483
-0.50607461 0.15395159 1.2659658
-0.49497232 0.15418993 1.2658955
-0.48510659 0.1555786 1.2651877
-0.47801074 0.15303621 1.2631159
