# .PCD v0.7 - Point Cloud Data file format
VERSION 0.7
FIELDS x y z
SIZE 4 4 4
TYPE F F F
COUNT 1 1 1
WIDTH 1429
HEIGHT 1
VIEWPOINT 0 0 0 1 0 0 0
POINTS 1429
DATA ascii
0.27586508 0.19306313 0.63459498
0.28415462 0.19282369 0.63640177
-0.35427991 0.20798849 0.63587058
-0.34463102 0.20769213 0.6364677
-0.33574995 0.20726013 0.63628274
-0.32468066 0.20654751 0.63447493
-0.31518739 0.20648675 0.634974
-0.30514085 0.20629774 0.63385695
-0.29527247 0.20605782 0.63361233
-0.28517047 0.20345482 0.6349774
-0.27397209 0.20315072 0.63388419
-0.2643716 0.20307849 0.63598269
-0.25449026 0.20256871 0.63477153
-0.24458306 0.20232855 0.63595486
-0.23533639 0.2025094 0.63743353
-0.22512369 0.20242594 0.63687032
-0.21816938 0.20390993 0.63934517
-0.20141843 0.20368627 0.63864386
-0.19510639 0.2034525 0.63791084
-0.18238257 0.20378011 0.63893807
-0.17546974 0.20363282 0.63847631
-0.16468596 0.2034 0.63774627
-0.15502071 0.20324908 0.63727307
-0.14570537 0.20252262 0.6363588
-0.1353424 0.2030866 0.63677537
-0.12485285 0.20247355 0.6364854
-0.11513074 0.20226283 0.63636011
-0.10495762 0.20199251 0.63580608
-0.094941676 0.20185965 0.63563859
-0.084661178 0.20210302 0.63640475
-0.074524626 0.20166515 0.63527256
-0.065147698 0.20197678 0.63575858
-0.055168815 0.20194338 0.63590002
-0.044520713 0.20242992 0.63680851
-0.034368925 0.20407036 0.63533664
-0.02491067 0.20649731 0.63659257
-0.015419751 0.20702282 0.63821262
-0.0052803871 0.20616195 0.63734758
0.0050515272 0.20404489 0.63490438
0.01580145 0.20231362 0.63652211
0.025248045 0.20118544 0.63441998
0.034954526 0.20072137 0.63295543
0.044879504 0.20075637 0.63420677
0.055929929 0.20029651 0.63782197
0.064913251 0.20045702 0.63392854
0.073793538 0.20027527 0.6361053
0.085434556 0.2003199 0.63899487
0.092288055 0.20009917 0.63829076
0.10536014 0.20017999 0.63854861
-0.44332084 0.2173214 0.63532615
-0.4348166 0.21947215 0.63705868
-0.42540702 0.21554315 0.63540798
-0.41671276 0.21681364 0.63484168
-0.40406457 0.21572545 0.63445354
-0.39578626 0.21362312 0.63564378
-0.38409105 0.21251485 0.63669187
-0.37396467 0.21171378 0.63354415
-0.36684579 0.2108824 0.63416314
-0.43185207 0.22109973 0.63542837
0.044836391 0.19979867 0.642914
0.055331014 0.19978295 0.64286339
0.076313727 0.1997474 0.64274901
0.084167406 0.1997027 0.64260513
0.095095769 0.19969505 0.64258057
0.10462499 0.19951889 0.64296019
0.11515538 0.1994953 0.64477724
0.12514077 0.1992919 0.64452219
0.13580862 0.1993084 0.6470027
0.14583598 0.19838376 0.6459133
0.15556057 0.19778951 0.64493412
0.16529354 0.19788748 0.64525044
0.17506622 0.19755015 0.64389074
0.18449329 0.1968805 0.64481848
0.19574291 0.19707441 0.64316994
0.20543675 0.19615968 0.64328361
0.21606283 0.19616136 0.64741832
0.22461094 0.1960209 0.64448231
0.23471664 0.19552058 0.64540434
0.24472165 0.19502364 0.64707613
0.25442901 0.19471627 0.64638352
0.26478609 0.19457364 0.64591187
0.27334872 0.19369975 0.64397693
0.28506303 0.19314273 0.64405906
0.29121101 0.19256704 0.64213926
-0.36363241 0.20890209 0.64583302
-0.35553113 0.20837137 0.6447894
-0.34575078 0.20775323 0.646366
-0.33524391 0.20668443 0.64530075
-0.32459551 0.20608337 0.64367223
-0.31423551 0.20586784 0.64329624
-0.30476496 0.20592424 0.64338505
-0.29530445 0.20463835 0.64439803
-0.28511047 0.20312154 0.64514518
-0.27531499 0.20302024 0.64483589
-0.26588774 0.20238221 0.64602143
-0.25623426 0.20224476 0.64626759
-0.24511522 0.202158 0.64742136
-0.23407245 0.20268308 0.64560699
-0.22414927 0.20272972 0.64529026
-0.21484554 0.20398943 0.64359999
-0.20571506 0.2040114 0.64394933
-0.1946926 0.2037712 0.64372015
-0.18569875 0.20394637 0.64289516
-0.1747897 0.20358044 0.64381623
-0.16452977 0.20333371 0.64395642
-0.15501761 0.20291322 0.64448488
-0.14342114 0.20329522 0.64529651
-0.13490239 0.2034255 0.64332843
-0.12586372 0.20284534 0.64565998
-0.11508384 0.20281567 0.64536715
-0.10540166 0.20276253 0.64678657
-0.094912432 0.20290339 0.64723599
-0.084506832 0.20301148 0.64852023
-0.07488253 0.20143235 0.64509672
-0.065626726 0.20207588 0.64685005
-0.054014906 0.2018234 0.64629501
-0.045482699 0.20230444 0.64720386
-0.035203945 0.2032446 0.64446658
-0.025266321 0.20633902 0.64570737
-0.015176137 0.20656998 0.64469934
-0.004550071 0.2054088 0.64484733
0.0051261801 0.20411162 0.64438385
0.014573028 0.20277213 0.64588904
0.025217941 0.20158537 0.64559221
0.035367064 0.20155251 0.64574122
0.044907339 0.20099664 0.6439566
0.053705271 0.20054254 0.64436996
0.065044299 0.20093702 0.64376622
0.07130006 0.20040643 0.64486963
0.085880384 0.20019665 0.6456176
0.094294205 0.20019627 0.64609021
0.10270812 0.2000358 0.64746821
0.1257048 0.20003977 0.64937699
-0.45149523 0.21823587 0.64830804
-0.44415647 0.21867254 0.64626044
-0.43416685 0.21422902 0.64505112
-0.42537642 0.2155004 0.6439417
-0.41577381 0.21716139 0.64469397
-0.40437433 0.21305859 0.64421666
-0.39719349 0.21328479 0.64491653
-0.38560936 0.21247017 0.64619911
-0.37543106 0.21160458 0.64399499
-0.36644676 0.21088567 0.6436578
-0.44643277 0.22056885 0.64481604
-0.41595292 0.22028248 0.64654076
0.087478392 0.19977321 0.65429258
0.09545698 0.19969925 0.65405035
0.10265295 0.1998475 0.65453595
0.11758607 0.19940349 0.6550402
0.12246855 0.19931313 0.65572125
0.13559948 0.1991141 0.65448302
0.14510944 0.19906235 0.65587872
0.15521696 0.19882403 0.65620518
0.16608433 0.19834578 0.65644807
0.175127 0.19823705 0.65658444
0.18493122 0.19751625 0.65508723
0.19654056 0.19753489 0.65425968
0.20518091 0.19726437 0.65484554
0.21463835 0.19606264 0.6537959
0.22527584 0.19609015 0.65220034
0.23571692 0.19560951 0.65303338
0.2461652 0.19537385 0.65627426
0.25448024 0.19514211 0.65754974
0.26538888 0.19562235 0.65830237
0.27535218 0.19434536 0.65642041
0.28554326 0.19411249 0.65600824
0.2936053 0.19317216 0.65380991
-0.37329859 0.20942414 0.65663451
-0.36448768 0.20843624 0.65434539
-0.35464242 0.20809169 0.65568125
-0.34651229 0.20818813 0.65837759
-0.33522138 0.20680375 0.65481019
-0.32445949 0.20665751 0.65605587
-0.31493673 0.20597671 0.65420943
-0.30493593 0.20485884 0.65430492
-0.29514885 0.20336914 0.65441513
-0.28523415 0.20281675 0.65551364
-0.27562982 0.2025868 0.65548205
-0.2645613 0.20209998 0.65510744
-0.25491357 0.20228991 0.65476477
-0.24462551 0.20263557 0.65698117
-0.23591319 0.20262134 0.65430439
-0.22437365 0.20273167 0.65235186
-0.21482657 0.20381613 0.65299076
-0.20530657 0.20383038 0.65329623
-0.1949254 0.20438319 0.65480745
-0.1847409 0.20448296 0.65486956
-0.17466898 0.20405853 0.65433902
-0.16536249 0.20371972 0.65299773
-0.15457034 0.20314978 0.65369719
-0.14530656 0.20361449 0.65305346
-0.13493627 0.20376649 0.65340036
-0.12491435 0.20266393 0.65213382
-0.11527295 0.20287685 0.65281892
-0.10405312 0.20278852 0.65336037
-0.095800214 0.20277433 0.65413916
-0.085294142 0.20275563 0.65459484
-0.074812427 0.20219295 0.65636683
-0.064166434 0.20252389 0.65579784
-0.05600721 0.20249324 0.65590525
-0.044984352 0.20226888 0.65497112
-0.035328038 0.20318171 0.65573132
-0.024753274 0.20545132 0.655379
-0.014939946 0.20629068 0.655209
-0.00513423 0.2048685 0.65541315
0.0053486214 0.2034246 0.65327793
0.014870675 0.2024474 0.65457898
0.025232786 0.20216511 0.65628552
0.034440741 0.20183989 0.65740389
0.045495484 0.20105517 0.65499556
0.055121478 0.20111851 0.65552276
0.06492582 0.2011835 0.65626317
0.075033918 0.20073375 0.65453178
0.084407054 0.20047051 0.65294909
0.094575934 0.2004717 0.65326345
0.10748066 0.20061556 0.65356773
0.11356292 0.20033459 0.65381235
0.12774402 0.20008187 0.65530348
-0.45599946 0.21787709 0.6552012
-0.44579089 0.21698163 0.65450573
-0.43360323 0.21694362 0.65684879
-0.42436466 0.21753201 0.65644723
-0.41649726 0.21703666 0.65652019
-0.4051694 0.21247946 0.65503961
-0.39580557 0.21331798 0.65544772
-0.38500801 0.21270563 0.656434
-0.37602645 0.21185893 0.65627038
-0.45179662 0.22231174 0.65686965
-0.42067736 0.22007412 0.65113068
0.11703402 0.19954531 0.66540921
0.12506178 0.19963181 0.66569769
0.13578653 0.19959803 0.66408747
0.14542845 0.19918951 0.66509074
0.15513201 0.19867638 0.66494101
0.16435817 0.19829829 0.66394699
0.17584133 0.19855504 0.66453767
0.18531036 0.19809142 0.66509938
0.19558601 0.19822513 0.66463894
0.20578638 0.19773786 0.66542143
0.21582413 0.19708762 0.66568321
0.22479792 0.19682978 0.66542214
0.23383059 0.19638622 0.66420156
0.24431846 0.19576523 0.66351545
0.25480124 0.19498062 0.66220796
0.26552653 0.1952471 0.663113
0.27421075 0.19493091 0.66667563
0.28487799 0.19495122 0.66828555
0.29533514 0.19374819 0.66603422
0.3015894 0.19317719 0.6663602
-0.38354805 0.20999356 0.66985261
-0.37525463 0.20900251 0.6641348
-0.36472458 0.20832892 0.66283035
-0.3552762 0.20728067 0.66642189
-0.3448236 0.20772107 0.66550136
-0.33520484 0.20737159 0.6643874
-0.32518673 0.20666866 0.66503191
-0.31533185 0.20593335 0.6652531
-0.30500469 0.20333007 0.66358411
-0.29494047 0.20312269 0.66330004
-0.28433913 0.2028629 0.66442317
-0.27491921 0.20221941 0.66454327
-0.26449409 0.20213687 0.66474503
-0.25559047 0.20212997 0.66424686
-0.24508598 0.20221961 0.66468787
-0.23426132 0.20318706 0.66400057
-0.22533438 0.20393355 0.6646989
-0.2146593 0.2042516 0.66501933
-0.20517787 0.20432805 0.66652262
-0.19509138 0.20470843 0.66601223
-0.18517372 0.20476352 0.66618979
-0.17487024 0.20455159 0.6666525
-0.16537553 0.20415814 0.66570061
-0.15557693 0.20413457 0.66562235
-0.14532913 0.2037463 0.66435695
-0.13521291 0.20418055 0.66550326
-0.12501752 0.20377205 0.66471004
-0.11502369 0.20371073 0.66397047
-0.10590135 0.2035367 0.66399539
-0.094634205 0.20302267 0.66257828
-0.085096255 0.2030196 0.66345358
-0.074704163 0.20253555 0.66333979
-0.064828426 0.20271489 0.66392708
-0.054321386 0.20244372 0.66527724
-0.044232294 0.20213713 0.66288656
-0.034698769 0.20299996 0.6655345
-0.024954457 0.20478785 0.66616428
-0.015501761 0.20564498 0.66545039
-0.0049640769 0.20457232 0.66570377
0.0042812191 0.20308518 0.66293085
0.015598342 0.20245065 0.66455209
0.025240477 0.20255351 0.66439342
0.03459841 0.20179038 0.66485965
0.044607591 0.20209968 0.66548532
0.054768465 0.2021338 0.66797829
0.064850323 0.20240405 0.6688714
0.074624106 0.20176417 0.66675681
0.085348666 0.20138177 0.66549319
0.094910249 0.20110764 0.66630793
0.10500694 0.20083727 0.66570014
0.11400254 0.20076071 0.66464537
0.12708381 0.20033026 0.6635198
0.13219433 0.20024192 0.66573131
-0.46268234 0.21859822 0.66829014
-0.45351526 0.21792468 0.66484678
-0.44355974 0.21544388 0.66417325
-0.43347988 0.2173306 0.6644274
-0.42477474 0.21668105 0.66660929
-0.4142088 0.21342291 0.66432488
-0.40570807 0.21337153 0.66640311
-0.39420184 0.21324013 0.66457099
-0.38591024 0.21223073 0.66545016
-0.46280137 0.22047262 0.66845846
-0.45692456 0.22033489 0.66257322
0.145551 0.19961278 0.67527938
0.15486436 0.19902305 0.67438853
0.16524544 0.19866797 0.67369831
0.17498706 0.19911717 0.67377651
0.18504605 0.19796418 0.67234099
0.19538052 0.19823684 0.67326701
0.20549957 0.19775885 0.67373568
0.21418741 0.19761142 0.67561537
0.22394386 0.19735414 0.67652267
0.23558995 0.19693597 0.67649513
0.24580145 0.19634563 0.67587638
0.25483793 0.19581442 0.67411667
0.26524734 0.19566044 0.67387509
0.27543589 0.19481699 0.67411488
0.28535095 0.19469316 0.67368644
0.2948063 0.19406454 0.67363852
0.30439711 0.19389664 0.67730898
-0.39127699 0.20873883 0.67612481
-0.38409218 0.20935853 0.67724264
-0.37551275 0.20887509 0.6750887
-0.36590758 0.2080728 0.67493308
-0.35453922 0.20750713 0.67362928
-0.34493536 0.20747013 0.67530382
-0.33464795 0.20676379 0.67419881
-0.32579714 0.20686655 0.6748665
-0.31383368 0.20398603 0.67546242
-0.30493695 0.20346914 0.67544097
-0.29537484 0.20321266 0.6745829
-0.28504407 0.20286655 0.67404908
-0.27460638 0.20273203 0.67375231
-0.26508167 0.20229843 0.67458987
-0.25472528 0.20259666 0.67329967
-0.24472375 0.20219563 0.67357856
-0.23516101 0.2035408 0.67567527
-0.22464986 0.20507891 0.67684871
-0.21515016 0.20482297 0.67514193
-0.20477054 0.20533386 0.67855334
-0.19488399 0.20508732 0.6747219
-0.18455282 0.20510393 0.67553085
-0.17499508 0.20486777 0.67615169
-0.16462456 0.20509057 0.67674398
-0.1545479 0.20455337 0.67699349
-0.14536233 0.20490697 0.67714262
-0.13522035 0.20488448 0.67706841
-0.12538861 0.20447563 0.6765908
-0.11509302 0.2042906 0.67612481
-0.10419185 0.20388658 0.67606175
-0.094394043 0.20366314 0.67506754
-0.085413463 0.2042409 0.67668808
-0.074750111 0.2036107 0.67563403
-0.065058753 0.20354645 0.67569959
-0.05578614 0.20281063 0.67477363
-0.045186464 0.20266092 0.67359
-0.034276839 0.20220648 0.67429578
-0.025611887 0.20385186 0.67588192
-0.015160639 0.20454654 0.67640722
-0.005816055 0.20388328 0.67550915
0.0048192614 0.20334272 0.67501897
0.014186377 0.20309053 0.67479223
0.02461719 0.20319135 0.67485845
0.035962887 0.20239007 0.67337388
0.044370688 0.2025883 0.67381608
0.055220939 0.20196961 0.67349333
0.065428413 0.20236671 0.6748175
0.07521271 0.20152882 0.67202348
0.085318319 0.20162861 0.67235625
0.095775098 0.20149449 0.67190903
0.10582471 0.20124231 0.67475885
0.1136743 0.20105135 0.67503679
0.12503776 0.20039928 0.67437756
0.13440301 0.20032294 0.67688781
0.14233744 0.20020817 0.67373437
-0.47125509 0.21573916 0.67933351
-0.46662024 0.21796677 0.6734972
-0.45174402 0.21744344 0.67506373
-0.44410157 0.21806082 0.67413378
-0.43511203 0.21741255 0.6759302
-0.42682096 0.21574251 0.67519766
-0.41455027 0.21307218 0.67383993
-0.40307671 0.21381959 0.67547458
-0.39504895 0.21234787 0.67445195
-0.38788074 0.21089794 0.67422307
0.14852968 0.19993745 0.68537813
0.15628341 0.19971779 0.68462515
0.16606396 0.19928789 0.68556297
0.17542696 0.19929144 0.68477136
0.18421677 0.19899943 0.68456662
0.1954062 0.1988173 0.68445534
0.20473987 0.19855691 0.68465197
0.2145004 0.19784467 0.68459141
0.22506413 0.19730568 0.68272638
0.23425582 0.19721997 0.68242979
0.24366227 0.19695577 0.68368149
0.25512415 0.19641764 0.68611515
0.26550019 0.19649014 0.68636841
0.27484211 0.19564699 0.68560582
0.28532648 0.19550221 0.68553728
0.2955735 0.19529179 0.68463403
0.30452102 0.19389835 0.68381619
-0.39570686 0.20904079 0.68587488
-0.38408902 0.20973647 0.68449724
-0.37517792 0.20848191 0.6866504
-0.36554873 0.2079464 0.6854375
-0.35524973 0.20785479 0.683819
-0.34480798 0.20680448 0.68342406
-0.33498597 0.20640406 0.6854679
-0.32530415 0.20610504 0.6854372
-0.31590015 0.20426318 0.68470758
-0.30477241 0.20311721 0.68632573
-0.29502973 0.20271356 0.68531668
-0.2851612 0.20289777 0.68558413
-0.27509061 0.20253104 0.68498558
-0.26568082 0.20243263 0.68401217
-0.25595391 0.20249149 0.68456316
-0.24454996 0.20264001 0.68535608
-0.23452127 0.20402929 0.68570262
-0.2256199 0.20481181 0.682971
-0.215287 0.20470862 0.68262696
-0.20555341 0.205191 0.68423539
-0.19543849 0.20544782 0.68421018
-0.1844075 0.20518398 0.68525505
-0.17444882 0.20475358 0.68277687
-0.16417949 0.2046856 0.68255013
-0.15587226 0.20475635 0.68278617
-0.14570707 0.20483971 0.6830641
-0.13453145 0.20469712 0.68415374
-0.12424141 0.20469517 0.68258208
-0.11411499 0.20419393 0.68091065
-0.10527235 0.20464268 0.68616211
-0.095309027 0.20450434 0.68507451
-0.084443673 0.20442373 0.68376422
-0.075492337 0.20413566 0.6869511
-0.065142535 0.20392925 0.68625653
-0.054748137 0.20346592 0.68469727
-0.045435738 0.20256004 0.68479341
-0.035041727 0.20137618 0.68346393
-0.02445819 0.20265496 0.68459696
-0.014684624 0.20258462 0.6848712
-0.0044277958 0.20234314 0.68405807
0.0048894812 0.20225552 0.68462622
0.014482556 0.20336702 0.68526578
0.025474522 0.20415393 0.68701243
0.034780283 0.2030756 0.68618876
0.045362227 0.20327783 0.68616796
0.055298906 0.20287311 0.6858533
0.065186024 0.20305859 0.68584937
0.075285636 0.20290609 0.6851787
0.085006535 0.20249978 0.68459207
0.094831891 0.20258531 0.68459517
0.10381499 0.20147759 0.68270129
0.11460184 0.20118879 0.68329269
0.12466876 0.20092869 0.68240929
0.13798627 0.2006727 0.68631148
0.14330751 0.20063917 0.68566626
0.15240392 0.20012547 0.68602264
0.1768955 0.20037352 0.6868729
-0.45546156 0.21884459 0.68617165
-0.44491047 0.2182471 0.6848042
-0.4343057 0.21397527 0.68414235
-0.42538419 0.2144126 0.68480098
-0.41546124 0.21439831 0.68645436
-0.40480751 0.21312319 0.68579489
-0.39952487 0.21136953 0.68314826
-0.38781577 0.21029854 0.68876487
-0.034792513 0.19932279 0.69568509
-0.027358567 0.19889611 0.69920707
-0.0083178058 0.19989489 0.69826174
0.00118382 0.19977234 0.69783366
0.15902579 0.19953896 0.69045407
0.16280995 0.19956945 0.69055957
0.17320147 0.19963236 0.69077724
0.18635312 0.19970135 0.69430208
0.19536817 0.19956446 0.6949178
0.20478769 0.19874212 0.69589794
0.21548124 0.19834663 0.69451588
0.22467773 0.19835012 0.69397342
0.23487237 0.19808322 0.69525325
0.24521594 0.1978091 0.69459271
0.25486743 0.19651102 0.69303024
0.26509595 0.19631374 0.69345248
0.27444547 0.19654162 0.69481403
0.28353739 0.19594398 0.69549483
0.29510418 0.19601998 0.69608748
0.30558872 0.19516899 0.69593585
0.31329906 0.19443411 0.69622129
-0.40396482 0.20952675 0.69450659
-0.39348865 0.20903756 0.69550908
-0.38455021 0.20942593 0.69416797
-0.37383494 0.20765369 0.69625157
-0.36473599 0.20769599 0.69540292
-0.35489941 0.20718777 0.69405192
-0.34542778 0.20665281 0.69304818
-0.33350602 0.2058081 0.69532591
-0.32534131 0.20493427 0.69344789
-0.31453371 0.20359153 0.69252795
-0.30508834 0.20326333 0.69677913
-0.29473183 0.20319067 0.69545627
-0.28390804 0.20238809 0.69523668
-0.27498251 0.20248652 0.69737852
-0.26532713 0.20243452 0.69611168
-0.2549521 0.20335737 0.69710147
-0.24484324 0.20362598 0.69802231
-0.23456278 0.2040296 0.69294077
-0.22529201 0.20564516 0.69459039
-0.21520533 0.20588455 0.69574583
-0.20412906 0.20607677 0.69633073
-0.19511934 0.20567551 0.69497287
-0.18500325 0.20571491 0.6950022
-0.17524938 0.20565847 0.69498479
-0.16476512 0.20549369 0.69500697
-0.15428087 0.20531377 0.693753
-0.14490485 0.2055448 0.69459736
-0.13555622 0.20544522 0.69535255
-0.12492496 0.20530236 0.69435918
-0.11464022 0.20551991 0.69451553
-0.10478865 0.20524734 0.69525111
-0.095711827 0.20523289 0.69463271
-0.085300371 0.20499699 0.69409829
-0.074308753 0.20415349 0.69336152
-0.064805031 0.20393863 0.69263184
-0.055292197 0.20360766 0.69150776
-0.044219252 0.20231146 0.69496804
-0.034208998 0.20078534 0.69316208
-0.024837848 0.20107147 0.69522905
-0.015077285 0.20107035 0.69446391
-0.0041968604 0.20080593 0.69385201
0.0047725132 0.20122512 0.69434154
0.014070382 0.20360801 0.69366074
0.024722598 0.20383321 0.6922738
0.035298385 0.2036272 0.69641697
0.044440489 0.20351359 0.69118828
0.055396244 0.20387135 0.69886339
0.064902388 0.20371659 0.69741273
0.075057559 0.20377584 0.69595557
0.084474191 0.20289372 0.69552404
0.094160661 0.202898 0.69715732
0.10577746 0.20217226 0.69593823
0.11427413 0.20193492 0.69512331
0.12542607 0.20216177 0.69517773
0.13437846 0.2017199 0.69583076
0.14498685 0.20091991 0.69523251
0.1541492 0.2005275 0.69387466
0.16304597 0.20028976 0.69964105
0.17451535 0.2002185 0.69610107
0.18330757 0.20023493 0.69944954
-0.46215254 0.21816233 0.69712669
-0.45347705 0.21743374 0.69524783
-0.44588119 0.21555685 0.69424129
-0.43490681 0.21449552 0.69563001
-0.42409426 0.21375488 0.69558787
-0.41547236 0.21425514 0.69497466
-0.40695548 0.21259634 0.69423783
-0.39483175 0.21061325 0.69351465
-0.035675228 0.19798319 0.70625323
-0.024807986 0.19791481 0.70582056
-0.015395867 0.19861703 0.70531315
-0.0045595588 0.19889075 0.70482236
0.0027302238 0.19904761 0.70469016
0.17959833 0.19985279 0.70481563
0.18129176 0.1996052 0.70394242
0.19840121 0.19947359 0.70347822
0.20482086 0.19888686 0.70140904
0.2134504 0.19862673 0.70049167
0.22557516 0.1988423 0.7046532
0.23432536 0.19879396 0.70787615
0.24487105 0.19875406 0.70773399
0.25608855 0.19789959 0.70567292
0.26451409 0.19677162 0.70448142
0.27513629 0.19699311 0.70520562
0.28564084 0.19604516 0.70377624
0.29429245 0.19627814 0.70461428
0.30456042 0.19557934 0.70324486
0.31682867 0.19532531 0.7092728
0.32109216 0.19498284 0.70802915
-0.39465073 0.20939744 0.70465779
-0.38445801 0.20852344 0.70495504
-0.37450674 0.20754875 0.70583028
-0.36477014 0.20798829 0.70769721
-0.35578763 0.20739909 0.70625597
-0.34489098 0.20646682 0.70448542
-0.33502346 0.20556316 0.70321798
-0.32520148 0.20422509 0.70336848
-0.31560299 0.20343876 0.70330238
-0.30403715 0.20329426 0.70535797
-0.29474142 0.20290089 0.70505601
-0.28545246 0.20231377 0.70448899
-0.27508247 0.20251033 0.70739782
-0.26384342 0.20272446 0.7056483
-0.25584599 0.20291322 0.70403516
-0.24453488 0.20385371 0.70538414
-0.23453823 0.20542863 0.70420164
-0.22491674 0.20658468 0.70707607
-0.21140215 0.20654301 0.70584458
-0.2057545 0.20666663 0.70735598
-0.19440898 0.20620006 0.70575714
-0.18638101 0.20630758 0.70534766
-0.17412999 0.20650576 0.70789403
-0.16428179 0.20624076 0.70698565
-0.15539639 0.2062681 0.7059902
-0.14521182 0.20647708 0.70779574
-0.13625354 0.20677826 0.70882821
-0.12492098 0.20638573 0.7074827
-0.11454564 0.20677038 0.70880121
-0.10440221 0.20579043 0.70544195
-0.09500622 0.20623426 0.70696348
-0.085385919 0.20622818 0.7069425
-0.074635625 0.20545629 0.70540041
-0.064883731 0.20528674 0.70371526
-0.053968124 0.2045916 0.70426738
-0.044406418 0.20195833 0.70547938
-0.023580341 0.20039435 0.70000643
-0.014073497 0.20065984 0.70093381
-0.0045292848 0.20044452 0.70018166
0.0073393858 0.20101631 0.70487231
0.014823894 0.20393857 0.704216
0.024689529 0.20434693 0.70349103
0.034998056 0.20412478 0.70467371
0.045303915 0.20459481 0.70464569
0.054255664 0.20394385 0.70459628
0.064469732 0.20359986 0.70450574
0.075065456 0.20421825 0.70499313
0.084429801 0.20319207 0.70309466
0.094958983 0.20274541 0.70322073
0.1039768 0.202687 0.70357132
0.1146775 0.20281003 0.70678025
0.1230076 0.20272253 0.70481014
0.13583088 0.20287751 0.70868051
0.14527225 0.20205557 0.70580935
0.15431494 0.20131491 0.7032221
0.16530401 0.2009028 0.70477849
0.1754884 0.20081584 0.70568925
0.18653576 0.20009239 0.70566058
0.19335631 0.20072077 0.70402968
-0.46444842 0.21796548 0.70369321
-0.45373425 0.21505852 0.7052654
-0.4453226 0.21400143 0.70629126
-0.43613356 0.21469501 0.70475024
-0.42455047 0.21269816 0.70463258
-0.4137539 0.21283609 0.70548409
-0.40423083 0.21073543 0.70486665
-0.39416182 0.21043813 0.70173275
-0.38705266 0.21020703 0.70096207
-0.041496396 0.19932401 0.71322513
-0.034304187 0.19686949 0.71701807
-0.025086336 0.19647536 0.71582067
-0.013930369 0.19693959 0.71624321
-0.0051141419 0.19741511 0.7151171
0.0037120904 0.19827034 0.7139321
0.20517692 0.19976664 0.71714205
0.21519196 0.1997579 0.71409363
0.2265214 0.19932704 0.7167204
0.23461123 0.19874649 0.71463299
0.24485104 0.19837652 0.71330273
0.25500807 0.19796889 0.71183693
0.26570806 0.19750585 0.7171908
0.27547356 0.19750762 0.71719736
0.28482431 0.19645153 0.71454805
0.2945568 0.19656515 0.71377498
0.30501086 0.19639285 0.71551949
0.31398374 0.19571219 0.7159968
0.32253534 0.19509506 0.71550816
-0.40202278 0.20929667 0.71746123
-0.39654788 0.20912251 0.71465343
-0.38463798 0.20786962 0.71481007
-0.37477827 0.20766906 0.71439028
-0.36522624 0.20774655 0.7161755
-0.35561901 0.20723201 0.71420556
-0.34455669 0.20616929 0.71640521
-0.33543423 0.2041872 0.71497256
-0.32506117 0.20399831 0.71515214
-0.31499013 0.20358101 0.71568197
-0.30548182 0.20327683 0.71432638
-0.29368341 0.20269543 0.7148518
-0.28564551 0.20195946 0.71454763
-0.27556765 0.20235454 0.71363848
-0.264651 0.20217386 0.71300119
-0.25485608 0.20365572 0.71549028
-0.24712712 0.20487607 0.7156617
-0.23489398 0.20594066 0.71357417
-0.22444148 0.20655623 0.71473551
-0.21579 0.20691866 0.71348149
-0.2050312 0.20658903 0.714849
-0.19494541 0.20622452 0.7135877
-0.18412033 0.20680459 0.71463943
-0.17397396 0.20668712 0.71518844
-0.16402501 0.20641711 0.71425408
-0.15453389 0.20672444 0.71531755
-0.14462245 0.20646548 0.71442145
-0.13500807 0.20695291 0.71499312
-0.12500265 0.20618181 0.71344006
-0.11559953 0.20672707 0.71532673
-0.10543539 0.20588386 0.71240902
-0.094885074 0.2061314 0.71326554
-0.084301315 0.20635736 0.71404743
-0.075395264 0.20591751 0.71252543
-0.064588569 0.2054797 0.71101046
-0.055283826 0.20532107 0.71586603
-0.045897689 0.20204912 0.71532732
0.00803803 0.20105621 0.71593165
0.01449905 0.2038354 0.71429247
0.024626195 0.20515399 0.71663254
0.034430914 0.20548891 0.71780246
0.04422354 0.2056222 0.7182681
0.054864459 0.20518947 0.71675652
0.065478705 0.20484722 0.71556097
0.075237535 0.20489775 0.7157374
0.085490659 0.20423935 0.71457851
0.095528871 0.20358007 0.71454781
0.10473684 0.20351501 0.71469861
0.11523283 0.20288174 0.71354973
0.12512475 0.2030632 0.71386504
0.13511857 0.20299691 0.71476716
0.14500673 0.20244403 0.71395415
0.15456578 0.2019116 0.71322775
0.16509891 0.20207083 0.71678048
0.17476356 0.20176286 0.71844786
0.18458293 0.2012722 0.71670079
0.19588314 0.20087545 0.71703148
0.20400073 0.20023289 0.71299994
0.21066615 0.20001474 0.71919328
0.22150609 0.20008133 0.71943271
-0.46503717 0.2169545 0.71422589
-0.45585001 0.21466175 0.71259183
-0.4444243 0.21400376 0.71455598
-0.43628824 0.21424992 0.71282834
-0.42507499 0.2143067 0.71572614
-0.4164449 0.21186531 0.71625197
-0.40635669 0.21143508 0.71479654
-0.39554462 0.21040177 0.71458244
-0.014559686 0.19577371 0.72523624
0.22822224 0.19971699 0.72521996
0.23502658 0.19962978 0.72490329
0.24523921 0.19911046 0.72301757
0.25583738 0.19895867 0.72516966
0.26400387 0.19805597 0.72456908
0.27533951 0.1975579 0.72454065
0.28471816 0.19668448 0.72133732
0.29581159 0.19674851 0.72157216
0.30496284 0.19650862 0.72311687
0.31554452 0.19668004 0.72859377
0.32507545 0.1964483 0.72773522
-0.40141177 0.20921241 0.72804785
-0.39345288 0.20839791 0.72567284
-0.38602024 0.20728526 0.72410393
-0.37582737 0.20793767 0.72406512
-0.36534604 0.20782398 0.72511375
-0.35435855 0.20647123 0.722615
-0.34569824 0.20565103 0.72790122
-0.33283508 0.20434111 0.72413766
-0.32365674 0.20345688 0.72565722
-0.31399068 0.20317844 0.72613794
-0.30506206 0.20290615 0.72604978
-0.29610321 0.20252596 0.72508109
-0.284491 0.20208062 0.72397643
-0.2761679 0.2027304 0.72542202
-0.26563632 0.2029797 0.72534829
-0.25518474 0.20479392 0.72748911
-0.24395622 0.20610006 0.72454226
-0.23415934 0.20679142 0.72543031
-0.22498187 0.20780174 0.72588152
-0.21498935 0.20769569 0.72551101
-0.20465247 0.20722175 0.7238555
-0.19504353 0.20748302 0.72476816
-0.1844852 0.20780924 0.72590768
-0.173968 0.20750344 0.72599483
-0.16544855 0.2070391 0.72581714
-0.15464902 0.20753971 0.72496623
-0.14476195 0.20751505 0.7248801
-0.13528423 0.20809653 0.72691125
-0.12539776 0.20707864 0.72533637
-0.11539705 0.20791367 0.72627252
-0.10551571 0.20680326 0.72437507
-0.094313152 0.20695803 0.72491682
-0.08423461 0.20712434 0.72549462
-0.07473015 0.20653807 0.72492677
-0.065290727 0.20625325 0.72354192
-0.055639181 0.2053275 0.72413522
-0.046851538 0.20254897 0.72408408
0.0091156662 0.20147014 0.72442645
0.014465378 0.20403706 0.72455812
0.024914544 0.20559596 0.72506988
0.034798507 0.20567946 0.72536439
0.04458788 0.20535576 0.72422278
0.054319918 0.20485902 0.72247094
0.064272664 0.20526798 0.72391319
0.074939102 0.20479868 0.72225821
0.084828243 0.20493978 0.72275579
0.097451277 0.2046929 0.72888136
0.1043722 0.2046513 0.72873318
0.11493003 0.20402865 0.72651613
0.12492484 0.20419936 0.72712386
0.1348072 0.20418847 0.72708511
0.14521347 0.20351486 0.7246865
0.15506329 0.20283538 0.72462416
0.16389693 0.20253661 0.72590637
0.17552483 0.20195007 0.72497725
0.18449104 0.20135584 0.72401547
0.1942737 0.20088065 0.72373503
0.20565747 0.20081241 0.72919768
0.21656927 0.2008093 0.72918648
0.22437358 0.20069003 0.72875333
-0.43406814 0.21405819 0.72588629
-0.42551598 0.21265194 0.7246812
-0.41525814 0.21145339 0.72351515
-0.40740341 0.21109067 0.72532654
-0.3984797 0.21011014 0.72703296
0.21879458 0.19995052 0.73331547
0.2335819 0.19979525 0.73274606
0.24684668 0.19923533 0.73069251
0.25536594 0.19944543 0.73515546
0.2651442 0.19903962 0.73733473
0.27479771 0.19876234 0.73630762
0.2859295 0.1977625 0.73366839
0.29518119 0.19732088 0.73468834
0.30507389 0.19728614 0.73497635
0.31464255 0.19698825 0.73610514
0.32521018 0.19633879 0.73473758
0.3316704 0.19602424 0.73356056
-0.42236081 0.20941029 0.73676777
-0.41705093 0.20925847 0.73272359
-0.40601689 0.2090048 0.73592329
-0.39561152 0.20832388 0.73705184
-0.38566551 0.20764908 0.73466885
-0.37404427 0.20819324 0.73625821
-0.36565545 0.20756826 0.73607087
-0.35568872 0.20643537 0.7320531
-0.34536046 0.20446584 0.73400521
-0.33612329 0.20437908 0.73345536
-0.32540393 0.20337933 0.7343868
-0.31409228 0.20325321 0.7356534
-0.30510139 0.20326149 0.73809093
-0.29514822 0.20263396 0.73581219
-0.28483585 0.20242529 0.73505443
-0.27530393 0.20276742 0.73629683
-0.26502442 0.20356378 0.73556685
-0.25474542 0.20536022 0.73481917
-0.24531005 0.20683444 0.73650706
-0.23475428 0.20750523 0.73605859
-0.22404511 0.20770498 0.73250771
-0.21496731 0.20760214 0.73214501
-0.20494056 0.20754483 0.73194289
-0.19401112 0.20757142 0.73203671
-0.18420242 0.20774285 0.73264128
-0.17472678 0.20754066 0.73476702
-0.16487844 0.20770369 0.7353428
-0.15508407 0.20746888 0.73167509
-0.14527951 0.20769058 0.73245692
-0.13447204 0.20791839 0.73326033
-0.1224465 0.20784798 0.73301208
-0.11436322 0.20764735 0.73230451
-0.10479356 0.20761347 0.73502427
-0.094471596 0.20726663 0.73273593
-0.084691897 0.20743966 0.73441106
-0.075135961 0.20741339 0.7385686
-0.06425605 0.20656165 0.73672891
-0.055237282 0.20539051 0.73533481
0.015928412 0.20491886 0.73564196
0.025254762 0.20641413 0.73501039
0.035323493 0.20678262 0.73632252
0.045264836 0.20647798 0.73523778
0.055160221 0.20603049 0.73364431
0.065347709 0.20669501 0.73601055
0.074989781 0.20559472 0.73477793
0.085560635 0.20576178 0.73537362
0.094700016 0.20554888 0.73640352
0.10520693 0.20503902 0.73457551
0.11511296 0.20413361 0.73400348
0.12517774 0.20424445 0.73440194
0.13526125 0.20438793 0.734918
0.14475997 0.20368336 0.7323845
0.15507959 0.20332585 0.73398918
0.16564265 0.20285046 0.73659843
0.17511748 0.20221765 0.73430055
0.18532833 0.20245245 0.73515302
0.19511881 0.20148256 0.73436671
0.20477313 0.20088294 0.73673511
0.21383832 0.2005672 0.73411942
0.22517438 0.20061417 0.73366624
0.23887686 0.20005396 0.73369485
0.24197631 0.20014049 0.73401225
-0.42604357 0.21081023 0.73360711
-0.41385695 0.21090187 0.73236489
0.25649792 0.19988786 0.74424869
0.26458338 0.19946229 0.74517012
0.27451581 0.19873238 0.7436949
0.28426307 0.19847356 0.74272627
0.29724699 0.19769053 0.74740863
0.30516231 0.19754462 0.74685693
0.31433365 0.19756076 0.7469179
0.325409 0.19694211 0.74568152
0.33556408 0.19636713 0.74570262
-0.41634434 0.20866576 0.74302804
-0.40406495 0.20823464 0.74356228
-0.39530289 0.20779338 0.74595201
-0.38364699 0.20816723 0.74436599
-0.37530968 0.20774548 0.74388492
-0.36377597 0.20674054 0.74582183
-0.35511661 0.20549396 0.74540067
-0.34485719 0.20438612 0.74587107
-0.33498403 0.20393689 0.74423689
-0.32515103 0.20332821 0.74359018
-0.31518024 0.20290476 0.74291754
-0.30470726 0.20259456 0.74450988
-0.29528368 0.20245418 0.74374503
-0.28471205 0.20207089 0.7438969
-0.27543887 0.20234017 0.74207944
-0.26496133 0.2037546 0.74479932
-0.25601229 0.20598124 0.74429941
-0.2454019 0.20745181 0.74593467
-0.23447978 0.20841324 0.74454516
-0.22361901 0.20864113 0.74439383
-0.21485904 0.20840363 0.74209476
-0.20507558 0.20872712 0.74324667
-0.19367495 0.20832297 0.7438786
-0.18487883 0.2087667 0.74338752
-0.1757156 0.2081484 0.74601948
-0.1648539 0.20832749 0.74545223
-0.15426853 0.20852929 0.74375314
-0.14472972 0.20921981 0.74500096
-0.13426612 0.20856886 0.74510372
-0.12577677 0.20872392 0.74427348
-0.11386637 0.20834726 0.7443108
-0.10497236 0.20826446 0.74341416
-0.094858013 0.20825593 0.74467391
-0.085498482 0.20816164 0.74576551
-0.074929282 0.20761402 0.74651796
-0.065606974 0.20665379 0.74453223
0.02549915 0.20639756 0.74214405
0.035703477 0.20699716 0.74429995
0.045818299 0.2069608 0.74416924
0.055812635 0.20645486 0.74234992
0.065994792 0.20671146 0.7432726
0.075440362 0.20607817 0.74343979
0.083595954 0.20600687 0.74513191
0.096122213 0.20639139 0.74945641
0.10514448 0.2060896 0.74836046
0.11500479 0.20551367 0.74626917
0.12519853 0.20556617 0.74645978
0.13552658 0.20583224 0.74742597
0.14588654 0.20455295 0.74607021
0.1548311 0.20392035 0.74458599
0.16546851 0.20309363 0.74484271
0.17506836 0.20247865 0.74258733
0.18516517 0.20245881 0.74251467
0.19209047 0.20230648 0.74195588
0.20523377 0.20229296 0.74938667
0.21826801 0.2020883 0.74862844
0.22476955 0.20152152 0.7465288
0.2351049 0.20081028 0.7438941
0.24600585 0.20061691 0.74317783
0.25383073 0.20018011 0.74533826
-0.41653657 0.21027367 0.74156666
-0.51591343 0.22148864 0.74421477
-0.49338013 0.19792455 0.75412709
-0.48601758 0.19864774 0.75492346
0.2744045 0.19956867 0.75450933
0.28580654 0.19913016 0.7548039
0.29394269 0.19804941 0.75459886
0.30508724 0.19743656 0.75420922
0.31566635 0.19763719 0.7549755
0.32537037 0.19729447 0.75366646
0.33346528 0.19661981 0.75108922
0.34131646 0.19615299 0.75717831
-0.46667615 0.2019574 0.75576353
-0.42544124 0.20963082 0.75376976
-0.41476548 0.20890933 0.75488043
-0.40456566 0.20798226 0.75311267
-0.39359456 0.20825903 0.7550022
-0.38622281 0.20827031 0.75331151
-0.37486145 0.20694287 0.75521046
-0.36505121 0.20652735 0.75620401
-0.35344255 0.20484111 0.75630474
-0.34517199 0.20453684 0.75769895
-0.33445102 0.203659 0.7544471
-0.3253549 0.20305191 0.75547659
-0.31502748 0.20311247 0.7552889
-0.30539453 0.20259908 0.75433826
-0.29552275 0.20250013 0.75439447
-0.28514448 0.20248967 0.75556886
-0.27517211 0.20386128 0.75519645
-0.26556879 0.20478994 0.75610942
-0.25547439 0.20705976 0.75604552
-0.24502909 0.20856236 0.7573396
-0.23389117 0.20895521 0.75134057
-0.22677426 0.20898911 0.75146246
-0.21533357 0.20880584 0.75080341
-0.20514889 0.20884018 0.75092691
-0.19585022 0.20877333 0.7525444
-0.18494348 0.20910005 0.75186139
-0.17345071 0.20923655 0.7597878
-0.16223119 0.20884351 0.75093889
-0.15412059 0.20892978 0.75124907
-0.14499305 0.20903203 0.75161678
-0.13806379 0.2088656 0.75287771
-0.12455155 0.20905879 0.75171304
-0.11605583 0.20892358 0.75308281
-0.10395199 0.20878106 0.75071436
-0.095341817 0.20884462 0.75539184
-0.08551956 0.20913078 0.75940371
-0.074914686 0.20836392 0.7566191
-0.064777553 0.20676519 0.75508761
0.025673615 0.20706977 0.75473428
0.035163097 0.20777087 0.75446552
0.044456396 0.20802119 0.75537455
0.054652363 0.20771013 0.75424498
0.064912394 0.20769547 0.7541917
0.075539835 0.20692715 0.75557101
0.08573164 0.20621115 0.75377715
0.093925379 0.20665507 0.75640452
0.10431124 0.20643614 0.7571013
0.11525216 0.20574033 0.75454962
0.12525728 0.20529911 0.75293136
0.13462585 0.20552313 0.75375301
0.14139512 0.20492738 0.75156808
0.15615022 0.20479833 0.75866765
0.16573296 0.20388924 0.75530005
0.17547448 0.20326439 0.75298518
0.18513916 0.20300005 0.75419515
0.19642513 0.20303778 0.75342226
0.20686448 0.20285441 0.75912035
0.21438371 0.2027978 0.75432062
0.22454005 0.20203277 0.75604558
0.23490174 0.20120959 0.75296509
0.24462922 0.20078035 0.75135881
0.25448114 0.20077217 0.75326246
0.26513585 0.20032699 0.75737631
-0.52128178 0.21931751 0.75889271
-0.44602564 0.21125652 0.75389099
-0.43610597 0.21069744 0.75550544
-0.51370013 0.22170527 0.7538408
-0.50464511 0.22264956 0.7515499
-0.49264547 0.1996132 0.76252401
-0.48319244 0.19687346 0.76398468
-0.45527241 0.19681592 0.76599222
-0.44535735 0.19666435 0.76418602
0.27489218 0.19936092 0.76156032
0.28544971 0.19917123 0.76483482
0.29584545 0.198834 0.7675274
0.30559576 0.19838233 0.76578391
0.31624037 0.19852053 0.76631737
0.32487643 0.19805971 0.76453853
0.33547086 0.1973491 0.76381135
0.34475183 0.1958628 0.76572043
-0.48553538 0.2076616 0.76413798
-0.47410813 0.20730639 0.76410121
-0.45511377 0.20175791 0.76806021
-0.38456762 0.20704956 0.76360041
-0.37569699 0.20715448 0.76739591
-0.36553138 0.2059809 0.76434219
-0.35596082 0.20486642 0.76443458
-0.34372658 0.20399116 0.7659862
-0.33451658 0.20336151 0.76258385
-0.32503825 0.2033522 0.76568192
-0.31638682 0.20314494 0.76542068
-0.30534193 0.20271853 0.76641792
-0.29539943 0.20305689 0.76769722
-0.28423715 0.20314035 0.76670671
-0.27503628 0.20399295 0.76338094
-0.26550543 0.20560761 0.76498353
-0.25643438 0.20749617 0.76674461
-0.2467476 0.20883003 0.765881
-0.2381576 0.20976657 0.76171243
-0.22693308 0.20948015 0.76370901
-0.21032234 0.20991795 0.76226211
-0.20398623 0.20983587 0.76703417
-0.19405881 0.20961905 0.76497436
-0.18143123 0.20950989 0.76584101
-0.1748139 0.20958237 0.76579338
-0.16784827 0.20972696 0.76410449
-0.15627533 0.20977716 0.76175088
-0.14142159 0.20977345 0.76553762
-0.13441734 0.2096387 0.76124811
-0.11493801 0.20959446 0.76488632
-0.10400922 0.2096965 0.76430857
-0.095280573 0.20917289 0.76587129
-0.085507445 0.20947094 0.76671165
-0.075500712 0.2079076 0.76249802
0.034508657 0.20793514 0.76259905
0.044871982 0.20789218 0.76244146
0.055176675 0.20762014 0.76144379
0.065640621 0.20795159 0.76265937
0.078760915 0.207628 0.76915008
0.084842145 0.20714775 0.767371
0.095279619 0.20764059 0.76727796
0.10482655 0.20743193 0.7684238
0.11428348 0.2075146 0.76872998
0.1242213 0.20664048 0.76549184
0.13464546 0.20664854 0.76552165
0.1456103 0.20553236 0.76429135
0.15549813 0.20499833 0.76559246
0.16550902 0.20408881 0.76373976
0.17535023 0.20349924 0.76284045
0.18646365 0.2034364 0.76443338
0.19503525 0.20344523 0.76133132
0.20218293 0.20333962 0.76093608
0.2154626 0.20316789 0.76029342
0.22968671 0.20361882 0.7698217
0.23544741 0.20251918 0.7669847
0.24447504 0.20199251 0.76367319
0.25415632 0.20120807 0.76466048
0.2653788 0.20078996 0.76701927
-0.23377308 0.21048436 0.76431888
-0.22215486 0.21031812 0.76371521
-0.21597987 0.21037573 0.76392436
-0.20483887 0.21014428 0.76308393
-0.18697374 0.2104927 0.76434916
-0.1628826 0.21027647 0.76356399
-0.15153357 0.21038863 0.76397121
-0.14637814 0.21044765 0.76418561
-0.12539761 0.21014579 0.76308942
-0.11927576 0.21033859 0.76378953
-0.52473015 0.22213209 0.76576108
-0.45148602 0.19383687 0.77596748
-0.43447891 0.19562104 0.77225763
0.27522871 0.19978741 0.77120775
0.28400379 0.19947577 0.77511126
0.29546365 0.19859827 0.77475727
0.30610535 0.19797401 0.772322
0.31500697 0.19828293 0.77352703
0.32438818 0.19823006 0.77332079
0.33451879 0.197998 0.77241546
0.34614268 0.19660126 0.7772826
0.35176685 0.19460964 0.7756688
-0.36498046 0.20442079 0.77526307
-0.35421038 0.20399442 0.77523762
-0.34502265 0.20361476 0.77513146
-0.33615059 0.20358221 0.77424991
-0.32613048 0.20322961 0.7740491
-0.31508142 0.20252179 0.77498591
-0.30458561 0.20220898 0.7724399
-0.29583481 0.2026979 0.77430755
-0.28355998 0.2028355 0.77368653
-0.27522007 0.20515542 0.77563113
-0.26384947 0.20662348 0.77322495
-0.25252259 0.20893474 0.77399087
-0.19764616 0.20986837 0.77356744
-0.081058428 0.20948957 0.77604622
-0.074305043 0.20826532 0.77487451
0.026613966 0.20805375 0.77465075
0.034120351 0.20837824 0.77417314
0.045461908 0.20852152 0.7724601
0.054631297 0.20822826 0.7747401
0.064587288 0.20917653 0.77488655
0.07540752 0.20818792 0.7745896
0.084930584 0.20782834 0.77773374
0.093790464 0.20814304 0.77576995
0.10503687 0.20783071 0.77774262
0.11535796 0.20769739 0.77593613
0.12559123 0.20681372 0.77393687
0.13503748 0.20676096 0.7737394
0.1421469 0.2063863 0.77233732
0.15521625 0.20591518 0.77454174
0.16508901 0.20537619 0.77646565
0.17655472 0.2040659 0.77418447
0.185848 0.20390709 0.77571744
0.19474992 0.20404734 0.77373421
0.20531981 0.20439135 0.77274227
0.21544072 0.20395721 0.77510315
0.22477332 0.20381454 0.7745592
0.23422821 0.20212959 0.77375764
0.24489276 0.2019701 0.77152741
0.25760657 0.20160167 0.77821106
0.26558733 0.20123355 0.77678996
0.27100387 0.20054404 0.77412844
-0.2437095 0.21028554 0.77381313
-0.23528953 0.21069211 0.77271008
-0.22344816 0.2104378 0.77177739
-0.21538459 0.21076663 0.77298343
-0.20521919 0.21027909 0.77430362
-0.19320431 0.21075267 0.77682275
-0.18677822 0.21053474 0.77213299
-0.1636295 0.21049333 0.77198112
-0.15419953 0.21053253 0.77212489
-0.1457049 0.2103979 0.77163118
-0.13505554 0.2101721 0.77080297
-0.12494353 0.21080315 0.77311736
-0.11370222 0.21035329 0.77535868
-0.10519337 0.21027774 0.7750808
-0.095144793 0.21027793 0.77896667
-0.086602777 0.21012975 0.77841771
-0.52069211 0.18614641 0.78445953
-0.49651027 0.18725479 0.78617346
-0.48786688 0.18526267 0.78374308
-0.48896295 0.19201177 0.78664953
0.28723824 0.19955841 0.78685749
0.29449722 0.19940011 0.78623337
0.305444 0.19874533 0.78607237
0.31475204 0.19802493 0.78456473
0.3256962 0.19837366 0.78536177
0.33508819 0.19837123 0.78358907
0.34460467 0.19715868 0.78582871
0.35353062 0.19463342 0.78427148
-0.34540737 0.20315614 0.78559458
-0.33473873 0.20267317 0.7864905
-0.32542694 0.20261979 0.78582287
-0.31503922 0.20212711 0.78540862
-0.30572903 0.20278251 0.78483969
-0.29476616 0.20348509 0.78548127
-0.28431407 0.20366697 0.78618336
-0.27475429 0.20570342 0.78463012
-0.2662915 0.20776613 0.78349376
-0.25627947 0.20903341 0.78224343
-0.090543471 0.20977846 0.78503144
-0.085186824 0.20973817 0.78488064
-0.076217376 0.20887575 0.7843318
0.037433859 0.20854931 0.78043175
0.044930216 0.20883131 0.78148705
0.054533131 0.20895271 0.78194129
0.06520354 0.20904867 0.78230041
0.072513416 0.20864221 0.78077936
0.096899517 0.20853072 0.78036225
0.10588348 0.20876539 0.78927934
0.11499142 0.20839718 0.78788722
0.12573485 0.20843819 0.78804225
0.13507694 0.20796017 0.78623497
0.14446731 0.2076226 0.78495884
0.15365055 0.20703262 0.78272825
0.16472766 0.20544767 0.78481174
0.17368142 0.20465928 0.78180015
0.18296035 0.20432815 0.7805351
0.19520196 0.2044102 0.78495276
0.20532706 0.20465232 0.78485096
0.21490437 0.20397268 0.78599679
0.22524706 0.20394725 0.78726524
0.23476389 0.20227271 0.78447449
0.24478447 0.20219652 0.7846421
0.25350487 0.202071 0.78519303
0.26446038 0.20147781 0.78599083
0.27483445 0.20046708 0.78204763
0.28509009 0.20030573 0.78980422
-0.25139293 0.210282 0.78691578
-0.24514529 0.21160656 0.7852143
-0.23459895 0.21175937 0.78445458
-0.22518098 0.21158658 0.78514189
-0.21435384 0.21137531 0.7846216
-0.20347203 0.21068092 0.78500152
-0.19268292 0.21145831 0.78333926
-0.1852085 0.21092871 0.78579837
-0.17515114 0.21131684 0.78395247
-0.16443413 0.21213882 0.78586018
-0.15489621 0.21226783 0.78633815
-0.1449503 0.21180297 0.78461611
-0.13549168 0.21204066 0.78549665
-0.12590705 0.21209162 0.78568548
-0.11558644 0.21082953 0.78101003
-0.10551733 0.21089485 0.78522915
-0.096193045 0.21044821 0.78753781
-0.50244874 0.18985112 0.79102713
-0.49440128 0.18541089 0.79658383
-0.48303032 0.18636636 0.79451692
-0.47622895 0.18666007 0.79578
-0.50553364 0.1916382 0.79248732
-0.4971199 0.19244251 0.79283345
-0.48411876 0.19154248 0.79807425
-0.46407577 0.19305786 0.79536855
-0.45259851 0.19647995 0.7961309
0.29607657 0.19940597 0.79478586
0.30324548 0.19878492 0.79231048
0.31577855 0.19843581 0.79670393
0.32366195 0.19832808 0.7948209
0.33725452 0.19849434 0.79115236
0.34636709 0.19785635 0.79725814
0.3541216 0.19569367 0.79398632
0.36200139 0.19375402 0.79823661
-0.38426703 0.20345469 0.79310554
-0.3248122 0.20194249 0.79625785
-0.31521273 0.2020407 0.7966451
-0.30427814 0.2034232 0.79357994
-0.29534611 0.20321873 0.79278219
-0.28520262 0.2036895 0.79461884
-0.27501297 0.20701571 0.79576981
-0.074762344 0.20924611 0.79579151
0.047714554 0.20959681 0.79242265
0.054172143 0.20955041 0.7922473
0.065383434 0.20977877 0.79311061
0.074624248 0.20945786 0.7918973
0.085325457 0.20926349 0.79116249
0.095033407 0.20931414 0.79135394
0.10446011 0.20919697 0.79584718
0.11423715 0.20879768 0.79760867
0.12505372 0.20873563 0.79737175
0.135428 0.20800705 0.79458857
0.14587907 0.20749183 0.79262042
0.1552716 0.20706807 0.79100168
0.16648245 0.20680857 0.7983104
0.17409971 0.20554046 0.79341537
0.18450743 0.20510519 0.79173511
0.19631939 0.20486708 0.79417545
0.20551462 0.20425566 0.79442871
0.21519344 0.20344059 0.79364777
0.22487743 0.20340744 0.79351842
0.23117408 0.2032471 0.79289293
0.24274719 0.20264141 0.79901379
0.25565332 0.20253056 0.79857671
0.26510906 0.20228094 0.79759252
0.27542424 0.20124333 0.79472661
0.28517368 0.20058139 0.79603314
0.29429093 0.20002659 0.79725951
-0.26366264 0.21023899 0.79485053
-0.25707769 0.21105051 0.79791868
-0.24513905 0.21228901 0.79442638
-0.23541169 0.21228388 0.79440719
-0.2244809 0.21166836 0.79210383
-0.21652403 0.21178767 0.79255027
-0.20520431 0.21128368 0.79473376
-0.19589487 0.21164425 0.79201359
-0.1738549 0.21237944 0.79476488
-0.16409433 0.21232997 0.79457968
-0.15468772 0.21277986 0.79626322
-0.145 0.21288185 0.79664493
-0.13542891 0.21316706 0.79771227
-0.12495697 0.2119657 0.79321647
-0.11502804 0.21158047 0.79177493
-0.10845502 0.21137364 0.79100096
-0.095289953 0.21104532 0.79789913
-0.085315637 0.21055675 0.79605186
0.031826217 0.21150704 0.79964465
0.059696287 0.21001814 0.79401559
0.064026274 0.21004379 0.79411256
-0.52531612 0.18542634 0.80295658
-0.49053648 0.18622601 0.8032499
-0.47056067 0.18844347 0.80649203
-0.46414694 0.18792674 0.8074218
-0.45620191 0.18913394 0.80632675
-0.44258869 0.18643942 0.80418772
-0.5251587 0.19647303 0.80943853
-0.51301789 0.1954128 0.80509365
-0.4953171 0.19033501 0.80213964
-0.47524607 0.19497547 0.80328214
-0.45934016 0.19784492 0.80605221
-0.44690126 0.19720358 0.80343926
-0.42849436 0.19218819 0.80994964
0.29924169 0.19971262 0.80473799
0.30513826 0.19927147 0.80296034
0.31477886 0.19847085 0.80527085
0.32625973 0.19847773 0.8056643
0.33510002 0.19878793 0.80495554
0.34478748 0.19844082 0.80625933
0.3560335 0.19611876 0.80438107
0.36268702 0.19364944 0.80458343
-0.48701745 0.2018833 0.8046599
-0.46448728 0.20036638 0.80737227
-0.31424636 0.20195229 0.80369252
-0.3043789 0.20313151 0.80527753
-0.2955336 0.20344034 0.80505955
-0.28541228 0.20442469 0.80432314
-0.27629527 0.20787819 0.80583334
-0.079316802 0.2097175 0.80112249
0.06789013 0.20980713 0.80146486
0.072300993 0.2099434 0.80198544
0.083218895 0.2099544 0.80202746
0.098358899 0.20965698 0.80089128
0.10154631 0.20948556 0.80023646
0.13536911 0.20909794 0.80714768
0.14602368 0.20862599 0.80532593
0.15654984 0.20779002 0.80493349
0.16474156 0.20696828 0.80497581
0.17474476 0.20540622 0.8013159
0.18473189 0.20560001 0.80207199
0.19302456 0.20513158 0.80024451
0.20487526 0.20391627 0.80404055
0.21448077 0.20367764 0.80309951
0.22466281 0.20399438 0.80434847
0.23524451 0.20368381 0.80312389
0.24627602 0.20272146 0.80552036
0.25549603 0.20264193 0.80396348
0.2645613 0.2021821 0.80585098
0.27542189 0.20210676 0.80555058
0.28576559 0.20093767 0.80381846
0.29592857 0.20043656 0.80765504
-0.2649211 0.21080264 0.80526775
-0.25424537 0.21216236 0.80544871
-0.24482767 0.2136275 0.80766153
-0.23423555 0.21298116 0.80521786
-0.22528836 0.21281677 0.80459636
-0.21506755 0.21245161 0.80321568
-0.20426011 0.21187137 0.80518365
-0.1953661 0.21242426 0.80311245
-0.18537354 0.21224669 0.802441
-0.17631966 0.21319972 0.80604416
-0.16469353 0.21375531 0.80814469
-0.15175176 0.21411538 0.80950606
-0.13300148 0.21407661 0.80935943
-0.12453661 0.21278542 0.80447787
-0.11482664 0.21304889 0.80547392
-0.10440709 0.21192876 0.80123901
-0.0942121 0.2113293 0.80727959
-0.085353144 0.21115752 0.80662334
0.024465699 0.21153745 0.80807471
0.034685854 0.21188393 0.80315131
0.04276666 0.21179879 0.80074775
0.063670695 0.21027651 0.80325794
0.076785788 0.21027015 0.80323362
0.085143074 0.21021533 0.80302417
0.093225107 0.21036881 0.8036105
-0.45549065 0.1882906 0.81407434
-0.43515408 0.18725321 0.81486499
-0.42640144 0.18594208 0.81352609
-0.41542345 0.18596362 0.81405354
-0.40533081 0.18478115 0.81509507
-0.39707032 0.18391769 0.81658179
-0.51522553 0.19181964 0.81464189
-0.49313685 0.19688189 0.81112295
-0.48258799 0.19929163 0.81194633
-0.47497723 0.19538173 0.81406331
-0.4649159 0.19367526 0.81430513
-0.45592487 0.19389684 0.81451374
-0.44775707 0.19067661 0.81290358
-0.43425184 0.19821957 0.81665611
-0.42710316 0.19638628 0.8136242
-0.40203324 0.19654429 0.81891465
-0.39148954 0.19351058 0.81552267
0.3052991 0.19922237 0.81507146
0.31606957 0.19888212 0.81708658
0.32563657 0.19874173 0.81878531
0.33653948 0.1986018 0.81820869
