# .PCD v0.7 - Point Cloud Data file format
VERSION 0.7
FIELDS x y z
SIZE 4 4 4
TYPE F F F
COUNT 1 1 1
WIDTH 155
HEIGHT 1
VIEWPOINT 0 0 0 1 0 0 0
POINTS 155
DATA ascii
0.19105126 0.40452129 1.0380319
0.19194992 0.4092626 1.0429146
0.19862795 0.4055112 1.033355
0.20102184 0.40466848 1.0312076
0.19691755 0.41062182 1.039171
0.19790067 0.40682858 1.0295713
0.2004372 0.40629008 1.0282085
0.2032503 0.40631929 1.0282824
0.1971983 0.41403961 1.0406525
0.19740297 0.40860063 1.0269821
0.19985636 0.40790308 1.0252289
0.20267692 0.40796384 1.0253816
0.19785309 0.41233385 1.0293238
0.20020062 0.41140088 1.0269948
0.20286043 0.41112652 1.02631
0.19875799 0.41703403 1.0340315
0.20076714 0.41536817 1.029901
0.20341645 0.41505435 1.0291229
0.19471169 0.42328835 1.0425037
0.19712074 0.42520177 1.0402433
0.19695924 0.41883764 1.0246736
0.19951701 0.41835305 1.023488
0.20196125 0.42629796 1.0360266
0.20374334 0.42694327 1.0307767
0.18797986 0.42508966 1.0064609
0.19687854 0.43881816 1.0389651
0.19603388 0.43975115 1.0345076
0.19879532 0.43963131 1.0342257
0.20180811 0.44006288 1.035241
0.20495886 0.44077927 1.0369263
0.19888201 0.44899675 1.0495378
0.19879463 0.44244465 1.0342221
0.20068297 0.44041133 1.0294693
0.20471179 0.44306678 1.0356764
0.2030959 0.44236597 1.0275012
0.17603877 0.43362334 1.000867
0.20160812 0.45441586 1.0488592
0.20388313 0.44688806 1.031484
0.17530686 0.45568755 1.0452282
0.19294308 0.45037141 1.0330344
0.19601241 0.4509643 1.0343944
0.20096104 0.45580286 1.0454928
0.20434846 0.4570148 1.0482726
0.21323094 0.43442234 0.99645144
0.16957712 0.44354567 1.011066
0.17792247 0.45794246 1.0438836
0.18892045 0.44373474 1.0114969
0.19593722 0.45360556 1.0339975
0.20067389 0.45799309 1.043999
0.20373002 0.45847616 1.0451001
0.2035152 0.45168629 1.0296226
0.20019855 0.43829009 0.99908584
0.17649773 0.45709381 1.0355245
0.17811468 0.4540312 1.0285863
0.18043858 0.45283756 1.0258821
0.18735212 0.46302316 1.0489571
0.18899158 0.45326087 1.0268412
0.18728651 0.44262612 1.0027486
0.19668069 0.4581517 1.0379211
0.19913621 0.45730335 1.0359992
0.20092553 0.45497021 1.0307136
0.20131941 0.44958502 1.0185137
0.20265567 0.44642207 1.0113481
0.16011579 0.46143523 1.0389537
0.16064642 0.45493016 1.024307
0.17055434 0.45908695 1.0336664
0.17307177 0.45830339 1.0319021
0.17654683 0.46004012 1.0358125
0.17715639 0.45437285 1.0230522
0.17961061 0.45353895 1.0211747
0.18218508 0.45302954 1.0200276
0.18659355 0.45702741 1.0290291
0.1870303 0.44474608 1.0013769
0.19682132 0.45477429 1.0239561
0.20018567 0.45608985 1.0269182
0.20598355 0.45655069 1.0279558
0.15861212 0.45990303 1.0291967
0.16051419 0.45734125 1.0234638
0.16022775 0.44873765 1.0042102
0.17008547 0.46063054 1.0308248
0.17851324 0.47560951 1.0643456
0.17608489 0.46164826 1.0331023
0.17712067 0.45706517 1.022846
0.17930222 0.45553482 1.0194213
0.18288718 0.45756233 1.0239586
0.18612039 0.45866212 1.0264198
0.19810118 0.46053657 1.0306145
0.20529743 0.47060251 1.0531406
0.15775168 0.46846753 1.0420161
0.15967195 0.46579593 1.0360737
0.16198072 0.46433073 1.0328146
0.16625723 0.46846002 1.0419995
0.16821268 0.46602044 1.0365731
0.17770322 0.4841924 1.0769931
0.1730734 0.45651662 1.0154337
0.17647119 0.45816281 1.0190953
0.17974243 0.4594346 1.0219241
0.18314768 0.46100497 1.0254171
0.18870816 0.46787167 1.0406908
0.19747567 0.4823691 1.0729375
0.19907549 0.4656204 1.0356833
0.1535798 0.46723962 1.033031
0.15671988 0.46822092 1.0352006
0.15899451 0.46662766 1.031678
0.16213502 0.46758676 1.0337985
0.1644253 0.46610296 1.0305179
0.16721322 0.46605602 1.0304141
0.16803458 0.46061981 1.0183951
0.17096743 0.46105418 1.0193554
0.18092875 0.47257954 1.0448371
0.18196116 0.46792158 1.0345387
0.18624525 0.47163999 1.0427599
0.18986672 0.47359401 1.04708
0.15056682 0.46942344 1.0316513
0.1535423 0.46993646 1.0327787
0.15638907 0.4700442 1.0330155
0.15969539 0.47150496 1.0362258
0.16298591 0.47286916 1.0392239
0.16484506 0.47010484 1.0331488
0.16656654 0.46704721 1.0264291
0.16939037 0.46713042 1.0266119
0.18941018 0.49000809 1.0768901
0.19016671 0.48446843 1.0647156
0.14916717 0.4767319 1.0414834
0.15160052 0.4754734 1.0387341
0.15335089 0.47215807 1.0314913
0.15614693 0.47212362 1.0314161
0.15884219 0.47179109 1.0306896
0.16230479 0.47370967 1.034881
0.16426176 0.47124335 1.029493
0.16728136 0.47185719 1.030834
0.17197412 0.47709247 1.0422711
0.18332751 0.50033599 1.0930496
0.15553175 0.48172012 1.0461605
0.15683636 0.47702783 1.0359701
0.15941685 0.47631335 1.0344185
0.16167985 0.47469154 1.0308963
0.16476151 0.47548762 1.0326252
0.16802795 0.47678131 1.0354347
0.17938331 0.50060612 1.0871755
0.15553185 0.48456782 1.0461612
0.15753764 0.48199302 1.0406023
0.15894492 0.47771037 1.0313562
0.16165404 0.47742108 1.0307317
0.16395581 0.47595918 1.0275755
0.16856812 0.48114127 1.0387634
0.16737738 0.46986204 1.014412
0.15638724 0.48128489 1.0330034
0.16000131 0.48371106 1.0382109
0.16190113 0.48096046 1.0323071
0.16665977 0.4866516 1.0445223
0.16752934 0.48098606 1.0323621
0.15833396 0.49012247 1.0458623
0.16691193 0.49023509 1.0461026
0.17357059 0.50124198 1.06959
