# .PCD v0.7 - Point Cloud Data file format
VERSION 0.7
FIELDS x y z
SIZE 4 4 4
TYPE F F F
COUNT 1 1 1
WIDTH 142
HEIGHT 1
VIEWPOINT 0 0 0 1 0 0 0
POINTS 142
DATA ascii
-0.43284181 -0.27509385 1.2059069
-0.4535163 -0.26815125 1.2041678
-0.44196585 -0.28437287 1.2174913
-0.43926394 -0.28476945 1.2191892
-0.46992609 -0.27004775 1.2126843
-0.45398164 -0.27368501 1.2141778
-0.43592405 -0.27211112 1.2145525
-0.42857105 -0.27102956 1.2170932
-0.48582497 -0.26823598 1.2194527
-0.47848481 -0.26784295 1.2176659
-0.46910399 -0.26816398 1.2191254
-0.47799042 -0.27109534 1.2248917
-0.46390682 -0.27232689 1.222919
-0.45686695 -0.27209878 1.2218946
-0.43713498 -0.27556434 1.2225153
-0.42140323 -0.27282289 1.2251463
-0.41139096 -0.27948591 1.2251202
-0.48361182 -0.26885077 1.2222476
-0.46658087 -0.26958209 1.2255723
-0.40433642 -0.26364797 1.2290143
-0.39470804 -0.26344046 1.2280467
-0.39541703 -0.25451767 1.22877
-0.44344303 -0.29752827 1.2307884
-0.40993628 -0.29082277 1.2307638
-0.45293513 -0.28252077 1.2384233
-0.41527474 -0.28380814 1.2366985
-0.5276351 -0.27269101 1.239706
-0.51030707 -0.27244681 1.238596
-0.49410054 -0.27095407 1.2318096
-0.47698224 -0.27075249 1.2308933
-0.45844537 -0.27504095 1.2351068
-0.44265014 -0.27462828 1.2332537
-0.43305168 -0.27599642 1.2393975
-0.42482805 -0.27503401 1.2350757
-0.41513708 -0.27361989 1.2362938
-0.4047609 -0.2717467 1.235413
-0.4939394 -0.26596728 1.2398205
-0.48618281 -0.26541662 1.2372534
-0.47024685 -0.26255295 1.2396321
-0.46479571 -0.26486149 1.2385985
-0.45479339 -0.26487899 1.2373598
-0.44486484 -0.26420403 1.2360706
-0.43478766 -0.26488027 1.2347482
-0.42459014 -0.2648066 1.2344115
-0.4158245 -0.26457474 1.2333226
-0.40986705 -0.26397973 1.2305559
-0.39970711 -0.26390523 1.2302104
-0.48388445 -0.25925505 1.2399957
-0.4633936 -0.25237375 1.2393502
-0.45547527 -0.25514776 1.2387826
-0.44519913 -0.25498414 1.235659
-0.4350563 -0.25495389 1.2355107
-0.42438242 -0.25460312 1.2338041
-0.41428879 -0.25458905 1.2337506
-0.40452263 -0.25370058 1.2317618
-0.39660054 -0.25066537 1.2309606
-0.44401118 -0.24732117 1.2393894
-0.43619949 -0.24888156 1.2387576
-0.42540115 -0.24813136 1.2392209
-0.405007 -0.24499522 1.2361667
-0.53762805 -0.28113598 1.2472334
-0.5498172 -0.27026919 1.2440897
-0.53206754 -0.27071396 1.246137
-0.49231833 -0.27030441 1.2442518
-0.45057422 -0.2763989 1.2412049
-0.53467512 -0.26374748 1.2472756
-0.52423644 -0.26425835 1.2476773
-0.5159682 -0.26351595 1.2464559
-0.50594407 -0.26428553 1.2432547
-0.49560398 -0.26387268 1.2418779
-0.48443609 -0.2657451 1.2414085
-0.47525188 -0.2657862 1.242131
-0.46550465 -0.26273263 1.2404804
-0.45404077 -0.26969588 1.2414508
-0.44700277 -0.26952597 1.2406685
-0.54182494 -0.25435567 1.2490829
-0.53496563 -0.25602636 1.2489414
-0.52491879 -0.25461826 1.2482905
-0.51398629 -0.25516981 1.2475227
-0.50479537 -0.25490525 1.2443987
-0.49580806 -0.25542068 1.2437372
-0.48530093 -0.2547555 1.2427533
-0.47444451 -0.25625032 1.2417899
-0.4646813 -0.25715503 1.2414988
-0.52507222 -0.24767236 1.2496681
-0.51108217 -0.24748571 1.2487264
-0.5039103 -0.24730138 1.2477963
-0.49368829 -0.24534047 1.247715
-0.48513141 -0.24491206 1.2464499
-0.47579858 -0.24541783 1.2445252
-0.4653039 -0.24577902 1.243548
-0.45477062 -0.24643421 1.2434399
-0.44403148 -0.24357814 1.2418035
-0.50119621 -0.23403578 1.2494993
-0.58644027 -0.28339869 1.2572716
-0.56187671 -0.27283666 1.2559081
-0.55431038 -0.27160633 1.2581291
-0.53637266 -0.27375883 1.2549055
-0.59465331 -0.26394972 1.2583605
-0.58474803 -0.26427472 1.2585402
-0.57505929 -0.26463345 1.2548416
-0.56468445 -0.26400793 1.2545524
-0.55427057 -0.26392481 1.2541668
-0.54511583 -0.2653302 1.2527349
-0.53254074 -0.26841533 1.2512321
-0.5290609 -0.2683776 1.2510563
-0.59379005 -0.25624183 1.2583452
-0.58393127 -0.25617415 1.2580096
-0.57527596 -0.25538519 1.2562418
-0.56431293 -0.25530046 1.2537245
-0.55421966 -0.2553677 1.2540516
-0.54522628 -0.25499237 1.2522072
-0.53594023 -0.25138447 1.2512155
-0.52200669 -0.25123501 1.2504715
-0.51679599 -0.25118369 1.250216
-0.58219934 -0.24703279 1.2579672
-0.57449496 -0.24619606 1.2573431
-0.56501162 -0.24554944 1.2562289
-0.55500716 -0.24547344 1.2558335
-0.54425985 -0.2452507 1.2546921
-0.53409141 -0.24466453 1.2538739
-0.52373791 -0.24287353 1.252987
-0.51578826 -0.24470589 1.2519001
-0.5050649 -0.24276257 1.2506559
-0.57385582 -0.23937374 1.2596936
-0.56592917 -0.23550045 1.2573192
-0.5555501 -0.23626499 1.2583543
-0.53457606 -0.23525479 1.2560129
-0.50554419 -0.23427707 1.2507902
-0.60602236 -0.27081642 1.2624249
-0.59927714 -0.27087304 1.2626889
-0.58434176 -0.27032316 1.2601256
-0.59457684 -0.26763967 1.2636487
-0.58622545 -0.26494494 1.2617227
-0.60527045 -0.25332022 1.2608595
-0.59387887 -0.25015038 1.2621713
-0.61433303 -0.24412541 1.2665687
-0.60592532 -0.24586335 1.2622199
-0.595994 -0.24515948 1.2630191
-0.58721489 -0.24450907 1.2626145
-0.60460281 -0.23441257 1.265841
-0.59505916 -0.2346257 1.2643549
