# .PCD v0.7 - Point Cloud Data file format
VERSION 0.7
FIELDS x y z
SIZE 4 4 4
TYPE F F F
COUNT 1 1 1
WIDTH 236
HEIGHT 1
VIEWPOINT 0 0 0 1 0 0 0
POINTS 236
DATA ascii
-0.13300148 0.21407658 0.80935943
-0.11482664 0.21304889 0.80547392
-0.16694206 0.21444221 0.81917095
-0.15687142 0.21454515 0.81323957
-0.14543256 0.21454537 0.81113172
-0.1366313 0.21427915 0.81573844
-0.12512685 0.21347697 0.81548375
-0.11518336 0.21354875 0.81575793
-0.10465918 0.21246429 0.81161529
-0.090098254 0.21239258 0.81986547
-0.081959218 0.21153504 0.81655526
-0.063990921 0.210917 0.81416947
-0.17164135 0.21474354 0.82032204
-0.16321063 0.21540478 0.8228479
-0.15507638 0.2149961 0.8212868
-0.14509408 0.21510518 0.82170343
-0.1238877 0.21487914 0.82946396
-0.11349925 0.21444099 0.82777256
-0.10542531 0.21406078 0.82630503
-0.096059024 0.21322994 0.82309777
-0.087313369 0.21264023 0.82518065
-0.072433643 0.21294208 0.82198662
-0.064909488 0.21169022 0.82583058
-0.056955457 0.21064602 0.82469076
-0.18561952 0.21483086 0.83808267
-0.17557894 0.21598843 0.83374596
-0.16460031 0.21646583 0.83558887
-0.15414345 0.21614878 0.83436489
-0.14490886 0.21591841 0.83347565
-0.1353503 0.21515761 0.83053887
-0.12593172 0.21515587 0.83053207
-0.1151765 0.21493903 0.83674186
-0.10460645 0.21475036 0.83776855
-0.095181845 0.21404816 0.83502924
-0.08288756 0.21458673 0.83713031
-0.07458061 0.21363962 0.83343548
-0.0647282 0.21253979 0.83804309
-0.058716521 0.21142843 0.83366096
-0.24132644 0.21544299 0.84949028
-0.23531364 0.21522972 0.84864932
-0.22606331 0.21522069 0.84861386
-0.19531712 0.21486032 0.84719288
-0.18103284 0.21616238 0.8432771
-0.17503798 0.21726577 0.84758151
-0.16479476 0.21744695 0.84828836
-0.15437165 0.21739829 0.84809852
-0.14460014 0.21658671 0.84493238
-0.13495502 0.21587805 0.84216791
-0.12562245 0.21559563 0.84106606
-0.11749763 0.21539211 0.84027213
-0.081622474 0.21499254 0.84771419
-0.07571654 0.21458054 0.84608972
-0.069473468 0.2131127 0.84030199
-0.057382081 0.21262729 0.84748292
-0.25454342 0.21559466 0.85700107
-0.24646281 0.21581829 0.85327595
-0.23460105 0.21544616 0.8587184
-0.22606212 0.21510305 0.85735077
-0.21578255 0.21416487 0.85361135
-0.20533572 0.21418236 0.85368109
-0.19551979 0.2155491 0.85543889
-0.1849025 0.21707229 0.85591477
-0.13517237 0.21762665 0.85810047
-0.12546112 0.21698701 0.85557842
-0.1147113 0.21647473 0.85355836
-0.10425105 0.21646515 0.85352069
-0.09484797 0.21711187 0.8560707
-0.086692944 0.21612017 0.85216039
-0.071979888 0.2148909 0.85650516
-0.064787656 0.21422049 0.85383314
-0.05437715 0.21210025 0.85465372
-0.26627481 0.21557762 0.8686657
-0.25382841 0.21571173 0.8644892
-0.24517474 0.21584038 0.86028969
-0.23427717 0.21555619 0.86621845
-0.22385481 0.21513413 0.86687863
-0.21425478 0.21497366 0.86623204
-0.207471 0.21527471 0.86744511
-0.19298801 0.21596013 0.86076689
-0.18635955 0.21780175 0.86810708
-0.17565644 0.2185996 0.86193681
-0.1653401 0.21892178 0.86320716
-0.15452075 0.21856645 0.86180615
-0.1449455 0.2182783 0.86066997
-0.13321313 0.21781543 0.86816162
-0.12464714 0.21730018 0.866108
-0.11509461 0.21706465 0.86516929
-0.10917887 0.21701203 0.86495954
-0.097002782 0.21845365 0.86136132
-0.084603019 0.2173682 0.86637908
-0.077265047 0.21663757 0.86346698
-0.065455884 0.21537177 0.86783618
-0.056444421 0.21328539 0.86258811
-0.26419216 0.21628863 0.87153065
-0.25426024 0.21641953 0.87205815
-0.24411425 0.21627085 0.87467122
-0.23622714 0.21527718 0.87514383
-0.22580309 0.21462753 0.87442732
-0.21481298 0.21434931 0.87329382
-0.20453516 0.21595819 0.87404966
-0.19484003 0.2169906 0.87435931
-0.18156792 0.21914084 0.8734445
-0.17472623 0.21951036 0.87491733
-0.15430714 0.21924958 0.87387788
-0.14460468 0.2189624 0.87273324
-0.13825142 0.21831076 0.87013596
-0.09479931 0.21912673 0.87338817
-0.16422555 0.2203282 0.87817705
-0.10238978 0.22013089 0.87739056
-0.27158704 0.21602502 0.88012087
-0.26617914 0.21649843 0.88204962
-0.25545382 0.2165637 0.88231564
-0.24814807 0.21647465 0.88195276
-0.23529428 0.21549031 0.88778687
-0.22606462 0.21475682 0.88476491
-0.21544108 0.21457106 0.88566202
-0.20246902 0.21640101 0.88165271
-0.19489643 0.21791603 0.88538396
-0.18744537 0.21947214 0.88435853
-0.16008823 0.21991347 0.88613689
-0.14082913 0.21996877 0.88635975
-0.13458492 0.21961977 0.88495344
-0.12465805 0.21910226 0.88286823
-0.11847442 0.21878149 0.88157558
-0.18220632 0.2204129 0.88814938
-0.16636209 0.22104762 0.88104445
-0.15583631 0.22072449 0.88940489
-0.14344676 0.22028388 0.88762951
-0.11473173 0.22081408 0.88976592
-0.10521899 0.22112624 0.88457435
-0.28255492 0.21652685 0.89205718
-0.27469763 0.2170362 0.89415562
-0.26545304 0.21743725 0.89580786
-0.25576437 0.21748735 0.89601433
-0.2441093 0.2161496 0.89482141
-0.23494038 0.21496139 0.89565074
-0.22548871 0.21408884 0.8920151
-0.21460579 0.21475013 0.89477044
-0.2062079 0.21712062 0.89618421
-0.19193277 0.21944505 0.89405453
-0.18703473 0.22084105 0.89974213
-0.17458516 0.2214762 0.89243388
-0.16635248 0.22182786 0.89385098
-0.15124352 0.22108661 0.89086407
-0.1446903 0.22074263 0.89538735
-0.13371252 0.22039895 0.89794099
-0.11342053 0.22140519 0.8921479
-0.29546601 0.21549273 0.90557808
-0.28445002 0.21740456 0.90583032
-0.275123 0.21782605 0.90758651
-0.26507962 0.21769428 0.90703756
-0.25419962 0.21683452 0.9034552
-0.24451935 0.21567547 0.90634942
-0.23497564 0.21478471 0.90517944
-0.22616106 0.21460465 0.90442061
-0.2157367 0.21526377 0.90719843
-0.20646238 0.21706192 0.90440267
-0.19891778 0.21934724 0.90367675
-0.19592504 0.22012688 0.90688872
-0.18374197 0.22180185 0.9036566
-0.17501193 0.22268234 0.90724391
-0.16456309 0.22190405 0.904073
-0.15483126 0.2220674 0.90473849
-0.14816201 0.22130249 0.90162212
-0.13570976 0.22100535 0.90041155
-0.29427308 0.21701998 0.9172343
-0.28466603 0.21793707 0.9184646
-0.27479017 0.21803282 0.91886818
-0.26494426 0.21816336 0.91941828
-0.25379735 0.21640269 0.91621125
-0.2457785 0.21484417 0.9132961
-0.23606631 0.2135976 0.91417706
-0.22573662 0.21407399 0.91265267
-0.21656615 0.21483991 0.91591793
-0.20619027 0.21813874 0.91408271
-0.20064969 0.22013405 0.91720289
-0.19386561 0.22137909 0.91462326
-0.18688644 0.22259247 0.91704667
-0.17612799 0.22319046 0.91951019
-0.30445629 0.21455498 0.92544138
-0.29414743 0.21690021 0.92470145
-0.28511608 0.21768776 0.92805904
-0.26384464 0.21807216 0.92435282
-0.25399697 0.21567748 0.92667055
-0.24349128 0.21331 0.9244234
-0.23414586 0.21306533 0.9262799
-0.22583883 0.21347216 0.92544156
-0.21496853 0.21573731 0.92511225
-0.2056552 0.21898097 0.92286396
-0.20317605 0.22037794 0.92875129
-0.19355477 0.22202703 0.92509019
-0.18469551 0.2236263 0.92478037
-0.17464635 0.22342974 0.92049599
-0.23328884 0.2098138 0.9380275
-0.3041009 0.21445151 0.93598318
-0.29586893 0.2165679 0.93412381
-0.28592405 0.21769936 0.93900418
-0.27576309 0.21828143 0.93058997
-0.26538342 0.21785599 0.93421507
-0.2551505 0.21491873 0.93581003
-0.24519554 0.21247399 0.93476671
-0.23592445 0.21138236 0.93690741
-0.22458372 0.21261263 0.9363178
-0.21629663 0.21580732 0.93523312
-0.20792004 0.21885546 0.93303722
-0.20117077 0.22095183 0.93116987
-0.19828314 0.22197661 0.93548864
-0.24349193 0.20944721 0.94792306
-0.30598816 0.21325247 0.94573629
-0.2951777 0.21630949 0.94409245
-0.28542072 0.21670178 0.94580466
-0.27549499 0.21810643 0.943941
-0.26521334 0.2163863 0.94444305
-0.25454217 0.21332207 0.9468013
-0.24586998 0.21139009 0.94221145
-0.23130278 0.21032938 0.94033253
-0.22400481 0.21152078 0.94375253
-0.21533412 0.21611945 0.9451431
-0.20371938 0.22118799 0.94298148
-0.3041473 0.2134258 0.9561255
-0.29520091 0.21492487 0.95425081
-0.28578559 0.21575348 0.95627463
-0.27521622 0.21615043 0.95620918
-0.26472917 0.21437803 0.95379955
-0.25612617 0.211468 0.95414162
-0.24945058 0.21012178 0.95097601
-0.2214115 0.21053262 0.95283538
-0.30370784 0.21146369 0.96297914
-0.29490265 0.21173124 0.96420127
-0.28517044 0.21415439 0.96528834
-0.27454132 0.21418305 0.96639884
-0.26421615 0.2116857 0.96519482
-0.28494617 0.21173511 0.97372711
-0.27476901 0.21290833 0.97388381
-0.28134444 0.21140686 0.980959
-0.2774592 0.21149704 0.98137748
