# .PCD v0.7 - Point Cloud Data file format
VERSION 0.7
FIELDS x y z
SIZE 4 4 4
TYPE F F F
COUNT 1 1 1
WIDTH 105
HEIGHT 1
VIEWPOINT 0 0 0 1 0 0 0
POINTS 105
DATA ascii
0.086483233 0.37324971 0.82275814
0.092544422 0.37621897 0.82681596
0.084564544 0.37708545 0.83472031
0.097762391 0.37785655 0.83291411
0.099306196 0.38058081 0.83640194
0.065252125 0.41531733 0.83759141
0.061824962 0.42094395 0.83745217
0.086680114 0.37825763 0.84648609
0.092363253 0.37736028 0.8457762
0.079636596 0.38683283 0.84508711
0.093840659 0.38152644 0.84454376
0.10343122 0.38386148 0.84530181
0.059049498 0.41753787 0.8467173
0.068264812 0.41060752 0.84668273
0.094629869 0.37934411 0.85587066
0.08729554 0.38209742 0.85248113
0.094739974 0.38232419 0.85689461
0.10734552 0.3879354 0.85512835
0.071216911 0.40739927 0.85445344
0.029320814 0.41619542 0.85341555
0.045746278 0.41537809 0.85651982
0.053474449 0.41579828 0.85578287
0.094221815 0.37849432 0.86278093
0.087621003 0.38265234 0.86333108
0.090827882 0.38216543 0.86402655
0.10503503 0.38881308 0.86484015
0.10759477 0.39075851 0.8665536
0.11204066 0.39331928 0.86439729
0.074550979 0.40355605 0.86617053
0.041433591 0.41891786 0.86381888
0.027297901 0.42316628 0.86289364
0.055857167 0.42131007 0.86875165
0.060145214 0.42293838 0.8624289
0.06254974 0.43154624 0.86321878
0.0050144885 0.4444285 0.86772364
0.013272308 0.44394368 0.86677706
0.020227334 0.44141105 0.8618322
0.087623037 0.38478306 0.87306994
0.098240986 0.38350973 0.8742336
0.10221989 0.38548338 0.8760072
0.08509396 0.3969577 0.87765092
0.10301028 0.39217016 0.8776325
0.11481038 0.39706078 0.87655234
0.12040399 0.3976303 0.87387162
0.077944532 0.40421414 0.87783927
0.037165675 0.42394966 0.8741945
-0.011604263 0.43834466 0.87444103
-0.006260315 0.43181449 0.87567043
0.065857217 0.43316907 0.87599552
-0.011596099 0.44406027 0.87396312
0.015708277 0.44624224 0.87126487
0.025332769 0.44397733 0.87615454
0.088104948 0.38775635 0.88389373
0.095353335 0.38425839 0.8841573
0.10374494 0.38491166 0.88630098
0.085507117 0.39168769 0.88191223
0.10770271 0.39265579 0.88681555
0.081268877 0.40650231 0.88805765
0.0053548249 0.42659941 0.88364428
-0.010494388 0.43683195 0.88098103
-0.0033070967 0.43495077 0.88202423
0.0015069795 0.43080407 0.88832849
0.032968063 0.431196 0.88913667
-0.010550066 0.44638467 0.88565511
-0.0081256721 0.44561273 0.88414347
0.023082774 0.44898102 0.88129538
-0.0057539484 0.45316207 0.88950229
0.089165859 0.38999081 0.89453709
0.074786417 0.42537665 0.89728004
-0.0033560768 0.43773282 0.89507842
0.006383162 0.43352136 0.89393282
0.011301159 0.43065825 0.89810866
0.028294517 0.43618131 0.8943969
0.063928217 0.43573582 0.89348882
-0.015618687 0.44867334 0.89992243
-0.0057891859 0.44663116 0.8958379
0.0015224927 0.44012421 0.89747322
0.066009499 0.44336379 0.89414638
-0.020492688 0.4505803 0.89884049
-0.0045730434 0.45526689 0.89602709
0.015070545 0.42917272 0.90399456
0.021351492 0.4263266 0.9097296
0.0064650811 0.43397686 0.90503615
0.013811742 0.43027574 0.9024331
0.031164398 0.43989545 0.90707517
-0.0009249521 0.44486457 0.90213263
-0.0050251056 0.45471352 0.90463746
0.0015301551 0.45952401 0.90199
0.026087549 0.45474973 0.90225917
0.0064757369 0.46179575 0.9064492
0.021295661 0.46225509 0.90735078
0.0090552019 0.41781488 0.91823119
0.018904207 0.42614549 0.91111481
0.021389259 0.42708093 0.91133869
0.015197743 0.43606251 0.91196501
-0.00093635666 0.44289282 0.91325581
0.0065439446 0.44695896 0.91649723
0.011534299 0.44203746 0.91663641
-0.01091363 0.45178947 0.91617548
-0.0021765034 0.45637262 0.91288412
0.0015545043 0.4518722 0.91634327
-0.00093887438 0.46152341 0.9157114
0.0015585199 0.46554181 0.91871035
0.014844539 0.46617973 0.91505444
-0.00094445003 0.4592565 0.92114955
