# .PCD v0.7 - Point Cloud Data file format
VERSION 0.7
FIELDS x y z
SIZE 4 4 4
TYPE F F F
COUNT 1 1 1
WIDTH 267
HEIGHT 1
VIEWPOINT 0 0 0 1 0 0 0
POINTS 267
DATA ascii
-0.39724341 0.13778757 1.1458396
-0.40797898 0.11094294 1.1586142
-0.41349232 0.13539338 1.1520038
-0.40733778 0.1354339 1.1523485
-0.39821994 0.13921925 1.1577455
-0.38276905 0.13875723 1.1539032
-0.42979953 0.14239317 1.1579314
-0.39412078 0.14412417 1.154981
-0.38521251 0.14589702 1.1565338
-0.37846074 0.14833814 1.1551423
-0.38148156 0.15143321 1.1547695
-0.42105836 0.022843551 1.1686591
-0.42013192 0.04818337 1.1660877
-0.41959515 0.043368727 1.164598
-0.41822863 0.055473518 1.1637402
-0.4163965 0.062386058 1.1645169
-0.42860344 0.076559693 1.1632386
-0.41733757 0.075225621 1.1671488
-0.42418131 0.097459473 1.1632829
-0.41810605 0.096872568 1.1663522
-0.41559401 0.10635762 1.1645119
-0.43289506 0.11443064 1.1620086
-0.42527735 0.11450732 1.1627874
-0.41553551 0.11333557 1.1646461
-0.42163306 0.13650714 1.1614802
-0.40548459 0.13639197 1.1605003
-0.39380068 0.13988805 1.1633072
-0.39346284 0.14436968 1.1654342
-0.38701445 0.1460492 1.1619449
-0.37397191 0.14353867 1.1672928
-0.38087517 0.15244851 1.1625117
-0.42665058 -0.053794559 1.175302
-0.42717728 -0.044250473 1.1767528
-0.42571068 -0.034532201 1.1727128
-0.42481309 -0.015462217 1.1790805
-0.4251183 -0.0058390405 1.1799276
-0.42409831 0.016598411 1.1770966
-0.42138144 0.029449947 1.1784581
-0.41981512 0.054904528 1.1740776
-0.41815078 0.064471088 1.1739054
-0.41699016 0.085333526 1.1751219
-0.41618523 0.095850348 1.1746513
-0.41594034 0.10346774 1.172163
-0.45522857 0.11888331 1.1747561
-0.41132855 0.11272509 1.1772257
-0.4253267 0.1348459 1.1746124
-0.41747415 0.13455287 1.171993
-0.4064869 0.13780253 1.1725022
-0.36213723 0.14112133 1.1735631
-0.43162996 -0.16122028 1.1890187
-0.42766032 -0.10602352 1.186983
-0.42515242 -0.0989784 1.1800222
-0.42803323 -0.070548043 1.1880181
-0.42723262 -0.063967466 1.185796
-0.42873242 -0.047992174 1.1899587
-0.42797431 -0.034975775 1.1878545
-0.42911848 -0.025152732 1.1821005
-0.42554373 -0.015487328 1.1811084
-0.42663604 -0.005867207 1.1841401
-0.42655644 0.0038057328 1.1839193
-0.42532906 0.010223166 1.1805125
-0.42313617 0.024738645 1.1833656
-0.42430943 0.036117256 1.1866467
-0.42487472 0.045864806 1.1882275
-0.42246485 0.055467851 1.1860092
-0.42126477 0.066826597 1.1871681
-0.42057341 0.074780583 1.1852199
-0.41977152 0.077857681 1.18296
-0.41846526 0.084365904 1.1838287
-0.41744989 0.09415745 1.1855104
-0.41435099 0.10709097 1.185876
-0.41419807 0.11673791 1.1854383
-0.45601517 0.12035675 1.189316
-0.4228605 0.12013383 1.1871133
-0.4259308 0.13411349 1.182189
-0.41739261 0.13395399 1.1807816
-0.40754265 0.13925369 1.1848494
-0.39243594 0.13961564 1.1879292
-0.38620394 0.13969985 1.1886456
-0.37666699 0.13976306 1.1891835
-0.34209239 0.13952255 1.187137
-0.37640595 0.14501736 1.1858213
-0.3686125 0.14561167 1.1841033
-0.43396336 -0.16697529 1.1954467
-0.43318331 -0.15693319 1.1932979
-0.4320201 -0.12994933 1.1990837
-0.4291513 -0.10639568 1.1911213
-0.42883471 -0.064201131 1.1902425
-0.42943722 -0.05455894 1.1919149
-0.43007803 -0.043269306 1.1936934
-0.4296425 -0.025377028 1.1924846
-0.42743826 -0.01567417 1.1953971
-0.42625314 -0.0042791399 1.1920826
-0.42682588 0.00059062254 1.1936843
-0.42801148 0.013620856 1.197
-0.42567727 0.025003102 1.1950366
-0.42436248 0.047787599 1.1958978
-0.4239127 0.054234758 1.1946304
-0.42178237 0.067422897 1.1978142
-0.42174739 0.07320863 1.1946478
-0.41957626 0.078422971 1.1915491
-0.41948307 0.083270192 1.1912844
-0.4166944 0.10121212 1.1925828
-0.43522671 0.12132935 1.1989268
-0.42984846 0.12073526 1.1930562
-0.41993475 0.12068576 1.1925671
-0.4332768 0.13377984 1.1935554
-0.42586613 0.13166927 1.1940449
-0.41592434 0.13666369 1.1903789
-0.37076485 0.1399786 1.1910174
-0.34785256 0.13988972 1.1902611
-0.40405077 0.14028165 1.1935959
-0.39694926 0.14006734 1.1917725
-0.37472191 0.14512235 1.1932957
-0.36603534 0.14065424 1.1967661
-0.35582218 0.14047691 1.1952573
-0.33593398 0.1419493 1.1939763
-0.45946357 0.1598371 1.1940715
-0.37498 0.15009311 1.1941175
-0.46842963 -0.18364592 1.2088225
-0.45839679 -0.18292558 1.2040808
-0.43753415 -0.1732669 1.2052832
-0.43343735 -0.13528723 1.2030172
-0.43383145 -0.12557477 1.2041112
-0.43460965 -0.11431262 1.2062711
-0.43196961 -0.084895402 1.2080696
-0.42994583 -0.0779479 1.2024097
-0.43240413 -0.03231496 1.2092848
-0.43054366 -0.025624242 1.2040818
-0.43060529 -0.0092370613 1.204254
-0.42935994 0.0054962933 1.2007712
-0.4285073 0.023599327 1.2075784
-0.42721182 0.036644161 1.2039275
-0.42623416 0.04309459 1.2011725
-0.42530498 0.059769701 1.207818
-0.42349768 0.062789083 1.2026855
-0.42219839 0.089394011 1.2083353
-0.42118901 0.094098903 1.2054465
-0.41961095 0.098651938 1.20093
-0.45540011 0.12148797 1.2004942
-0.43247578 0.12684922 1.2048967
-0.44089216 0.13839914 1.2054952
-0.42387944 0.13329229 1.2037897
-0.41787997 0.13838421 1.2053652
-0.34012875 0.138786 1.2088649
-0.33692977 0.1388236 1.2091923
-0.33140817 0.14443363 1.2011082
-0.32468066 0.14108227 1.2004081
-0.45548224 0.15201248 1.2093878
-0.47363642 -0.18439212 1.2137343
-0.45695823 -0.18432719 1.2133068
-0.44321856 -0.18080847 1.2118561
-0.4403913 -0.17770022 1.2131538
-0.43689364 -0.14131641 1.2126104
-0.43829986 -0.12190524 1.2165134
-0.43790469 -0.11848731 1.2154166
-0.4338975 -0.095172778 1.2134613
-0.43271014 -0.075155407 1.2101406
-0.4361378 -0.044213153 1.2197266
-0.43514648 -0.037489116 1.2169542
-0.43148261 0.01714918 1.2159631
-0.42863768 0.046985667 1.2172825
-0.42711374 0.053421121 1.2129548
-0.42592371 0.085206091 1.2189972
-0.45667636 0.12315438 1.2169609
-0.44427121 0.12292904 1.2147343
-0.4279204 0.12596245 1.212132
-0.31540108 0.12791705 1.2149928
-0.44054845 0.13272202 1.2135867
-0.42626292 0.13290384 1.2152493
-0.41915181 0.13990375 1.2186007
-0.35279563 0.13989484 1.2185231
-0.34522575 0.13786024 1.2152313
-0.33798915 0.13308525 1.2169659
-0.3241514 0.13473177 1.2168155
-0.44589248 0.14222857 1.2101614
-0.33430311 0.14176044 1.2155938
-0.45405805 -0.18584511 1.2232983
-0.44241869 -0.15480341 1.2279453
-0.44179115 -0.14791003 1.2262034
-0.43802944 -0.10275248 1.2250168
-0.43925375 -0.072948463 1.2284408
-0.43885908 -0.05284014 1.227337
-0.43804389 -0.049407732 1.2250572
-0.43477428 -0.0027285186 1.2252394
-0.43469653 0.003942458 1.2250203
-0.4339664 0.012252713 1.2229627
-0.430314 0.043843362 1.222043
-0.42920688 0.077504598 1.2283937
-0.42830157 0.080677405 1.2258027
-0.4256568 0.11589533 1.2277973
-0.45390576 0.12375303 1.2228765
-0.44996509 0.12358484 1.2212147
-0.43027619 0.12698357 1.2219356
-0.33882171 0.12761137 1.2279768
-0.32257816 0.12779658 1.229759
-0.3159377 0.1254776 1.2234993
-0.43111128 0.13056223 1.2243072
-0.42434299 0.13643779 1.2272246
-0.3925131 0.13102572 1.2286533
-0.38277677 0.13782032 1.2296035
-0.3528038 0.13632682 1.2262324
-0.34491524 0.13180731 1.2235043
-0.33618617 0.13474391 1.2244835
-0.32534879 0.13091168 1.227584
-0.45379427 0.14701517 1.2225761
-0.41824675 0.14071511 1.225668
-0.40539655 0.14088589 1.2271556
-0.39732563 0.14098555 1.2280235
-0.38520473 0.14082932 1.2266629
-0.37568483 0.14101848 1.2283103
-0.36384833 0.14096408 1.2278365
-0.3575891 0.14047506 1.223577
-0.33265972 0.14049333 1.2237363
-0.45647672 0.15013051 1.2208509
-0.45163706 -0.18760373 1.2348741
-0.44889522 -0.18449721 1.2365797
-0.44449353 -0.16392586 1.2337041
-0.44305891 -0.14102902 1.2390825
-0.4423731 -0.13576308 1.2371645
-0.44274163 -0.11059789 1.2381952
-0.44021565 -0.10661609 1.2311308
-0.4394365 -0.08196535 1.238378
-0.44114453 -0.066548094 1.2337285
-0.44166672 -0.058220007 1.235189
-0.43984133 -0.016254647 1.2395189
-0.43716407 -0.0060966006 1.2319741
-0.43461427 0.034197107 1.2342553
-0.43361172 0.040827814 1.2314082
-0.43192372 0.072949409 1.2361693
-0.42808574 0.11151688 1.2348036
-0.44730818 0.12805106 1.2322079
-0.43165272 0.12838212 1.2353936
-0.42778715 0.12151442 1.2339423
-0.40424758 0.12875602 1.2389916
-0.39493805 0.12847044 1.2362435
-0.385324 0.12863073 1.2377858
-0.37530753 0.12866203 1.2380871
-0.45315325 0.13887574 1.2390198
-0.44786331 0.13156787 1.2337371
-0.43091834 0.13152038 1.2332919
-0.42474398 0.13531078 1.2372986
-0.41454291 0.13780791 1.2370198
-0.40429381 0.13495366 1.2339855
-0.39484087 0.13596393 1.2344435
-0.38535398 0.13367927 1.2338494
-0.37479663 0.13530795 1.2341869
-0.36443427 0.13454096 1.2340759
-0.35692716 0.13398245 1.2327939
-0.32944465 0.13456108 1.2304027
-0.41500276 0.14131442 1.2308881
-0.39321271 0.14130926 1.2308432
-0.36956254 0.14123279 1.230177
-0.44823164 -0.17545794 1.2440791
-0.44441575 -0.14653473 1.242877
-0.44339269 -0.1141355 1.240016
-0.44092754 -0.087315887 1.2425799
-0.44186315 -0.053614259 1.2452166
-0.44153866 -0.026479742 1.2443022
-0.44031686 -0.0078536738 1.2456523
-0.43846953 0.024336219 1.245204
-0.43505993 0.066699058 1.2451451
-0.43091798 0.10548835 1.2429731
-0.45623431 0.1296344 1.247444
-0.4315846 0.12767613 1.2448959
-0.4231956 0.13336347 1.2426521
-0.41597116 0.13358733 1.2421111
