# .PCD v0.7 - Point Cloud Data file format
VERSION 0.7
FIELDS x y z
SIZE 4 4 4
TYPE F F F
COUNT 1 1 1
WIDTH 719
HEIGHT 1
VIEWPOINT 0 0 0 1 0 0 0
POINTS 719
DATA ascii
0.14414646 0.21757428 0.57332182
0.15475114 0.21959411 0.57555413
0.16490923 0.21886912 0.57365394
0.17515258 0.21866772 0.57312608
0.1832317 0.21837442 0.57235742
0.14773807 0.22120763 0.5797832
0.15328287 0.22010596 0.57689571
0.13229525 0.22309709 0.58473545
0.14468257 0.22381663 0.5866214
0.13856272 0.22685573 0.59458679
0.14097017 0.22552738 0.59110522
0.12997842 0.23046756 0.59977484
0.13142738 0.23014632 0.59893882
0.10988763 0.2328635 0.60601008
0.11180553 0.23342408 0.60746896
0.1249872 0.23182562 0.60330904
0.13533463 0.23408496 0.60918885
0.10984599 0.2363224 0.61501163
0.11723541 0.23602517 0.61423814
0.12095845 0.23514675 0.61195207
0.11398242 0.24143408 0.62389529
0.1186289 0.24578927 0.63514966
0.12912072 0.2493588 0.64437377
0.13242351 0.24897838 0.64339072
0.12822811 0.25104484 0.6487307
0.13727595 0.25144696 0.64976984
0.12991273 0.28617954 0.64832628
0.13289727 0.28652793 0.64911675
0.27704394 0.29925811 0.64990437
0.28936926 0.29919952 0.64977711
0.29275385 0.29797623 0.64865559
0.27527016 0.3027904 0.64989269
0.28597412 0.30514514 0.64952511
0.2931518 0.30621058 0.64901626
0.29366347 0.31321245 0.64949542
0.20903566 0.34570774 0.64745194
0.22255078 0.36796552 0.64323425
0.11412441 0.37824398 0.64885342
0.21015683 0.37100884 0.64548314
0.12512666 0.25367805 0.65400726
0.14365482 0.25368398 0.65670472
0.12874275 0.28772134 0.65586787
0.13398086 0.28802571 0.65387446
0.13497761 0.29128569 0.65585011
0.1449666 0.29599115 0.65623128
0.20759296 0.29836816 0.6596691
0.21263146 0.29787976 0.6585893
0.22485453 0.29804754 0.65839356
0.23459294 0.29821366 0.65734905
0.24484186 0.29903898 0.65775996
0.25553387 0.29849416 0.65600026
0.26558852 0.29866895 0.65491557
0.27450639 0.29884064 0.65334833
0.28481653 0.29876918 0.65293372
0.29371411 0.29736555 0.65353227
0.14644384 0.30494243 0.65386289
0.19859838 0.30552182 0.65960854
0.20099501 0.30432934 0.65961832
0.21607082 0.30433047 0.65875471
0.22482063 0.30365583 0.65915555
0.23542392 0.30463082 0.65812898
0.24459246 0.30576816 0.65777576
0.25471109 0.30437222 0.65549505
0.26518592 0.30444169 0.65430021
0.27475491 0.30494756 0.65269482
0.2842755 0.30549258 0.65221095
0.29259634 0.30485144 0.65105766
0.1474582 0.31334382 0.6567136
0.20838402 0.31436467 0.65933061
0.22821201 0.31549707 0.65847892
0.23511451 0.31451318 0.65838909
0.24511607 0.31441236 0.65730768
0.25512257 0.31445348 0.65627927
0.26505312 0.31411836 0.65482056
0.27569574 0.31391281 0.65406245
0.28521919 0.31454504 0.65198982
0.29267469 0.31512037 0.65221614
0.14810234 0.32645687 0.65660185
0.25879639 0.32174987 0.65975332
0.26310727 0.32153139 0.65930539
0.27605876 0.3216041 0.65840483
0.28527543 0.32311115 0.65782207
0.2952131 0.32329938 0.6571607
0.14847948 0.33577883 0.65629083
0.15004991 0.33587068 0.65927351
0.21279995 0.3375819 0.6591112
0.29704598 0.33425564 0.65962553
0.14911465 0.34489304 0.65741038
0.20889696 0.34513295 0.65811831
0.21244536 0.34837401 0.65663999
0.15011549 0.35217375 0.65956163
0.21557488 0.35239828 0.65663511
0.096693374 0.37914157 0.65039319
0.21676116 0.37815151 0.65481979
0.22540273 0.37603024 0.65554971
0.044121016 0.38202202 0.65840846
0.051124211 0.38076514 0.65624225
0.09019161 0.38159117 0.65459532
0.10437742 0.38134575 0.65417433
0.11486729 0.38365614 0.65813762
0.12116858 0.38377464 0.65834093
0.13393515 0.38272017 0.65653199
0.14147082 0.38295555 0.65693581
0.15264997 0.38184521 0.65503109
0.22026575 0.38293415 0.65998054
0.12534922 0.25688195 0.66148895
0.13461702 0.25915915 0.66502178
0.13747075 0.26028103 0.66790062
0.12682573 0.28789982 0.66452283
0.13638866 0.29171443 0.66703117
0.14560977 0.29560301 0.6615178
0.16548133 0.29914936 0.66764927
0.17553012 0.29910904 0.66632861
0.18510422 0.29918572 0.66576052
0.19502401 0.29886886 0.66504258
0.20463347 0.29894379 0.66522598
0.2152826 0.29873404 0.66375923
0.22493036 0.29833078 0.66492778
0.23531781 0.29845521 0.66547686
0.24307358 0.29891011 0.66588223
0.25368261 0.29979095 0.6628148
0.26554504 0.2997396 0.66270131
0.27521992 0.29966912 0.66254538
0.28456298 0.29906437 0.66120839
0.29351899 0.29902345 0.66111791
0.1652931 0.3045553 0.66636205
0.17497635 0.30458251 0.66508114
0.18490681 0.30529934 0.66386449
0.19518639 0.305585 0.66377509
0.20520639 0.30539748 0.66135031
0.21391189 0.30483264 0.66151869
0.22525334 0.30559868 0.66085118
0.23353787 0.30916899 0.66068929
0.24769774 0.3028526 0.66322529
0.25425822 0.30064428 0.66671538
0.26484066 0.30016851 0.66364956
0.27905065 0.30102593 0.66957438
0.28504896 0.30062687 0.66868681
0.14769916 0.31881726 0.6648941
0.15071505 0.31933644 0.66219592
0.16508646 0.31443334 0.66695368
0.17525819 0.31435135 0.66691172
0.18494262 0.3143509 0.66513777
0.19490573 0.31469917 0.66340959
0.20492773 0.31484821 0.66240835
0.21485542 0.3140586 0.6619972
0.22443439 0.31473532 0.66146511
0.23361306 0.31196433 0.6608991
0.14870785 0.32609639 0.6612848
0.15111318 0.32494968 0.66261268
0.16596922 0.3208946 0.669204
0.17432784 0.32052401 0.6684311
0.18465307 0.32012922 0.66760778
0.19798295 0.32294226 0.66967314
0.20615782 0.32586828 0.66733491
0.21557702 0.32407236 0.66770184
0.22527714 0.32521111 0.6668421
0.23494594 0.32605791 0.66663355
0.24496593 0.32535103 0.66535199
0.25472471 0.32604927 0.66504568
0.2655077 0.32668954 0.66362834
0.27449849 0.32659721 0.66298699
0.28432289 0.32707509 0.6616112
0.29537374 0.32783613 0.66215736
0.30000865 0.32622153 0.6615386
0.15350822 0.33410218 0.66649801
0.20717315 0.33447349 0.666013
0.21620139 0.33610976 0.66657478
0.2255819 0.33402833 0.66900098
0.23554969 0.33509791 0.6686421
0.24578485 0.33574158 0.66841304
0.25488567 0.33516449 0.66740006
0.26451379 0.3350974 0.66553098
0.27495801 0.33465058 0.66429895
0.2849437 0.33489919 0.66305053
0.29430231 0.33490422 0.66221142
0.30004981 0.33707091 0.66162938
0.14880136 0.34791297 0.66170061
0.15290837 0.34454331 0.66389358
0.206386 0.34369928 0.66674924
0.21478836 0.34378874 0.66577125
0.22548845 0.344551 0.66820014
0.23525062 0.34376997 0.6688813
0.24565721 0.34464148 0.66832787
0.25469658 0.34520209 0.66726404
0.2648319 0.34495139 0.66629976
0.27469587 0.34464648 0.66534829
0.28489056 0.34513885 0.6648035
0.29518709 0.34512848 0.66358805
0.14892988 0.35001597 0.66227216
0.15262285 0.35580748 0.66490281
0.20892587 0.35211584 0.66969413
0.21626157 0.35520035 0.66486651
0.22515556 0.35605547 0.66797531
0.23762557 0.3532446 0.66932142
0.24618968 0.35335198 0.66884947
0.25541005 0.35484084 0.66783774
0.26479062 0.35488403 0.66708195
0.27522823 0.35512131 0.66677779
0.28476945 0.35438803 0.66597062
0.2948584 0.35514611 0.66353577
0.15320995 0.36391547 0.66745639
0.2236122 0.36667863 0.6660555
0.23719883 0.36693743 0.66847253
0.24470298 0.36361161 0.66919965
0.25485206 0.36470172 0.66851085
0.26533726 0.3652046 0.66826564
0.27486482 0.3648288 0.66694456
0.28529355 0.36427727 0.66623926
0.099558383 0.37943965 0.6696642
0.11648523 0.37741497 0.66696811
0.12573674 0.37811309 0.66695935
0.13566823 0.3781223 0.66623342
0.14454934 0.37674326 0.66384923
0.15287912 0.37650731 0.66770297
0.22455977 0.37626341 0.66472387
0.23690496 0.37573677 0.66891825
0.24709474 0.37443352 0.66940212
0.25501978 0.37432009 0.66859335
0.26502448 0.37457716 0.66849184
0.27469519 0.37473121 0.66720217
0.28515053 0.37509093 0.66679496
0.044427671 0.38464275 0.66292524
0.070927911 0.38813278 0.66894215
0.08754538 0.38659689 0.66839027
0.094569989 0.38432604 0.66721994
0.10393093 0.3843863 0.66498864
0.11474301 0.38420713 0.66700721
0.12470461 0.38317671 0.6640991
0.13472131 0.3832832 0.66412574
0.14538479 0.38283527 0.66292256
0.15294403 0.38375318 0.66640246
0.21915999 0.38278526 0.66389292
0.22413126 0.38499579 0.66614473
0.2354427 0.38323864 0.66587412
0.24454676 0.38465598 0.66890818
0.25612232 0.38445199 0.66871732
0.26483044 0.38489863 0.66782725
0.27479729 0.38510567 0.66720206
0.28502724 0.38507399 0.66721696
0.077723846 0.39056188 0.66998398
0.21972123 0.39014262 0.66926479
0.25989759 0.39029625 0.66952831
0.26243511 0.39000514 0.66902894
0.13587017 0.26608431 0.6780566
0.1420154 0.26195771 0.67220312
0.12904231 0.28902853 0.67133814
0.13080548 0.2907134 0.67100966
0.14696002 0.29838878 0.67391264
0.17626563 0.29950964 0.67025942
0.21287601 0.29968619 0.67065448
0.22204047 0.29973626 0.67076671
0.23387815 0.29969925 0.67068374
0.24676287 0.29982907 0.67097431
0.15590957 0.30256581 0.67301303
0.16319098 0.30237341 0.67463332
0.17425166 0.30049977 0.67659628
0.18470916 0.30104351 0.67782056
0.19483437 0.30100363 0.67773068
0.20539942 0.30162793 0.67913628
0.22139053 0.30200562 0.67998672
0.24949107 0.30164242 0.6709457
0.25784642 0.3018029 0.67130268
0.26505506 0.30169141 0.67105478
0.27446073 0.3019914 0.67172182
0.15987074 0.31779876 0.67035764
0.16117343 0.31427318 0.67454302
0.14910245 0.3221269 0.67948735
0.15418214 0.32590386 0.67584354
0.16446126 0.32574248 0.67484033
0.17503463 0.32678601 0.67431128
0.18508486 0.32586423 0.67399973
0.19467519 0.32690796 0.67354459
0.20406815 0.32788992 0.67263174
0.21472934 0.32771945 0.67074585
0.22302954 0.32906061 0.67099941
0.16634001 0.33499193 0.67745662
0.17488436 0.335271 0.67699564
0.18502362 0.33448198 0.67624533
0.19458145 0.33445892 0.67387253
0.20471738 0.33550367 0.6749422
0.21516331 0.33552185 0.67337835
0.22475684 0.33621609 0.6707027
0.2340057 0.33724672 0.67067611
0.24144612 0.33493763 0.670582
0.16598214 0.34477332 0.67843705
0.17518851 0.34379804 0.6781956
0.18510023 0.34532881 0.67723632
0.19383943 0.34541717 0.67551291
0.20497243 0.34343776 0.67661548
0.21424453 0.34428987 0.67527229
0.22446272 0.34445369 0.67110181
0.23472859 0.34694013 0.67126399
0.24202369 0.34523696 0.67049384
0.15691283 0.35603225 0.67628008
0.16696379 0.35499641 0.67868787
0.1751181 0.35506546 0.67882115
0.18487395 0.35538408 0.67841929
0.19527994 0.35487792 0.67517579
0.20516512 0.35545245 0.67454064
0.2143036 0.35509181 0.67420381
0.22453506 0.35407358 0.67359537
0.23441696 0.35542887 0.67356533
0.2443683 0.35530335 0.67098063
0.15669137 0.36358514 0.67237306
0.16685452 0.36485803 0.67862183
0.17563821 0.36474255 0.67862362
0.18431191 0.3644757 0.67851353
0.19519348 0.36582345 0.67640078
0.20469426 0.36603734 0.67586195
0.21416682 0.36615548 0.67445683
0.2252849 0.36652124 0.67400718
0.23429607 0.36493754 0.67331374
0.24497634 0.36458096 0.67075974
0.25266895 0.36187574 0.67089665
0.26439688 0.36761725 0.67054033
0.27333969 0.36022162 0.67121261
0.04644756 0.37933618 0.67927015
0.056251887 0.3781637 0.67812228
0.062078752 0.37789863 0.67835033
0.075071901 0.37833613 0.67712003
0.086212873 0.3785665 0.67745757
0.095507227 0.37779662 0.67480087
0.10456133 0.37711203 0.67408675
0.11443312 0.37750116 0.67359012
0.12533426 0.37693959 0.67301506
0.1333392 0.378555 0.67458361
0.14889041 0.37842241 0.67434734
0.15550447 0.37462184 0.67384231
0.16721468 0.37451625 0.67918819
0.17517292 0.37557924 0.6785574
0.1857212 0.37459925 0.67815113
0.19506322 0.37536165 0.67613661
0.20505418 0.37491125 0.67585909
0.21484683 0.37467614 0.6750021
0.22519048 0.37483099 0.67217422
0.23457685 0.37533617 0.67243195
0.2448117 0.37514481 0.6713168
0.25386286 0.37546143 0.67124403
0.26388097 0.3798517 0.67039144
0.047454823 0.38486952 0.67670864
0.053786594 0.38643488 0.67516077
0.066530623 0.38451689 0.67671853
0.075139053 0.38466656 0.67495131
0.084516115 0.38476598 0.67348832
0.094820611 0.38250363 0.67207927
0.10670891 0.38284796 0.67283297
0.11257847 0.38377652 0.67345279
0.12347376 0.38012034 0.67086554
0.13852525 0.3801924 0.67750144
0.14733389 0.38151607 0.67986023
0.15688603 0.38511115 0.67320836
0.16695468 0.38248271 0.6793865
0.17840509 0.38733724 0.67839533
0.18554723 0.38358256 0.67870176
0.19536267 0.384168 0.67707813
0.2053884 0.38553759 0.67641956
0.21353084 0.38497597 0.67619401
0.22498761 0.38422555 0.67460865
0.23767273 0.38390785 0.67253399
0.24497499 0.38483629 0.67121309
0.254163 0.38510701 0.67145377
0.26768887 0.382815 0.67078674
0.27292079 0.38515377 0.67168546
0.04261864 0.3919726 0.67715001
0.056809403 0.39216694 0.67716539
0.06355688 0.391128 0.67728627
0.075447835 0.39245757 0.675762
0.083322749 0.39196911 0.67476344
0.095150165 0.39290386 0.67400151
0.10973932 0.39421111 0.67624402
0.15444908 0.3918159 0.67318785
0.1675168 0.39591178 0.67916143
0.17442726 0.39233455 0.67873335
0.18497942 0.39402857 0.67959213
0.19506386 0.39287385 0.67822838
0.20450979 0.39316702 0.67688429
0.21407956 0.39309609 0.67573208
0.22893444 0.39253384 0.67494601
0.23746447 0.3928619 0.67518961
0.24439798 0.39173922 0.67200369
0.25355691 0.39131254 0.67205679
0.13214323 0.26603091 0.68265522
0.14125076 0.26753309 0.68174851
0.15173496 0.26431119 0.68301255
0.13895208 0.27215934 0.68876052
0.14330798 0.27151644 0.6871475
0.13434219 0.29520279 0.68677282
0.14495845 0.30100068 0.6861335
0.15251736 0.30491367 0.6865344
0.16466741 0.30196261 0.68461961
0.17424475 0.30184063 0.68380564
0.18480527 0.30237299 0.68501174
0.19494818 0.30220166 0.68462366
0.20463012 0.30273816 0.68583912
0.21538909 0.3024981 0.6833874
0.22557606 0.3029502 0.68556172
0.23514333 0.30330285 0.68501562
0.24477458 0.30307671 0.68469435
0.25510696 0.30305043 0.68354768
0.15626025 0.3189393 0.68655986
0.15623099 0.32354212 0.68643129
0.1521672 0.33869854 0.68495822
0.16265254 0.33500201 0.68692678
0.15953596 0.34689727 0.68457937
0.16432138 0.34513676 0.68367237
0.17495738 0.34714991 0.68037522
0.2046739 0.34447291 0.68241966
0.2161973 0.34143785 0.68111759
0.15923636 0.35182741 0.68329376
0.16459741 0.35613969 0.68551695
0.17371225 0.35224134 0.68050236
0.18072891 0.35208112 0.68019164
0.20582686 0.35443148 0.68414253
0.21133195 0.35651559 0.68336844
0.15446073 0.36675352 0.68686712
0.1647573 0.36399192 0.68373674
0.17436968 0.36460012 0.68066293
0.18685549 0.36432835 0.68059182
0.19115448 0.3655051 0.68105942
0.20710984 0.36493102 0.68171525
0.21565863 0.36713633 0.6833272
0.22352135 0.36492297 0.68461078
0.23686701 0.36417747 0.68730277
0.048036341 0.3781192 0.6820876
0.055580966 0.378701 0.68512422
0.065333255 0.37868765 0.68344432
0.074715331 0.37906659 0.68421179
0.083991602 0.37838548 0.68280101
0.11437383 0.37896472 0.68192858
0.15546261 0.37773174 0.68305522
0.16462852 0.3744919 0.68329489
0.17482583 0.37278274 0.68043309
0.18432581 0.37437752 0.68085414
0.045661315 0.38356188 0.68351805
0.054800171 0.38569316 0.68379635
0.063656509 0.38589287 0.68155968
0.075057305 0.3841809 0.68298113
0.08093033 0.38065514 0.68163204
0.09205167 0.38074207 0.6884988
0.11791817 0.38142329 0.68635261
0.12179324 0.38185522 0.68712986
0.14408533 0.38271654 0.68199956
0.15439959 0.38281369 0.68660986
0.16454941 0.38466904 0.68383026
0.17478636 0.38633406 0.68157083
0.1841692 0.38592187 0.68074071
0.19004793 0.38923541 0.68041575
0.21712579 0.38665754 0.68404275
0.22366467 0.38496372 0.68269747
0.23709528 0.38513106 0.68079805
0.045064617 0.39327696 0.68511695
0.056413468 0.39402485 0.68443525
0.066436052 0.39465436 0.68246251
0.08270932 0.39698622 0.68100452
0.15717472 0.39780965 0.68241709
0.16548587 0.39387181 0.68442297
0.17422348 0.39470246 0.68146276
0.1853165 0.39277706 0.68159556
0.19005497 0.39387971 0.6804409
0.22791006 0.39808249 0.68288511
0.23568067 0.39771724 0.68386042
0.16386542 0.40054959 0.68711728
0.14768243 0.2689462 0.69013608
0.1369922 0.27385867 0.69305217
0.14236712 0.27519673 0.69168377
0.14386107 0.2812551 0.69894302
0.13324603 0.29486966 0.69814634
0.13742398 0.30121735 0.69525433
0.16595328 0.30328226 0.69369894
0.17457481 0.3027865 0.69359964
0.18516786 0.30280784 0.69483244
0.19506636 0.30272603 0.69372237
0.20471129 0.3028039 0.69456887
0.2145656 0.30327487 0.69506717
0.22565953 0.30230254 0.69434774
0.23515317 0.30310863 0.69608223
0.16419739 0.31500626 0.69644797
0.15157467 0.32558796 0.6907537
0.16423854 0.3283467 0.69662261
0.15425277 0.33956268 0.69434607
0.16275877 0.33611554 0.69569468
0.16408521 0.34793329 0.6959722
0.16374944 0.35667178 0.69454807
0.16282015 0.36687112 0.6906063
0.22895914 0.36743504 0.69166911
0.2308068 0.36850244 0.69725072
0.055641692 0.37975988 0.69011927
0.15588616 0.3720248 0.69320583
0.16292854 0.37087649 0.69106615
0.046198517 0.38313508 0.69397986
0.066270895 0.38146397 0.69321609
0.074131474 0.38306361 0.696123
0.097134911 0.38229769 0.69131184
0.10546076 0.38520774 0.69657415
0.12728694 0.38432556 0.69157517
0.13408785 0.38765889 0.69757336
0.1527784 0.38881254 0.69623935
0.22103649 0.38933393 0.69044292
0.043080483 0.39643091 0.69965172
0.13619131 0.3901521 0.69863808
0.21903811 0.3928785 0.69006741
0.22262235 0.39531666 0.69303429
0.23849472 0.39964402 0.69202584
0.038940232 0.40252298 0.69374156
0.041043229 0.4017908 0.69739181
0.078288175 0.40190858 0.69106179
0.082160242 0.40339065 0.69199091
0.22547476 0.40293822 0.69445837
0.23236053 0.40069339 0.69058824
0.13674718 0.2771894 0.70149076
0.14852406 0.27779019 0.70301062
0.15293197 0.2756595 0.7057122
0.14281976 0.28262609 0.70553571
0.13697153 0.30654123 0.70756662
0.16691904 0.30193138 0.70450807
0.17481163 0.30189201 0.70464271
0.18484324 0.30211082 0.70564401
0.19546625 0.30182832 0.70480299
0.20531748 0.30172738 0.70530856
0.2153246 0.30209708 0.70561564
0.13814731 0.31281692 0.70867199
0.15345329 0.31159553 0.70808482
0.16542198 0.32117188 0.70164216
0.16490844 0.33289078 0.70489728
0.16579276 0.34491003 0.70592868
0.046181843 0.38611186 0.70339996
0.052991539 0.38588828 0.70474172
0.079465687 0.38599819 0.70145589
0.08451727 0.38727129 0.70376939
0.11177405 0.3873964 0.7005319
0.13864721 0.38980934 0.70144296
0.043183494 0.394512 0.7013247
0.11557284 0.39056513 0.70626193
0.13864721 0.39171848 0.70144296
0.14328825 0.39397335 0.70548075
0.15280281 0.39375859 0.70509619
0.041431785 0.4084717 0.70399404
0.15827821 0.27764818 0.712466
0.13934238 0.28244969 0.7148025
0.14516217 0.28890169 0.71472311
0.15649249 0.28209865 0.71761751
0.13757168 0.29823047 0.71068323
0.14552383 0.29352802 0.71810329
0.16258958 0.29571491 0.718669
0.18405549 0.29990548 0.71467471
0.20544602 0.2998963 0.7146529
0.13855234 0.30116028 0.71074975
0.14619087 0.30977046 0.71502346
0.16744077 0.30267751 0.71433383
0.17519668 0.30069834 0.71425146
0.18478525 0.30112648 0.71470046
0.19455151 0.30134177 0.71557003
0.20493343 0.30097273 0.71490377
0.14371808 0.31073457 0.7172215
0.15645224 0.31386286 0.71695095
0.16443422 0.32355994 0.71397078
0.16505849 0.33974317 0.71664667
0.15941936 0.34703535 0.71760273
0.16760091 0.34520197 0.71583551
0.15882474 0.35838354 0.71492612
0.15828735 0.36299086 0.71250713
0.045673937 0.38897055 0.7103709
0.057380728 0.38969195 0.7116884
0.16050756 0.38596967 0.71375656
0.044016451 0.39531568 0.71485239
0.059513073 0.39097518 0.71403193
0.061769132 0.3929643 0.71766466
0.092849299 0.39417237 0.71631038
0.11932076 0.39341953 0.71142358
0.12261023 0.39780995 0.7193628
0.14828172 0.39706871 0.71102351
0.15172733 0.39849693 0.71358103
0.041900545 0.40727991 0.71195906
0.026442099 0.41377479 0.71313381
0.15628444 0.28747293 0.7241925
0.16189593 0.28810644 0.72578263
0.14656198 0.29628429 0.72484678
0.15113389 0.29622424 0.72469985
0.16430116 0.29572207 0.72428542
0.1745646 0.2991209 0.72576106
0.18406871 0.29888719 0.72559679
0.14638868 0.30315003 0.72400254
0.15329285 0.30504549 0.72692811
0.16571969 0.30384853 0.7257812
0.17492226 0.30065155 0.72112978
0.18730293 0.30050692 0.72268814
0.1467196 0.31205964 0.72560012
0.15577573 0.31439495 0.72682631
0.16549012 0.31594676 0.72521102
0.16405004 0.32002938 0.72950953
0.16796331 0.34364614 0.72074169
0.16130637 0.36793798 0.72609681
0.16217025 0.37984252 0.72998542
0.066176325 0.39592791 0.723077
0.098525271 0.39741611 0.7222051
0.1018812 0.39901608 0.72511268
0.12512442 0.39958644 0.72257525
0.042564124 0.4078247 0.72323436
0.10452184 0.40157911 0.7297703
0.12842657 0.40068126 0.72455502
0.037936501 0.41297886 0.7288568
0.042748883 0.41256005 0.72637367
0.030932516 0.4220781 0.72744447
0.16468778 0.28540134 0.73234546
0.14349394 0.2948643 0.73613262
0.15730575 0.29247358 0.73510689
0.1676755 0.29473782 0.73451602
0.14445403 0.30473936 0.73333567
0.15472814 0.30643669 0.73447812
0.16374116 0.30770454 0.73407578
0.14724639 0.31303188 0.73483437
0.15544219 0.31474379 0.7350049
0.16393812 0.31375006 0.73468113
0.16281813 0.37737054 0.73290181
0.075177141 0.40195447 0.73408329
0.08256413 0.40390718 0.73764944
0.10786954 0.40295202 0.73226523
0.11279035 0.4063167 0.73837972
0.13524938 0.40636072 0.73482531
0.035886068 0.41791308 0.73405331
0.041987713 0.41506481 0.73608029
0.029136578 0.42276743 0.73206651
0.033299185 0.42300746 0.73595673
0.041228931 0.424182 0.73451596
0.14670375 0.30843037 0.74221122
0.1478163 0.31426096 0.74526483
0.15158463 0.31314999 0.74301875
0.049735297 0.40433675 0.74212277
0.052943006 0.40568355 0.74459469
0.087615319 0.40873468 0.7464658
0.090926878 0.40993914 0.74866551
0.11679353 0.40979132 0.74469399
0.037578084 0.41805151 0.74137056
0.11953216 0.41224617 0.74915504
0.035676934 0.42508933 0.74381971
0.041744024 0.42340913 0.74369264
0.035946701 0.43075317 0.74942666
0.056469336 0.40922469 0.75109416
0.044413064 0.41327292 0.75476635
0.058699552 0.41052517 0.75348109
0.06097465 0.41204116 0.75626349
0.093709841 0.41322565 0.75466764
0.029922863 0.4321301 0.75182223
0.037085742 0.43214422 0.75184619
0.042453699 0.43472442 0.75633585
0.048086125 0.41736656 0.76412201
0.065648943 0.41554028 0.76268589
0.071267985 0.41807967 0.76734662
0.09792833 0.41807175 0.76351798
0.10116082 0.41855901 0.76440787
0.030289352 0.4353514 0.76103038
0.041007504 0.43922451 0.76780087
0.011714056 0.44408578 0.7653743
0.02110035 0.44443178 0.76597065
0.047926016 0.4240725 0.77834594
0.077304378 0.42252398 0.77550381
0.0349028 0.43710524 0.77143687
-0.00079949253 0.44819283 0.77976829
0.0013217949 0.44784704 0.77916664
0.039172016 0.44525108 0.77281696
0.043937732 0.41796347 0.78277469
-0.0029564244 0.4288075 0.78900862
0.045810364 0.42422494 0.78749841
0.055688571 0.42463031 0.78328264
0.039767545 0.43599847 0.78456593
0.041790746 0.43909511 0.78246588
-0.0093391044 0.44208843 0.78399754
0.026893515 0.44286436 0.78285694
0.043910008 0.44750783 0.7822808
0.041876003 0.45172429 0.78406221
0.034993105 0.4192788 0.7974323
0.045604181 0.41566628 0.79641342
0.018751377 0.42007449 0.79894567
0.034997772 0.42439088 0.79752988
0.045406692 0.42399773 0.79612011
-0.011647861 0.43799758 0.79595184
-0.0051458366 0.43233246 0.79549432
0.020898661 0.43255812 0.7979064
0.028367482 0.44781193 0.79414755
0.031838451 0.44890773 0.79995197
-0.011704751 0.45102149 0.79983938
-0.0062338873 0.45504457 0.79733682
0.027267423 0.45185113 0.79364926
0.033891965 0.45161355 0.79704225
0.014367893 0.46245489 0.79703313
-0.0088851321 0.4281933 0.80741739
0.017085332 0.42372641 0.80589056
-0.0015537328 0.43868417 0.8051697
0.0050286641 0.43529725 0.80701077
0.014914214 0.43573055 0.807145
0.025436429 0.43718433 0.80401355
-0.011816885 0.44655123 0.80750203
-0.0095374258 0.44275993 0.80064619
0.0035736882 0.44730633 0.80886751
0.015664153 0.44242817 0.80799979
-0.011827606 0.45795524 0.80823457
0.015118336 0.45573387 0.80819577
-0.00082521723 0.46370846 0.80485833
0.018137414 0.46134257 0.80391616
0.021067323 0.46341544 0.80434597
-0.0041851634 0.42742682 0.81822973
0.0042442097 0.42760569 0.81569016
-0.006076152 0.43481192 0.81510824
0.0050701862 0.43598819 0.8137691
-0.0045214891 0.44376215 0.81449074
0.0042910404 0.44695133 0.81627142
-0.013042068 0.45757848 0.81540322
-0.0086004511 0.45931572 0.81456846
-0.01417764 0.46063712 0.81689167
-0.0052673612 0.46455044 0.814022
0.0032886725 0.46487263 0.81597525
-0.0038047663 0.47160178 0.81662834
0.0024962954 0.47200629 0.81732881
-0.017366238 0.42761096 0.82756174
-0.014360709 0.434407 0.82743227
-0.012641016 0.44642276 0.82556176
-0.014281159 0.451682 0.82285631
-0.015452277 0.46666858 0.8255955
