# .PCD v0.7 - Point Cloud Data file format
VERSION 0.7
FIELDS x y z
SIZE 4 4 4
TYPE F F F
COUNT 1 1 1
WIDTH 107
HEIGHT 1
VIEWPOINT 0 0 0 1 0 0 0
POINTS 107
DATA ascii
-0.62767917 -0.145135 0.90660369
-0.6194784 -0.14191931 0.90184939
-0.63545275 -0.14448039 0.91495055
-0.62956494 -0.14366086 0.9129163
-0.59816825 -0.14576048 0.91051084
-0.60313463 -0.13392222 0.91428274
-0.63678145 -0.12522849 0.91436541
-0.64169073 -0.089650154 0.91961133
-0.6393829 -0.08967752 0.91989207
-0.63474792 -0.064172074 0.91322356
-0.62845802 -0.06155736 0.91131121
-0.64159578 -0.054601174 0.91947526
-0.63431692 -0.051912904 0.91619766
-0.63180405 -0.037096146 0.91979337
-0.62789786 -0.15091699 0.9269619
-0.64695704 -0.14337862 0.92715853
-0.63409758 -0.14713448 0.92436141
-0.60131049 -0.14242893 0.92101735
-0.64568526 -0.1317668 0.92533594
-0.61468834 -0.13592683 0.92796814
-0.64388829 -0.12403061 0.92534578
-0.64365602 -0.11725652 0.9251371
-0.62356603 -0.10330866 0.92990792
-0.61924094 -0.10048657 0.92722142
-0.61751151 -0.099799208 0.92087889
-0.64345998 -0.087729745 0.92575824
-0.63730145 -0.085397713 0.9277966
-0.63122785 -0.071909174 0.92753094
-0.62909734 -0.0701764 0.92687058
-0.63697177 -0.06390021 0.92365885
-0.62779748 -0.066386864 0.92681605
-0.62625927 -0.04307317 0.92534971
-0.62679452 -0.037245542 0.92347884
-0.64112699 -0.1522623 0.93522501
-0.63937581 -0.15020142 0.93825179
-0.62859428 -0.1520005 0.933617
-0.64475763 -0.1445813 0.93493569
-0.63271219 -0.14791662 0.93595523
-0.627249 -0.14465329 0.93540114
-0.60208774 -0.14157858 0.93192041
-0.64587557 -0.13156945 0.93288863
-0.63193977 -0.13947284 0.934807
-0.62132263 -0.13683166 0.93414539
-0.61727613 -0.1353641 0.93571985
-0.63716692 -0.11914451 0.93501031
-0.62536204 -0.10284316 0.93487072
-0.61465114 -0.10181646 0.93949276
-0.62428164 -0.098760113 0.93476671
-0.62340081 -0.081168108 0.93727458
-0.62545973 -0.077492237 0.93399942
-0.61410677 -0.078408241 0.93478441
-0.60613167 -0.076563209 0.93294311
-0.62457919 -0.061901413 0.93521321
-0.62030768 -0.050511762 0.93645149
-0.61637223 -0.046777129 0.93822026
-0.63493592 -0.15127268 0.94494349
-0.62822568 -0.14220998 0.94452399
-0.61554682 -0.14344919 0.9442355
-0.6071375 -0.14080147 0.94371206
-0.62138844 -0.12361298 0.94979072
-0.61084169 -0.12098701 0.94946969
-0.60340875 -0.12697367 0.94591975
-0.62436068 -0.10412764 0.94362992
-0.61826551 -0.10524981 0.94453496
-0.61486769 -0.076847695 0.94691372
-0.60634613 -0.052058935 0.949175
-0.61601317 -0.14125696 0.95550251
-0.60711569 -0.14000487 0.95580888
-0.58008063 -0.14560455 0.95842069
-0.61728776 -0.13753709 0.95678926
-0.60803473 -0.13731772 0.95521259
-0.61577296 -0.12680781 0.95632738
-0.60721862 -0.12832385 0.955971
-0.60537863 -0.1117889 0.95924008
-0.60380989 -0.10913046 0.95882136
-0.60627282 -0.087853923 0.9544819
-0.61209464 -0.15197036 0.96572042
-0.59221965 -0.15260531 0.96975529
-0.58413184 -0.15381007 0.96079361
-0.61236405 -0.14516589 0.96408504
-0.60847569 -0.14710903 0.96832383
-0.59194201 -0.14725745 0.96930069
-0.58841789 -0.14440188 0.96784347
-0.57866222 -0.14590463 0.96039599
-0.5640614 -0.14721072 0.96899301
-0.59840178 -0.12716489 0.96695006
-0.58712494 -0.10584876 0.96861124
-0.58704799 -0.098660573 0.96703643
-0.56809276 -0.15260604 0.97820389
-0.59300071 -0.14618094 0.97976756
-0.58722514 -0.14740196 0.97903013
-0.57636333 -0.14667362 0.97418272
-0.58227807 -0.1355013 0.97967321
-0.58474529 -0.11467779 0.97638601
-0.5771156 -0.11127928 0.97770089
-0.58778346 -0.10467894 0.97407383
-0.58575296 -0.15376922 0.98854446
-0.57374406 -0.1534352 0.98639584
-0.58234161 -0.1495361 0.9842996
-0.57586628 -0.14691253 0.984671
-0.5695805 -0.14970079 0.98538363
-0.57452601 -0.11416151 0.98651522
-0.56777418 -0.11501309 0.98690557
-0.57873845 -0.10917678 0.98272836
-0.57560194 -0.15633225 0.99346995
-0.56936389 -0.12129607 0.99437314
-0.56884575 -0.11659376 0.9946565
