# .PCD v0.7 - Point Cloud Data file format
VERSION 0.7
FIELDS x y z
SIZE 4 4 4
TYPE F F F
COUNT 1 1 1
WIDTH 1403
HEIGHT 1
VIEWPOINT 0 0 0 1 0 0 0
POINTS 1403
DATA ascii
-0.64195204 0.065814361 0.92358828
-0.63447958 0.063144781 0.92469299
-0.62446475 0.066079706 0.92437768
-0.63510633 0.076899752 0.92387325
-0.62269706 0.075496808 0.92523956
-0.61465544 0.078750663 0.92791951
-0.63387668 0.082919575 0.92281342
-0.62522393 0.085000128 0.92402911
-0.61672491 0.084942862 0.92660785
-0.63132393 0.09086933 0.92275065
-0.62268859 0.095307 0.92527169
-0.61351043 0.095436908 0.92723024
-0.60608041 0.097538292 0.92641801
-0.59774595 0.098664939 0.9252001
-0.63309771 0.10529204 0.92259192
-0.62440789 0.10317914 0.92368054
-0.61495805 0.1048941 0.92458361
-0.60686743 0.106433 0.92705518
-0.59508306 0.10477673 0.92577928
-0.58868515 0.10387973 0.92679286
-0.62313384 0.11909063 0.92738557
-0.61381328 0.11400796 0.92714101
-0.60320783 0.11737956 0.92715043
-0.59750772 0.11540087 0.92484295
-0.62131548 0.1230203 0.92375398
-0.61572617 0.12442652 0.92953497
-0.60423422 0.12111713 0.92359114
-0.59947157 0.12167838 0.92787099
-0.56440699 0.13629125 0.92421228
-0.56486475 0.14417383 0.92634273
-0.65082026 -0.035077948 0.93269497
-0.64461267 -0.033118457 0.93473768
-0.63247347 -0.034739785 0.93498373
-0.65124822 -0.022400012 0.93330824
-0.64660054 -0.026410716 0.93394917
-0.63498002 -0.027541358 0.93554449
-0.62896556 -0.027505739 0.9341684
-0.61527628 -0.022524491 0.93849474
-0.65386391 -0.016145878 0.93888795
-0.64597529 -0.017908867 0.93467194
-0.63706648 -0.015138535 0.93580842
-0.62705308 -0.01226282 0.9351086
-0.61649549 -0.019968327 0.9384079
-0.63543016 -0.0067408788 0.93370271
-0.62545472 -0.0078015598 0.93415511
-0.61862803 -0.0020712516 0.93009412
-0.6441167 0.0047099083 0.93690163
-0.63583559 0.0042803837 0.93432164
-0.62370598 0.0042761615 0.93391466
-0.619129 0.0013068798 0.93212122
-0.64434755 0.014436226 0.93343103
-0.63336533 0.01670864 0.93317169
-0.62678474 0.014896629 0.93597531
-0.61781126 0.016668728 0.93413377
-0.65257525 0.027243111 0.93703789
-0.64522922 0.025078982 0.93563622
-0.63466436 0.024761586 0.93508679
-0.62460703 0.023727423 0.93472409
-0.61625373 0.02381961 0.93611133
-0.64195943 0.037271988 0.93273282
-0.63744378 0.035528824 0.93571436
-0.62465256 0.034567948 0.93533802
-0.6159234 0.034923006 0.93409961
-0.64280921 0.041215397 0.93581492
-0.63396907 0.041588586 0.93468344
-0.62393373 0.044401217 0.93502361
-0.61605191 0.046818126 0.9347263
-0.60422301 0.043919872 0.93918192
-0.63252699 0.057015348 0.93379837
-0.62561911 0.055914503 0.93551236
-0.61475164 0.054332692 0.9343459
-0.6310299 0.061313413 0.93158853
-0.62403572 0.06509421 0.93386495
-0.61539966 0.066400617 0.93480551
-0.60916746 0.068884641 0.93111092
-0.62247396 0.075528979 0.93492657
-0.61498266 0.074726492 0.93505377
-0.6089052 0.07475888 0.93590486
-0.62373567 0.084174544 0.93205273
-0.61366063 0.085672431 0.93558919
-0.60960805 0.084502332 0.93567699
-0.6241107 0.096623659 0.93387747
-0.61392838 0.09329471 0.93450511
-0.6057536 0.094999231 0.93562245
-0.61164367 0.10245665 0.93684548
-0.60315585 0.10717786 0.93358332
-0.59602505 0.10525875 0.93534815
-0.58656305 0.10585876 0.93684316
-0.61179471 0.11395888 0.93707752
-0.60428035 0.11501634 0.93531954
-0.59324735 0.11409171 0.93398172
-0.58575439 0.11685132 0.93470168
-0.57088482 0.11597621 0.93621272
-0.64053935 0.1278695 0.93621999
-0.63495421 0.12751475 0.9336226
-0.6240654 0.12407035 0.93445104
-0.61292189 0.12488668 0.93297267
-0.60274106 0.12303358 0.93820059
-0.59645766 0.12083488 0.93602943
-0.58673459 0.12042625 0.93778622
-0.5747295 0.1215933 0.93693995
-0.6434831 0.13099794 0.93310815
-0.57082623 0.14101386 0.93890822
-0.57041562 0.16062219 0.93405133
-0.56697392 0.1603678 0.93257195
-0.64886063 -0.030324619 0.94275945
-0.63346577 -0.031666577 0.94468939
-0.62602413 -0.034496523 0.94470352
-0.65063709 -0.025261767 0.94534141
-0.6458165 -0.02314296 0.94281465
-0.63387483 -0.022809127 0.94324708
-0.62583137 -0.022689912 0.94534844
-0.61611813 -0.024769256 0.9460724
-0.6404115 -0.014941437 0.9435401
-0.63469762 -0.015798114 0.94354045
-0.62652278 -0.016074609 0.945288
-0.61549199 -0.015022228 0.94867432
-0.6247375 -0.0072542746 0.94530541
-0.61691868 -0.0072736973 0.94788933
-0.60777801 -0.0098174736 0.94470763
-0.65133238 0.0056085875 0.9444893
-0.64266872 0.0045061158 0.94471788
-0.63572544 0.0043087993 0.94135416
-0.62357914 0.0043183565 0.94332755
-0.61535943 0.00046929152 0.9484669
-0.62342185 0.013360754 0.94699311
-0.61968333 0.018514428 0.94718444
-0.63554811 0.024883319 0.94395941
-0.62662119 0.026132235 0.94288141
-0.61559957 0.025991064 0.9463191
-0.64076233 0.031238049 0.94217116
-0.63529974 0.032606669 0.94485605
-0.62504679 0.034462124 0.94264352
-0.61517626 0.036036301 0.94566935
-0.62214965 0.044378139 0.94898146
-0.61397237 0.045442678 0.9443531
-0.60690409 0.04287466 0.94435358
-0.63489664 0.058216535 0.94299197
-0.62570012 0.058663897 0.94329822
-0.61438501 0.057112735 0.94598174
-0.60959244 0.059531726 0.94353622
-0.62709284 0.063336566 0.94282407
-0.6132434 0.064447008 0.94377452
-0.60664779 0.066653468 0.94340348
-0.62112308 0.07478229 0.94155109
-0.6128574 0.075990193 0.94594765
-0.60657084 0.074296214 0.94844812
-0.61392897 0.08468353 0.9462778
-0.60548562 0.084255017 0.94558841
-0.6139009 0.093897939 0.9430539
-0.60715163 0.094054356 0.94640899
-0.5839569 0.093874849 0.94673699
-0.57474822 0.097390495 0.94538516
-0.61995083 0.10105299 0.94759333
-0.60484505 0.10068505 0.944143
-0.59597671 0.10477552 0.94464064
-0.5863533 0.10512987 0.94451892
-0.57233685 0.10084323 0.94562632
-0.56930923 0.10099152 0.94701684
-0.6117081 0.11337668 0.94283903
-0.60540277 0.11878327 0.94502133
-0.59285057 0.11164238 0.94551831
-0.58590633 0.11333386 0.94676763
-0.57675278 0.11613244 0.94443274
-0.56644094 0.1112435 0.94652283
-0.62498403 0.1286011 0.94157654
-0.61735296 0.12710536 0.94954729
-0.60413313 0.12379974 0.94404626
-0.58355087 0.12325712 0.94642878
-0.57735914 0.12195022 0.94965374
-0.63186908 -0.030683132 0.95390522
-0.62488306 -0.034578655 0.95395118
-0.6146093 -0.033954233 0.95466661
-0.63275653 -0.026771633 0.95328981
-0.62680912 -0.027152639 0.95147955
-0.61596036 -0.022419168 0.95581859
-0.60572809 -0.023019409 0.95910347
-0.63087809 -0.012489696 0.95240915
-0.62585777 -0.013620336 0.95379341
-0.61454558 -0.015837923 0.95523334
-0.60728168 -0.016476993 0.958125
-0.59894747 -0.012581281 0.95939302
-0.63137203 -0.0047362838 0.95708734
-0.62344033 -0.0047186152 0.95337921
-0.61524713 -0.0059263348 0.95780724
-0.60507494 -0.0060420902 0.95773029
-0.6302703 0.0056734802 0.95541728
-0.62607473 0.0050264988 0.95596111
-0.61591446 0.0044661411 0.95363486
-0.60381711 0.0030699207 0.95362711
-0.59953749 0.0043760985 0.95616955
-0.62545633 0.014345369 0.95600784
-0.6129005 0.017398749 0.95671725
-0.60500985 0.017524675 0.95568722
-0.59064007 0.018738035 0.95862401
-0.62043023 0.021295 0.95628262
-0.61290443 0.026038829 0.95538116
-0.60671908 0.027387341 0.95701718
-0.59566766 0.029037964 0.95413941
-0.62321681 0.039361335 0.95258534
-0.61459172 0.034281757 0.95559698
-0.60607445 0.036253437 0.95622528
-0.59754246 0.039549839 0.9571473
-0.62403059 0.042009033 0.95383489
-0.61474049 0.049019855 0.95553458
-0.60582972 0.045473646 0.95507604
-0.59730887 0.043810479 0.95538294
-0.613778 0.054596491 0.9560653
-0.60696548 0.056843814 0.95885479
-0.59602439 0.057638526 0.95471406
-0.58577138 0.052687809 0.95919633
-0.61028916 0.060106192 0.95264107
-0.60551465 0.063130699 0.95614189
-0.59590477 0.064257219 0.95660448
-0.58920699 0.065888919 0.95377392
-0.61217189 0.073951527 0.95288253
-0.60478044 0.074556142 0.95506775
-0.59512657 0.072339252 0.95662272
-0.61298335 0.087161817 0.95078874
-0.60430032 0.085244469 0.95435971
-0.59571517 0.087857567 0.95839471
-0.613994 0.097307943 0.95303696
-0.60393333 0.095089391 0.95321512
-0.59542686 0.095798776 0.95584136
-0.58629626 0.096376933 0.95749819
-0.55916077 0.099589922 0.95833248
-0.61952758 0.10140587 0.95090228
-0.60216981 0.10219347 0.95828784
-0.59256011 0.10437043 0.95436442
-0.58413786 0.10519595 0.9545573
-0.57597226 0.10586465 0.95778781
-0.56684113 0.10672965 0.95558906
-0.55533671 0.10259282 0.95714396
-0.59400511 0.11561982 0.95426738
-0.5850051 0.11294864 0.95370495
-0.57498753 0.1143295 0.95469618
-0.56558359 0.11463658 0.95552522
-0.55965638 0.1168623 0.95031607
-0.62689197 0.12979202 0.9502961
-0.61471587 0.12844443 0.95955104
-0.60653263 0.12576059 0.95900023
-0.59572875 0.1239452 0.95841515
-0.58735383 0.12370718 0.95329034
-0.57620639 0.12125558 0.95776951
-0.56729048 0.12208784 0.95885175
-0.6383993 0.13055854 0.95590824
-0.58171117 0.13849449 0.95681208
-0.57578611 0.15064648 0.95132524
-0.61603606 -0.031617414 0.96264249
-0.60538453 -0.03402425 0.96576732
-0.59475774 -0.033444982 0.96616739
-0.5879215 -0.032421902 0.96702689
-0.61570245 -0.026033115 0.96519595
-0.60391504 -0.024161534 0.96315956
-0.59596908 -0.024261525 0.9651491
-0.61210293 -0.01199288 0.96470588
-0.6049661 -0.014485113 0.96440977
-0.59658617 -0.016390478 0.96402538
-0.58851117 -0.017963335 0.96799684
-0.6221807 -0.0047576162 0.96167105
-0.61708677 -0.0034491643 0.96121091
-0.605753 -0.0054177367 0.96190858
-0.59735841 -0.0034639628 0.96529078
-0.58785546 -0.0037286275 0.96605891
-0.57998079 -0.0021533321 0.96695232
-0.61477411 0.0073065185 0.96455938
-0.60325539 0.0051962906 0.96377271
-0.59594107 0.0040424089 0.96419251
-0.58936352 0.00047751074 0.96507841
-0.63037968 0.010966609 0.96353376
-0.6237334 0.01468152 0.96340132
-0.61621708 0.012936578 0.96394706
-0.60443985 0.01381088 0.96495974
-0.59535152 0.015656615 0.96532863
-0.62346828 0.021534778 0.96705019
-0.616377 0.023560232 0.96378154
-0.60491204 0.02409989 0.9643743
-0.59816211 0.025430091 0.9649809
-0.60288316 0.034593504 0.96417713
-0.59775507 0.035532992 0.96590495
-0.58577716 0.037355028 0.96783257
-0.57888263 0.039789282 0.96294212
-0.60388935 0.046551205 0.96731108
-0.59509593 0.043477751 0.96727818
-0.58716536 0.045866594 0.96687579
-0.57882613 0.040057212 0.96942621
-0.61532164 0.051670577 0.96461046
-0.60467529 0.053751152 0.96496809
-0.5960058 0.053732764 0.9662708
-0.58546937 0.054407626 0.96646374
-0.60726351 0.066301554 0.96193904
-0.5929482 0.06387011 0.96379441
-0.57343972 0.066429563 0.9692412
-0.60306239 0.07635206 0.96598595
-0.59358782 0.075573109 0.96468925
-0.5866273 0.073518917 0.96533948
-0.60469121 0.083988279 0.96319914
-0.59542823 0.084617004 0.96605891
-0.58359206 0.084701337 0.96699017
-0.59436846 0.090144984 0.96895558
-0.58607095 0.094486304 0.96486372
-0.57716036 0.095191039 0.9666363
-0.55538797 0.099849835 0.96083355
-0.6007638 0.10262159 0.96230239
-0.5857088 0.10011523 0.96338743
-0.5761165 0.10355259 0.96489787
-0.564744 0.10509932 0.9639672
-0.55454141 0.10500633 0.96619076
-0.58637691 0.11023616 0.96018779
-0.57497638 0.11317575 0.96301287
-0.56378961 0.11507194 0.96514577
-0.55212122 0.11255179 0.9688648
-0.60504353 0.12626664 0.96285927
-0.59774828 0.1292935 0.96589404
-0.58327615 0.12594196 0.96371001
-0.57633656 0.12384544 0.96438181
-0.63190866 0.1316454 0.96386588
-0.59050441 0.13469791 0.96694666
-0.58412832 0.14952995 0.96078789
-0.58261573 0.15613873 0.96608776
-0.57947439 0.15561688 0.96610802
-0.56464165 0.15060975 0.96772605
-0.59413284 -0.024831204 0.97337437
-0.58721006 -0.02403501 0.97595638
-0.6036309 -0.011441233 0.97326362
-0.59531516 -0.013599411 0.97657174
-0.58518028 -0.016244108 0.97563887
-0.57890218 -0.010121813 0.97399336
-0.6033392 -0.0061585517 0.97600913
-0.59693211 -0.0048156972 0.97313488
-0.58488375 -0.0050604995 0.97353238
-0.57626259 -0.0074710799 0.97401953
-0.60024327 0.0058107455 0.97853285
-0.59454441 0.0031423441 0.97573382
-0.58731687 0.0044812676 0.97696632
-0.60385025 0.013702387 0.97147954
-0.5939188 0.014154225 0.97488713
-0.58851004 0.012447148 0.97674018
-0.57238519 0.017368559 0.97947407
-0.60417235 0.025254285 0.9748621
-0.59718561 0.025458155 0.9761548
-0.58237207 0.02975175 0.97759318
-0.57506728 0.024459094 0.97874594
-0.60077906 0.036607843 0.97595161
-0.59429234 0.034066319 0.97411424
-0.58541417 0.036259703 0.97380602
-0.57418329 0.036075927 0.97588027
-0.56815261 0.036344536 0.97602159
-0.60197508 0.046812549 0.97272408
-0.59590358 0.043647539 0.97393578
-0.58601147 0.045565911 0.97436303
-0.57547688 0.040378161 0.97719353
-0.56391549 0.043072321 0.97789288
-0.61093944 0.053289086 0.97014278
-0.60787648 0.050723553 0.97157782
-0.59630436 0.058211911 0.97297662
-0.58383292 0.054236095 0.9752332
-0.57928985 0.053782202 0.97912925
-0.59330392 0.064924397 0.97297937
-0.58594668 0.065993033 0.97497451
-0.57629323 0.064329885 0.97744685
-0.60678101 0.078520343 0.9719407
-0.58540159 0.076418348 0.97555965
-0.5749616 0.076691471 0.97901803
-0.56941313 0.077510729 0.97590375
-0.60014462 0.08531677 0.9740501
-0.59434569 0.083048157 0.97237605
-0.58299839 0.085144445 0.9771592
-0.57680964 0.084456399 0.97944266
-0.59314013 0.090561077 0.97342801
-0.58458769 0.094400033 0.97427785
-0.57546896 0.095837273 0.97618061
-0.56809306 0.096175991 0.97668481
-0.55627686 0.09902209 0.97849566
-0.58305299 0.10147846 0.9765054
-0.57554454 0.10197386 0.97280163
-0.5629372 0.1089023 0.97160316
-0.55517638 0.10584553 0.97531515
-0.54919869 0.1042685 0.97774577
-0.5643056 0.11479575 0.97422093
-0.55499554 0.11453375 0.9745031
-0.58575398 0.12748711 0.97216606
-0.57315731 0.12625131 0.97625458
-0.56601381 0.12117743 0.97463727
-0.63300616 0.13381846 0.97977638
-0.62810749 0.13334461 0.97630703
-0.59233677 0.13360541 0.97502768
-0.58441257 0.13091196 0.97140884
-0.5781461 0.13020739 0.97272122
-0.59135389 0.14640406 0.97486269
-0.58411193 0.15488411 0.97531402
-0.57661116 0.15601704 0.97686315
-0.5924288 -0.035688471 0.98458642
-0.58549565 -0.034031071 0.98638368
-0.57973135 -0.031811167 0.98897463
-0.590985 -0.028945722 0.98307407
-0.58418137 -0.02584701 0.98401135
-0.57773972 -0.02727218 0.9871068
-0.6053952 -0.011292011 0.98344862
-0.59361815 -0.011551166 0.9830057
-0.58381349 -0.014385366 0.98326284
-0.57581043 -0.014558238 0.98439974
-0.60520983 -0.0075343158 0.98226368
-0.59230673 -0.0075402823 0.98304158
-0.58223802 -0.0028595908 0.98411822
-0.57639164 -0.0048731873 0.98459131
-0.60085326 0.0071826298 0.9838928
-0.5945943 0.0055390154 0.98289245
-0.58540392 0.004597154 0.98680407
-0.5792768 0.0022769379 0.98667616
-0.56175846 0.00048775182 0.98577631
-0.59244108 0.018166186 0.98416179
-0.58513802 0.01458858 0.98388904
-0.57449502 0.015663235 0.98424959
-0.56830549 0.019217987 0.9831779
-0.60050023 0.027249571 0.98331469
-0.59408247 0.02525921 0.98414767
-0.58491176 0.025677755 0.98298472
-0.57423383 0.024001487 0.98416978
-0.56762576 0.024688499 0.98782182
-0.59197879 0.032648839 0.98472202
-0.58400011 0.034086466 0.98421431
-0.57568085 0.0322906 0.9874202
-0.56714022 0.03721378 0.98737228
-0.59959579 0.04056989 0.98183364
-0.58344042 0.045366589 0.98574436
-0.57522601 0.046697974 0.98586857
-0.565005 0.044837791 0.98417407
-0.55973929 0.045933116 0.98223305
-0.58226395 0.055126924 0.98416132
-0.57514209 0.055715907 0.98511678
-0.56700724 0.052089538 0.98744643
-0.58365119 0.062752411 0.98048627
-0.57402378 0.0654191 0.9838143
-0.56779706 0.065701 0.98462623
-0.58334929 0.073670447 0.98372984
-0.57445323 0.073592961 0.98570299
-0.56657583 0.070511468 0.98950386
-0.58222395 0.084417231 0.98410153
-0.57407361 0.083817117 0.98473525
-0.56627321 0.086866491 0.98664111
-0.55877143 0.08477553 0.98840588
-0.58160698 0.09423577 0.98418289
-0.57523888 0.094150014 0.98326737
-0.56570053 0.09523049 0.98526037
-0.54344475 0.098947242 0.98662281
-0.58297521 0.10192955 0.98084617
-0.55392283 0.10515715 0.98615569
-0.54565269 0.10587424 0.98528641
-0.53514671 0.10139421 0.98865187
-0.52864891 0.10547794 0.98908699
-0.56122845 0.11786514 0.98016495
-0.55256629 0.11478005 0.98614109
-0.54556704 0.11400541 0.98629844
-0.53633904 0.11290564 0.98344964
-0.5749042 0.12702692 0.98226613
-0.56389153 0.12217744 0.98482448
-0.6367985 0.13405542 0.98151135
-0.62840641 0.13186529 0.98510671
-0.59606934 0.136576 0.9804287
-0.58654338 0.13511235 0.9836393
-0.57975429 0.13777193 0.98901385
-0.60557038 0.14826936 0.98721719
-0.59383619 0.14477593 0.98782003
-0.5858252 0.14515315 0.98693234
-0.59367216 0.15178823 0.98680419
-0.58342159 0.15558442 0.98535764
-0.57820493 0.15315568 0.98408473
-0.5755837 -0.035922922 0.99525845
-0.56682217 -0.035016853 0.99519813
-0.58261532 -0.022752969 0.9929747
-0.57628614 -0.024886195 0.995718
-0.56541365 -0.02871269 0.99815816
-0.57486427 -0.012785055 0.99547398
-0.56979203 -0.010390763 0.9998737
-0.55542243 -0.010376514 0.99850249
-0.57591057 -0.0045902901 0.99634612
-0.56385219 -0.0041524814 0.99489248
-0.55627871 -0.0035776622 0.99760497
-0.58201069 0.008598133 0.99286306
-0.57643652 0.0048932428 0.99520653
-0.56484622 0.0045663174 0.99698228
-0.55813187 0.00049404136 0.99848777
-0.58123809 0.011285423 0.99154502
-0.57273209 0.013571533 0.99396652
-0.5673641 0.014859083 0.99610102
-0.5474779 0.019524965 0.99888271
-0.57275385 0.026141295 0.99204618
-0.56797099 0.024867397 0.99509478
-0.57341933 0.032206573 0.9947077
-0.56529105 0.03379827 0.9960683
-0.55871516 0.030272009 0.99468809
-0.58294278 0.043696512 0.99214983
-0.56484747 0.044365063 0.99500316
-0.55692464 0.046704307 0.99876046
-0.57177317 0.057161637 0.99151444
-0.56508327 0.055579159 0.99339247
-0.55901563 0.057515033 0.99764442
-0.57289994 0.060870636 0.99700129
-0.56469899 0.064390555 0.99605048
-0.55867279 0.063059911 0.99945551
-0.57255948 0.075280987 0.99464387
-0.56421196 0.074785143 0.99518073
-0.55788356 0.079269171 0.99804354
-0.58211029 0.086979479 0.99303299
-0.57456923 0.084354438 0.99403465
-0.5654496 0.085920498 0.99384236
-0.55849022 0.084628165 0.9971922
-0.56428427 0.095404975 0.99353993
-0.55728292 0.091091141 0.9985882
-0.54413199 0.098253272 0.99773234
-0.55626166 0.10178772 0.99516296
-0.54334736 0.10517558 0.99258196
-0.53522635 0.10458518 0.99438453
-0.52724367 0.10871309 0.99405324
-0.54428786 0.11941755 0.99307483
-0.53538954 0.1147243 0.99591291
-0.52617937 0.11283655 0.994596
-0.57466674 0.12661314 0.99653661
-0.56277448 0.12261338 0.99708349
-0.55361843 0.12268932 0.99770099
-0.54925197 0.12262373 0.99716771
-0.53711206 0.12022986 0.99982989
-0.60046548 0.13882627 0.99658251
-0.59816462 0.13528684 0.99052745
-0.58668131 0.1363533 0.99436629
-0.60524547 0.14480454 0.99108607
-0.59505594 0.14533091 0.99338549
-0.58584768 0.14585589 0.99365103
-0.60094684 0.15452707 0.99289632
-0.5938713 0.15139873 0.9901107
-0.58440417 0.15469399 0.99050725
-0.58194339 -0.033595353 1.0020534
-0.57302701 -0.035005387 1.0031736
-0.56443596 -0.03460658 1.0048732
-0.55290371 -0.033822216 1.0087821
-0.58082271 -0.029447731 1.0001236
-0.57402021 -0.024364455 1.0039529
-0.56468356 -0.025263589 1.0053284
-0.55804151 -0.025466807 1.0044562
-0.57478857 -0.015936125 1.006242
-0.56464994 -0.011818206 1.0052592
-0.55713862 -0.013227085 1.0084959
-0.5742082 -0.0060502812 1.0018805
-0.5635848 -0.0056320005 1.0009314
-0.55575979 -0.0061459141 1.0054599
-0.54758233 -0.0049838005 1.0070764
-0.57495654 0.0041339202 1.0025512
-0.56189793 0.0051864483 1.0052356
-0.55464184 0.0047369152 1.0074179
-0.57140923 0.01964682 1.0051167
-0.56434429 0.01539714 1.0033879
-0.55512249 0.015366515 1.0047345
-0.54807669 0.016907226 1.0049657
-0.57177204 0.022396743 1.0057579
-0.56539237 0.025359977 1.0057658
-0.55516505 0.024213653 1.0054142
-0.54927969 0.024177309 1.0038388
-0.56479758 0.03822748 1.0045433
-0.55589497 0.036075611 1.0053793
-0.54852241 0.0325674 1.0057912
-0.56468618 0.045115635 1.0037024
-0.55615157 0.04420007 1.003503
-0.5633477 0.053604234 1.0043352
-0.55545974 0.056529064 1.0077246
-0.54855371 0.056003809 1.0070978
-0.56443071 0.064484887 1.0034937
-0.55606157 0.064741552 1.0060954
-0.54688931 0.065123193 1.0046169
-0.56286848 0.075165108 1.0037102
-0.55566823 0.075174905 1.0056318
-0.54776901 0.071932048 1.0094392
-0.56073958 0.087865882 1.003153
-0.55489063 0.085252166 1.0045279
-0.54824108 0.084386148 1.0072807
-0.56359923 0.097149149 1.0050056
-0.55445439 0.094486415 1.0043314
-0.54542696 0.095185064 1.0068111
-0.5339244 0.096675269 1.0049309
-0.52962881 0.09635748 1.0062933
-0.51660496 0.098026752 1.0065336
-0.56212723 0.10127547 1.0007626
-0.53369075 0.10550117 1.0046772
-0.52550775 0.10570638 1.0059063
-0.51873159 0.10267463 1.0011196
-0.53487384 0.1155999 1.0039368
-0.52895236 0.11446687 1.005008
-0.58032805 0.12892617 1.0039771
-0.57374072 0.12654881 1.0068028
-0.56275904 0.12320413 1.0018874
-0.55905277 0.12298866 1.0001353
-0.63562071 0.13395067 1.0006856
-0.62834704 0.13502131 1.0086839
-0.61208206 0.14507577 1.0022799
-0.60625613 0.14258058 1.0039186
-0.59346694 0.14586429 1.0077276
-0.58896118 0.14203493 1.0000767
-0.60406578 0.15330203 1.0025579
-0.56420821 -0.036077041 1.0143032
-0.54706156 -0.033209074 1.015282
-0.57135284 -0.02154029 1.012282
-0.56044161 -0.025219886 1.0124795
-0.55638123 -0.026467979 1.016402
-0.57200527 -0.01742734 1.0134436
-0.56584448 -0.01775323 1.0162423
-0.55410635 -0.015364589 1.0135013
-0.54555786 -0.01350827 1.0148273
-0.55601543 -0.0044544269 1.0114477
-0.54735273 -0.0055818581 1.0158103
-0.56125569 0.0046421802 1.0139503
-0.55303544 0.0049226871 1.0145769
-0.54597396 0.0038307176 1.0183967
-0.53934288 0.0060538868 1.019478
-0.55324244 0.016362745 1.0131887
-0.54788518 0.013522345 1.0147499
-0.56221515 0.028008858 1.0107139
-0.55429107 0.026398597 1.0123307
-0.54961294 0.028067697 1.0128372
-0.5626604 0.033599447 1.0134987
-0.55540764 0.035674568 1.0133684
-0.54680455 0.035805523 1.015023
-0.55309123 0.044933513 1.015015
-0.54300833 0.046586074 1.0159535
-0.53742743 0.047262374 1.0106579
-0.56147814 0.052029625 1.0143681
-0.55410314 0.052254777 1.0141454
-0.54545486 0.055132397 1.0162293
-0.53801239 0.05448316 1.0169725
-0.56190127 0.066483997 1.0101497
-0.54518282 0.064923219 1.0158905
-0.53589183 0.064546518 1.0175362
-0.55308288 0.076607645 1.0131391
-0.54473013 0.074705288 1.0135061
-0.55274588 0.080298632 1.0110049
-0.54506719 0.084702052 1.0130671
-0.53830618 0.087655596 1.0133601
-0.56532329 0.0995946 1.0113531
-0.54333991 0.093692541 1.0107856
-0.53446305 0.09361098 1.0147388
-0.52635396 0.094671294 1.0176097
-0.53433019 0.10260484 1.0139196
-0.5243963 0.10440365 1.0152637
-0.51757568 0.10447241 1.0159686
-0.53115362 0.11385015 1.0157599
-0.52613693 0.11633515 1.016016
-0.5173586 0.11163576 1.0144674
-0.55624658 0.12480201 1.0148813
-0.54404414 0.12347691 1.0152955
-0.5355382 0.12204327 1.0149102
-0.64213324 0.13649285 1.019677
-0.63900113 0.13582948 1.0147214
-0.62529248 0.13861099 1.0148658
-0.59385741 0.13623759 1.0177983
-0.62208003 0.14678326 1.0141317
-0.61236322 0.14094034 1.0117587
-0.59630531 0.14447375 1.0172485
-0.55096209 -0.030045977 1.0204417
-0.54460764 -0.033837974 1.0231249
-0.56119955 -0.024574706 1.023918
-0.55464453 -0.024980797 1.0243158
-0.54529858 -0.0243949 1.025471
-0.53827447 -0.027400509 1.025377
-0.54339659 -0.015953869 1.025039
-0.53558475 -0.01395232 1.0253323
-0.54569614 -0.0044469135 1.0244707
-0.55075836 0.0023621235 1.0235076
-0.54442012 0.0049607507 1.0227736
-0.53604329 0.005891324 1.0256983
-0.52727175 0.0089059295 1.0284055
-0.55212778 0.019988574 1.0226007
-0.5449605 0.015289945 1.0248369
-0.53572005 0.014124712 1.0265068
-0.55185193 0.02421236 1.0246813
-0.54565477 0.023148209 1.0255475
-0.53554052 0.024697311 1.0254879
-0.5292927 0.021469986 1.026896
-0.54435253 0.035610955 1.0259435
-0.53604698 0.031980183 1.0277913
-0.55090535 0.045051582 1.0229173
-0.54430199 0.044094149 1.0249
-0.53589386 0.045178119 1.0258688
-0.52838242 0.047939144 1.0251299
-0.5462088 0.053354055 1.02194
-0.53471398 0.055087168 1.0246725
-0.52902073 0.053675652 1.0281808
-0.54494482 0.065106392 1.0208768
-0.53300363 0.065669253 1.0247643
-0.52713001 0.064868711 1.0281332
-0.54269332 0.074604876 1.0225278
-0.53594047 0.073828951 1.0262535
-0.52800035 0.073868178 1.0287353
-0.5420599 0.083374985 1.0246286
-0.5353263 0.085613251 1.0267726
-0.52788359 0.081559092 1.026875
-0.53351802 0.095196269 1.023211
-0.52517927 0.095465563 1.0261397
-0.5146901 0.097680666 1.0201118
-0.53461039 0.10081095 1.0237048
-0.52386039 0.10563053 1.0231216
-0.51410133 0.10503913 1.0260901
-0.50507468 0.10599343 1.0266725
-0.49807176 0.10382073 1.0259138
-0.53177536 0.11165249 1.0209306
-0.52700353 0.11545693 1.0238252
-0.51633269 0.11587249 1.0275397
-0.50306451 0.1151737 1.0275552
-0.53328562 0.1231159 1.0238302
-0.52736908 0.12057053 1.0258825
-0.60156018 0.13736773 1.0262129
-0.59870303 0.13949507 1.0213388
-0.58680046 0.1312914 1.0223956
-0.65512264 0.14026661 1.0269878
-0.63285762 0.14308357 1.0271442
-0.59627169 0.14235806 1.0219361
-0.53579801 -0.033450093 1.0320896
-0.52705878 -0.035548519 1.0351495
-0.53629297 -0.024408616 1.0350273
-0.53357774 -0.016383298 1.0346692
-0.5430814 -0.0055154851 1.0333836
-0.53576708 -0.0059802192 1.0372761
-0.53392291 0.0037337306 1.0351117
-0.52741987 0.0089800004 1.0369589
-0.54377383 0.014547053 1.0313931
-0.53387111 0.01550836 1.0330546
-0.52622402 0.014593999 1.0346137
-0.55054933 0.028545033 1.0300621
-0.54541159 0.028569605 1.0309488
-0.53205478 0.025329022 1.0322607
-0.52735966 0.0247602 1.0357379
-0.54353064 0.035406306 1.033794
-0.53437078 0.035695083 1.0340208
-0.52730608 0.032434493 1.0348982
-0.54000121 0.048229273 1.031334
-0.53476226 0.042793419 1.0356883
-0.52530122 0.044917479 1.0360303
-0.54225892 0.050984632 1.0302905
-0.53123605 0.056843664 1.034776
-0.52589148 0.054095905 1.0361831
-0.5251506 0.064966299 1.0346514
-0.54152352 0.079123661 1.0315609
-0.53393221 0.076289989 1.0312293
-0.52670431 0.075204857 1.0355542
-0.53240842 0.085637949 1.0311253
-0.52632934 0.085615061 1.0353764
-0.51868975 0.087959588 1.0364282
-0.53441775 0.090499751 1.0332235
-0.5250532 0.093771562 1.0359297
-0.51704377 0.096291423 1.0350308
-0.50532711 0.099112555 1.0350654
-0.49904507 0.099544324 1.0395746
-0.52261209 0.10764171 1.0358131
-0.51541322 0.10310083 1.0326935
-0.50391281 0.10445531 1.0321623
-0.49928319 0.1029765 1.0361569
-0.52257419 0.1132741 1.0357361
-0.51550972 0.11528757 1.0341382
-0.50693709 0.11511502 1.034241
-0.56308377 0.12696652 1.032483
-0.55396783 0.12724045 1.0347104
-0.54432219 0.12718028 1.0342212
-0.53406036 0.1245985 1.0361595
-0.52912235 0.12193859 1.0375228
-0.5881089 0.1303405 1.0369688
-0.57169265 0.13045864 1.0379088
-0.65796149 0.14147808 1.0358577
-0.60256451 0.14543205 1.0339351
-0.53302026 -0.030692037 1.0423837
-0.52372932 -0.03449994 1.043198
-0.5324868 -0.025737794 1.0427283
-0.52611983 -0.025335545 1.0438982
-0.51909018 -0.027945096 1.0457565
-0.5317241 -0.015093893 1.0426269
-0.52527684 -0.01465096 1.044862
-0.51717019 -0.015778016 1.0476385
-0.53302217 -0.0040987693 1.0430944
-0.52454126 -0.0051716235 1.045272
-0.51848298 -0.0051803919 1.0468349
-0.53352463 0.0016496796 1.041707
-0.52544516 0.0047835889 1.0442508
-0.5178442 0.0040778299 1.0454088
-0.52356446 0.014333432 1.0449513
-0.51840705 0.014192459 1.0466801
-0.52396327 0.024243675 1.0460305
-0.5172534 0.027611269 1.0478014
-0.53240818 0.037454464 1.0439657
-0.52373803 0.034853224 1.0441642
-0.51808667 0.035683844 1.0475672
-0.53317797 0.041155167 1.0417724
-0.52252531 0.044504106 1.0426782
-0.51679546 0.04504877 1.0463537
-0.5307343 0.057163827 1.0406835
-0.52360624 0.055219706 1.0441303
-0.51679194 0.05417674 1.046876
-0.5228287 0.064149663 1.0454791
-0.51542729 0.066355646 1.0466734
-0.5243845 0.074774079 1.0442568
-0.51732337 0.073763683 1.0450726
-0.50925374 0.077602223 1.0489461
-0.5243535 0.082631022 1.0449047
-0.51866549 0.085358672 1.0460496
-0.5160203 0.095669471 1.0435896
-0.49579814 0.099745274 1.0416732
-0.50342375 0.10582617 1.0457323
-0.49363604 0.10342299 1.0461042
-0.48822463 0.1050613 1.0451853
-0.52480644 0.11941779 1.0401623
-0.50444365 0.11427177 1.044906
-0.49548891 0.11379173 1.0470181
-0.56494534 0.1280252 1.041092
-0.53357899 0.12472239 1.0490606
-0.60686868 0.13798106 1.0449827
-0.66843259 0.14596835 1.0478529
-0.65916288 0.14265412 1.0444682
-0.60509539 0.14797755 1.041919
-0.52137619 -0.03316053 1.0532563
-0.5170607 -0.035406347 1.0561517
-0.5240559 -0.024161603 1.0546001
-0.51622647 -0.025986094 1.0560875
-0.50830907 -0.02253169 1.0588727
-0.52496636 -0.019572232 1.0546961
-0.51510406 -0.01457681 1.0565677
-0.50555682 -0.014355577 1.058145
-0.51416272 -0.0054565743 1.0541495
-0.50591141 -0.0081297169 1.0598873
-0.5201984 0.0062575033 1.0537671
-0.51401591 0.0050284164 1.0541245
-0.51563394 0.014888787 1.0555208
-0.50844038 0.013924312 1.0551634
-0.52144742 0.023393201 1.0505054
-0.51632679 0.02471789 1.0561302
-0.5000459 0.026481746 1.0596837
-0.49691027 0.025026023 1.0591477
-0.51538068 0.035019178 1.0562018
-0.50487769 0.035419121 1.0560019
-0.51276481 0.044298571 1.054713
-0.50656831 0.045464866 1.0567478
-0.51400173 0.055041827 1.0543025
-0.50875044 0.056611385 1.0568027
-0.49669689 0.056712661 1.0586927
-0.51453501 0.063985184 1.0550979
-0.5060606 0.064723365 1.0547405
-0.51355761 0.074959897 1.0519141
-0.50629628 0.074564703 1.0553519
-0.48826712 0.078357741 1.0591584
-0.51542085 0.084811434 1.0533861
-0.50707948 0.086228803 1.0540767
-0.51504558 0.094532259 1.0558109
-0.50563091 0.095353737 1.05586
-0.49881768 0.098061576 1.0540498
-0.50198567 0.10816563 1.0546705
-0.49482009 0.10556717 1.0526657
-0.48564845 0.10634971 1.0566052
-0.47944897 0.10282516 1.0587831
-0.5052371 0.11653055 1.0524626
-0.49415678 0.11348014 1.0540664
-0.54778641 0.12932594 1.0516696
-0.53187239 0.12423043 1.057023
-0.52429175 0.12413871 1.0562427
-0.51958585 0.12438773 1.0583614
-0.50639343 0.12076592 1.0519049
-0.66832542 0.14688578 1.0544388
-0.65995091 0.14375377 1.0525196
-0.61268497 0.14121947 1.0549875
-0.51339048 -0.034849174 1.0634409
-0.50600618 -0.034293346 1.0661713
-0.51458734 -0.025089689 1.0624943
-0.50667703 -0.025997985 1.0658391
-0.51208651 -0.013206406 1.0622301
-0.50476485 -0.016467679 1.062796
-0.49614498 -0.01694289 1.0699303
-0.51126766 -0.0023650567 1.0620271
-0.50506806 -0.0052671689 1.064715
-0.49903819 -0.0043140678 1.0678191
-0.51151633 0.0034154519 1.0625439
-0.50541627 0.0047938009 1.0656598
-0.49610695 0.0069072391 1.0660976
-0.51348543 0.017896038 1.063652
-0.50718033 0.013593284 1.0666178
-0.49621731 0.01214378 1.0669608
-0.51388931 0.024014853 1.0622241
-0.50584239 0.025459154 1.0634737
-0.49661869 0.026321277 1.0660925
-0.51353854 0.035169356 1.0607433
-0.50202203 0.034861621 1.0638825
-0.49505883 0.035396267 1.0675881
-0.48904634 0.032477267 1.0671492
-0.50410557 0.045781057 1.0658406
-0.49897584 0.044202901 1.0697563
-0.51420593 0.055446714 1.0621387
-0.50505078 0.055513486 1.0633891
-0.49561456 0.054946993 1.0664433
-0.50295395 0.065509357 1.0638045
-0.4949435 0.064706765 1.0644668
-0.50355339 0.076718293 1.0630347
-0.49571434 0.075037815 1.065259
-0.48715496 0.078878358 1.0661955
-0.50641781 0.083781749 1.063998
-0.49432799 0.083024815 1.0672604
-0.48931894 0.08189901 1.067744
-0.51286578 0.097387873 1.0623418
-0.50334084 0.093297027 1.065148
-0.49804878 0.094974056 1.0677774
-0.48395729 0.099428147 1.0687389
-0.4790906 0.09932439 1.0676236
-0.49105865 0.10169947 1.0620816
-0.48391926 0.10419603 1.0654563
-0.47801876 0.10200135 1.0652342
-0.50069338 0.11892861 1.0610558
-0.49644923 0.11874495 1.0659053
-0.48660216 0.11227052 1.061819
-0.5416109 0.12839234 1.067709
-0.50600827 0.12170564 1.0600902
-0.65665865 0.14524515 1.063439
-0.50196248 -0.034557182 1.074376
-0.50434822 -0.024737202 1.0765736
-0.49511513 -0.024386615 1.0771911
-0.48848954 -0.022954607 1.0787476
-0.50259846 -0.015528387 1.0728344
-0.49670756 -0.014941981 1.0756577
-0.5004999 -0.0082304776 1.0730237
-0.49832237 -0.0053209467 1.0746258
-0.50220901 0.0092699602 1.0704417
-0.49571186 0.0041140122 1.0760332
-0.50441027 0.015946425 1.0715868
-0.49569437 0.016142104 1.0752856
-0.49402672 0.024519626 1.0748382
-0.50147694 0.034603275 1.0730352
-0.49544317 0.036759939 1.075532
-0.48758307 0.034864113 1.076756
-0.50420344 0.045294639 1.0726207
-0.49842706 0.044831324 1.074859
-0.4946804 0.053180154 1.0746669
-0.48349032 0.055328965 1.0785129
-0.47884285 0.059151072 1.0768619
-0.49284789 0.065657631 1.0754513
-0.4837029 0.063611165 1.0778947
-0.47931144 0.062142737 1.0779157
-0.50203836 0.079165585 1.070078
-0.49396834 0.073783249 1.0766113
-0.48835579 0.076733097 1.0768373
-0.50426692 0.086258948 1.0737906
-0.49536258 0.087385111 1.0756269
-0.48686039 0.084559277 1.0751563
-0.50226134 0.090855718 1.0705533
-0.49520499 0.095340997 1.0742245
-0.48595867 0.095157653 1.0753124
-0.47761297 0.099926531 1.074096
-0.49322596 0.10012874 1.0762695
-0.48640084 0.10431184 1.0741305
-0.47579178 0.10605077 1.0741979
-0.4939802 0.11718854 1.0715513
-0.48494488 0.11344571 1.0755469
-0.47812068 0.11173872 1.0752378
-0.52726072 0.12692876 1.0799819
-0.51895821 0.1263417 1.0749869
-0.50869501 0.12305351 1.0718305
-0.50132418 -0.035828613 1.083226
-0.49536985 -0.034633268 1.0850588
-0.48832235 -0.035004348 1.0881898
-0.50357342 -0.024980133 1.0817168
-0.49288437 -0.025020421 1.0833999
-0.48862949 -0.026095971 1.0872257
-0.49346432 -0.013845683 1.0840428
-0.4880504 -0.015741805 1.0875881
-0.47558054 -0.017253291 1.0895318
-0.49478084 -0.0055957204 1.0841374
-0.48559341 -0.0045299283 1.0854112
-0.49359158 0.0044626393 1.0820731
-0.48622167 0.0061726323 1.0856112
-0.47869185 0.0094381562 1.089864
-0.49229342 0.014288653 1.0828176
-0.48135948 0.014598317 1.0875138
-0.47873819 0.012405657 1.0899695
-0.49218357 0.024140032 1.0841274
-0.48563132 0.024790144 1.0868095
-0.49055448 0.030020574 1.0833077
-0.48516998 0.034025628 1.0855567
-0.4938322 0.044442717 1.0827391
-0.48422441 0.044856802 1.0856574
-0.4746556 0.044037621 1.0896767
-0.46983981 0.042071659 1.0899727
-0.49266961 0.055765573 1.0842602
-0.48482996 0.053625256 1.0837011
-0.47690853 0.056027096 1.0858154
-0.49245378 0.067358576 1.0831618
-0.48497874 0.066231959 1.083105
-0.47724575 0.062642552 1.0865854
-0.49466395 0.071466893 1.0858593
-0.4850665 0.07438983 1.0854355
-0.47759253 0.07452523 1.0873611
-0.4835763 0.084345497 1.0857062
-0.47656986 0.083484933 1.088408
-0.48600331 0.094263799 1.0846654
-0.47455037 0.10437295 1.0849196
-0.46389508 0.10611746 1.0876338
-0.4811089 0.11573686 1.0852869
-0.47358996 0.11275256 1.0849869
-0.46833143 0.11290634 1.0864735
-0.52527583 0.12787673 1.0880477
-0.5113585 0.12513301 1.0899435
-0.50994676 0.12406781 1.0806653
-0.4840256 -0.035571396 1.0943824
-0.48513445 -0.024565773 1.0943673
-0.4776229 -0.022687931 1.094221
-0.49074358 -0.011330256 1.0902784
-0.48488531 -0.013898429 1.0923601
-0.4753395 -0.014348296 1.0941156
-0.46619618 -0.017345458 1.0953522
-0.48353046 -0.0058478904 1.0960352
-0.4763602 -0.0050545484 1.0973068
-0.48334387 0.0031839146 1.0929401
-0.47681218 0.0065130224 1.0974891
-0.49139747 0.015398232 1.0917313
-0.48734674 0.015995977 1.0919739
-0.47918841 0.015431359 1.0943964
-0.48226056 0.025867168 1.0946058
-0.47643393 0.022419568 1.0960591
-0.48398757 0.035989214 1.0944721
-0.47473845 0.03677047 1.0978713
-0.47599974 0.045575626 1.0939238
-0.46956238 0.042313989 1.0962509
-0.47478232 0.054200977 1.0953953
-0.46863192 0.056246888 1.0964069
-0.48179466 0.068783656 1.0901729
-0.4743847 0.065014154 1.0946081
-0.46498352 0.066569366 1.097193
-0.48355752 0.077729903 1.0908018
-0.47556004 0.074968293 1.093839
-0.46548936 0.075202391 1.0972068
-0.45918366 0.075389981 1.0999783
-0.48281416 0.089743726 1.0924867
-0.47484744 0.083964504 1.0946971
-0.46469912 0.08129517 1.0988636
-0.48529083 0.094896644 1.0947187
-0.47567344 0.095447943 1.0954332
-0.46485221 0.096100762 1.097205
-0.45835578 0.098840162 1.0944369
-0.4731645 0.10397395 1.0947397
-0.46519244 0.10427405 1.094166
-0.45650086 0.10604548 1.0949869
-0.50033778 0.11940173 1.0917883
-0.47604412 0.1165448 1.092863
-0.46768388 0.11172241 1.0941895
-0.50917178 0.12532496 1.0916154
-0.48272121 -0.032460801 1.1024555
-0.47475886 -0.035234988 1.1039313
-0.48092255 -0.029441912 1.10177
-0.47444209 -0.025322435 1.103338
-0.46799698 -0.024569901 1.1074641
-0.47179377 -0.01246992 1.1038034
-0.46752641 -0.014511086 1.1067452
-0.47279572 -0.0059683286 1.104979
-0.46559137 -0.0051383171 1.1057185
-0.47390106 0.0040999996 1.1044807
-0.46613285 0.0035651072 1.1079537
-0.48077056 0.01853152 1.1014218
-0.47516528 0.015264983 1.1037281
-0.46872672 0.016817009 1.1069726
-0.48064518 0.027517617 1.1011347
-0.47420987 0.02552373 1.1012727
-0.46641478 0.024890464 1.1043482
-0.48155504 0.032771379 1.1015025
-0.47375494 0.034094937 1.1037152
-0.46442011 0.031435162 1.10711
-0.47222772 0.046374731 1.1042373
-0.46599942 0.047463585 1.1070383
-0.47447389 0.051474188 1.1007233
-0.46492413 0.0543558 1.1039267
-0.46429095 0.06285052 1.1032434
-0.45789427 0.068737149 1.1053163
-0.47146279 0.078434356 1.1006876
-0.46144459 0.072516561 1.1018076
-0.45731774 0.076146469 1.1047816
-0.47279924 0.086166233 1.103814
-0.46460637 0.085875578 1.1048759
-0.45792374 0.08195632 1.1078002
-0.48474503 0.09741728 1.103651
-0.47450295 0.094764948 1.1034083
-0.46449843 0.093482919 1.1065439
-0.45643291 0.099393554 1.1005645
-0.44007349 0.099759229 1.1046135
-0.46456259 0.10852945 1.1020839
-0.456424 0.10372447 1.1041732
-0.4427464 0.10303713 1.1075313
-0.43879288 0.10015315 1.1089753
-0.47193116 0.11636242 1.1053044
-0.46600276 0.11223726 1.1090825
-0.45847082 0.11150695 1.101866
-0.51234472 0.12571067 1.108119
-0.50175238 0.12081698 1.1047289
-0.4701246 -0.035758447 1.1116912
-0.46673974 -0.033824313 1.1144565
-0.46334314 -0.025093738 1.1145792
-0.4637731 -0.014633204 1.1158297
-0.4559378 -0.016178917 1.1177152
-0.46150467 -0.0067212158 1.1128038
-0.45739719 -0.003700813 1.1160846
-0.47168973 0.0035761748 1.1118197
-0.46455899 0.006002658 1.1128626
-0.45704433 0.0051130434 1.1167052
-0.47014344 0.012653394 1.1117358
-0.46483663 0.014972148 1.1153493
-0.4560723 0.015244076 1.1167949
-0.46275818 0.02431207 1.1146033
-0.45676857 0.024872892 1.1169573
-0.47176945 0.035356913 1.1120038
-0.46404281 0.036289535 1.1148568
-0.45881072 0.03519487 1.1165626
-0.47033074 0.042928785 1.1121787
-0.46399316 0.04395619 1.1127005
-0.45719731 0.045741871 1.1161542
-0.46071923 0.05582612 1.1127343
-0.45525622 0.05500409 1.1170592
-0.44918841 0.052368265 1.1198422
-0.46074086 0.062305279 1.115844
-0.45784324 0.066370666 1.1161797
-0.45411664 0.076491438 1.1160467
-0.46179828 0.086924337 1.1135015
-0.45576808 0.085178196 1.1154422
-0.46344125 0.092606269 1.1150241
-0.45865685 0.093874291 1.1150782
-0.44432354 0.09802223 1.1191067
-0.4574514 0.10854428 1.1176904
-0.44427741 0.10432872 1.1132785
-0.43837112 0.1007499 1.1155831
-0.47039711 0.11256648 1.1123357
-0.45825693 0.11255902 1.112262
-0.49765211 0.12239538 1.1191617
-0.48206234 0.12230415 1.1183275
-0.46201324 -0.031595562 1.1251025
-0.45514005 -0.034797281 1.1258749
-0.46136427 -0.026965328 1.1235245
-0.45695734 -0.023559624 1.1249088
-0.45462781 -0.013452233 1.1257863
-0.45632696 -0.0061712791 1.1239208
-0.45493788 0.0051544458 1.1265318
-0.46367586 0.018872801 1.121706
-0.45344165 0.016287711 1.1239227
-0.4534139 0.025087519 1.1265566
-0.44982189 0.028216043 1.1290827
-0.45394787 0.034249358 1.1253718
-0.4459084 0.034960385 1.1285113
-0.45412287 0.043675322 1.1216819
-0.44521123 0.045900799 1.1247386
-0.43649423 0.044603601 1.1290549
-0.45013142 0.055532493 1.1221931
-0.44477031 0.055980362 1.1264811
-0.45466614 0.064516865 1.1243569
-0.44779027 0.062902682 1.1265546
-0.45362243 0.072803445 1.1248027
-0.44729242 0.07661213 1.1253245
-0.4373818 0.074286565 1.128701
-0.45356923 0.087364018 1.1256837
-0.44828326 0.084970854 1.1277902
-0.45559168 0.095423087 1.1243663
-0.44343162 0.096795022 1.1284703
-0.456743 0.1046349 1.1246982
-0.44223779 0.10623426 1.1254361
-0.4391728 0.10470113 1.1254183
-0.47723711 0.11842893 1.1248916
-0.45652565 0.11159682 1.1229076
-0.44681376 0.11044523 1.121538
-0.50327474 0.12265252 1.1215129
-0.49469221 0.12279458 1.1228119
-0.48757839 0.12254315 1.120513
-0.45112267 -0.035860807 1.1339031
-0.4480662 -0.033459149 1.1363254
-0.43697444 -0.030454298 1.1396554
-0.45407265 -0.024171075 1.1358843
-0.44591221 -0.024230657 1.1387153
-0.45190468 -0.015676502 1.1362538
-0.44671947 -0.013051438 1.1368427
-0.43533534 -0.011840998 1.1394256
-0.45282087 -0.0059251203 1.135078
-0.45319095 0.0051882458 1.1336738
-0.44712305 0.0045821145 1.1362885
-0.45134389 0.01600606 1.1348457
-0.44627488 0.015273897 1.1376781
-0.43505526 0.019158604 1.1386926
-0.45127589 0.024253583 1.1353247
-0.44345009 0.026852768 1.1363889
-0.4352462 0.02347577 1.1375694
-0.44331178 0.03346391 1.1334043
-0.43988141 0.037636384 1.1351514
-0.44417557 0.041579228 1.1303548
-0.43568203 0.043818135 1.1352919
-0.44077435 0.056287773 1.1374557
-0.43707088 0.054497778 1.137035
-0.45026705 0.068233058 1.1302
-0.44435507 0.06603875 1.1347488
-0.4366605 0.065423928 1.1348144
-0.41342899 0.068757109 1.1388803
-0.45043099 0.071335107 1.1306115
-0.44483006 0.074065059 1.1320224
-0.43468642 0.07468909 1.1348082
-0.44465908 0.084004477 1.1355379
-0.43636402 0.087598465 1.1353793
-0.45150161 0.093096286 1.1332989
-0.4457376 0.093178093 1.1343344
-0.4378016 0.094158798 1.1354899
-0.46020174 0.10530772 1.1319376
-0.45961466 0.1020965 1.1304936
-0.44146329 0.10443583 1.1392336
-0.43527263 0.10573842 1.1365763
-0.47466892 0.11778072 1.1333785
-0.45601356 0.11478945 1.1343021
-0.44545478 0.11266361 1.1336129
-0.48591712 0.1240655 1.134433
-0.4450466 -0.03486954 1.1444713
-0.43464932 -0.033739038 1.1458085
-0.41971117 -0.033789504 1.1475818
-0.45196295 -0.024306862 1.1422604
-0.44432956 -0.023974217 1.143073
-0.43806157 -0.026736489 1.146575
-0.4255951 -0.023508925 1.1465956
-0.44485235 -0.01618558 1.144982
-0.43580168 -0.012677453 1.1447241
-0.42457384 -0.014588665 1.1462548
-0.44478595 -0.0053718188 1.1427065
-0.43614671 -0.0068423785 1.1466575
-0.42441183 -0.0056701591 1.1462188
-0.44348565 0.0068003307 1.1444643
-0.43807465 0.0036921629 1.1466155
-0.42320675 0.0026512747 1.1471801
-0.41928375 0.0052460097 1.1464131
-0.45229936 0.019232936 1.1431106
-0.44477281 0.016122039 1.1431916
-0.43571708 0.018019926 1.1453294
-0.42234462 0.018291958 1.1490827
-0.45213526 0.022336053 1.1426959
-0.4459846 0.024829073 1.1428769
-0.43387347 0.026131991 1.1453916
-0.42041802 0.027162708 1.1495144
-0.44173968 0.032776862 1.1453171
-0.43517092 0.035515983 1.1444317
-0.42640853 0.034963205 1.1487931
-0.41759276 0.036437001 1.1460567
-0.43205497 0.044777412 1.1438843
-0.42994714 0.047514375 1.1498973
-0.41790915 0.044268768 1.1469277
-0.43406484 0.054989368 1.142619
-0.42620417 0.052656006 1.1482561
-0.41800839 0.050525259 1.1471996
-0.43379027 0.065202557 1.1445664
-0.42500356 0.067041069 1.1474231
-0.41682753 0.0667217 1.1465218
-0.43021697 0.072072834 1.1423039
-0.42932507 0.075975113 1.1449121
-0.41481724 0.074815236 1.1461461
-0.43431401 0.083942048 1.1440063
-0.42601034 0.084731989 1.1453294
-0.41488576 0.085558236 1.1480561
-0.44804206 0.093662702 1.1401941
-0.43412092 0.096646488 1.1433818
-0.42918038 0.091989063 1.1450782
-0.41733938 0.091310628 1.1496522
-0.44103345 0.10039311 1.1461747
-0.43237138 0.10505177 1.1459582
-0.42964706 0.10377686 1.1490948
-0.47217226 0.11870465 1.1422694
-0.46166649 0.11568923 1.1431935
-0.44520819 0.11391452 1.1462358
-0.43557671 -0.033928685 1.1523793
-0.42339253 -0.032869421 1.1519378
-0.44161317 -0.021449499 1.155857
-0.43588042 -0.024595026 1.1559479
-0.42418337 -0.027630577 1.1512425
-0.43541455 -0.017196594 1.1519442
-0.42419964 -0.015129108 1.1534355
-0.434237 -0.0025676126 1.1529846
-0.42105937 -0.007264893 1.151268
-0.4353942 0.0053979647 1.1534958
-0.42459965 0.0087356372 1.1540865
-0.44251803 0.013089276 1.1500328
-0.43405551 0.014910465 1.1525037
-0.42380705 0.014889996 1.154981
-0.43214095 0.026474923 1.1536702
-0.42542812 0.025210237 1.1521815
-0.41877374 0.025684293 1.1536036
-0.43216458 0.031914257 1.1516423
-0.42673311 0.035119697 1.1539032
-0.41759908 0.035152823 1.1547112
-0.43040228 0.042865802 1.1511147
-0.4269194 0.044555873 1.1544034
-0.43046537 0.056972045 1.1512834
-0.42582649 0.054385334 1.1532731
-0.41820508 0.055056658 1.1549336
-0.43189961 0.062249493 1.1523275
-0.42588416 0.061510183 1.1541505
-0.4167304 0.062628686 1.1544694
-0.43005148 0.076255068 1.1586102
-0.42509067 0.076013952 1.1549287
-0.41523007 0.0789885 1.1524825
-0.4227677 0.085265189 1.1525078
-0.41432625 0.084615074 1.1543491
-0.43116155 0.097865134 1.1531453
-0.42601851 0.094532005 1.1562346
-0.41449195 0.091720514 1.1548128
-0.42518461 0.10421423 1.1539603
-0.4191705 0.10428401 1.1546965
-0.47257477 0.11999033 1.1546413
-0.45078149 0.11690088 1.1551665
-0.43535018 0.11225107 1.1526064
-0.42397904 0.11130776 1.1558318
-0.40797898 0.11094294 1.1586142
-0.42347306 -0.03434797 1.1665488
-0.42585874 -0.024779653 1.1643908
-0.42381692 -0.015314355 1.1674961
-0.42264795 -0.0057626395 1.1642759
-0.42300546 0.0021631769 1.1652607
-0.4215169 0.016376272 1.1611601
-0.42105836 0.022843551 1.1686591
-0.41842204 0.02744079 1.1613419
-0.41832435 0.033756174 1.1610708
-0.42013192 0.04818337 1.1660877
-0.41959515 0.043368727 1.164598
-0.41822863 0.055473518 1.1637402
-0.4163965 0.062386058 1.1645169
-0.42860344 0.076559693 1.1632386
-0.41733757 0.075225621 1.1671488
-0.42418131 0.097459473 1.1632829
-0.41810605 0.096872568 1.1663522
-0.41559401 0.10635761 1.1645118
-0.43289506 0.11443064 1.1620086
-0.42527735 0.11450732 1.1627874
-0.41553551 0.11333557 1.164646
-0.42571068 -0.034532201 1.1727128
-0.42481309 -0.015462217 1.1790805
-0.4251183 -0.0058390405 1.1799276
-0.42409831 0.016598411 1.1770966
-0.42138144 0.029449947 1.1784581
-0.41981512 0.054904528 1.1740776
-0.41815078 0.064471088 1.1739054
-0.41699016 0.085333526 1.1751219
-0.41618523 0.095850356 1.1746513
-0.41594034 0.10346774 1.1721631
-0.45522857 0.11888331 1.1747561
-0.41132855 0.11272509 1.1772257
-0.42797431 -0.034975775 1.1878545
-0.42911848 -0.025152732 1.1821004
-0.42554373 -0.015487328 1.1811084
-0.42663604 -0.005867207 1.1841401
-0.42655644 0.0038057328 1.1839193
-0.42532906 0.010223166 1.1805125
-0.42313617 0.024738645 1.1833656
-0.42430937 0.036117252 1.1866465
-0.42487472 0.045864802 1.1882275
-0.42246485 0.055467851 1.1860092
-0.42126477 0.066826597 1.1871681
-0.42057341 0.074780583 1.1852199
-0.41977152 0.077857681 1.18296
-0.41846526 0.084365904 1.1838287
-0.41744989 0.09415745 1.1855104
-0.41435099 0.10709097 1.185876
-0.41419807 0.11673791 1.1854383
-0.45601517 0.12035675 1.189316
-0.4228605 0.12013383 1.1871133
-0.4296425 -0.025377031 1.1924846
-0.42743826 -0.01567417 1.195397
-0.42625314 -0.0042791399 1.1920826
-0.42682588 0.00059062254 1.1936843
-0.42801148 0.013620856 1.197
-0.42567727 0.025003102 1.1950366
-0.42436248 0.047787599 1.1958978
-0.4239127 0.054234758 1.1946304
-0.42178237 0.067422897 1.1978142
-0.42174739 0.07320863 1.1946478
-0.41957626 0.078422971 1.1915491
-0.41948307 0.083270192 1.1912844
-0.4166944 0.10121212 1.1925828
-0.43522671 0.12132935 1.1989268
-0.42984846 0.12073526 1.1930562
-0.41993475 0.12068576 1.1925671
-0.43240413 -0.03231496 1.2092848
-0.43054366 -0.025624242 1.2040818
-0.43060529 -0.0092370613 1.204254
-0.42935994 0.0054962933 1.2007712
-0.4285073 0.023599327 1.2075784
-0.42721182 0.036644161 1.2039275
-0.42623416 0.04309459 1.2011725
-0.42530498 0.059769701 1.207818
-0.42349768 0.062789083 1.2026855
-0.42219839 0.089394011 1.2083353
-0.42118901 0.094098903 1.2054465
-0.41961095 0.098651938 1.20093
-0.45540011 0.12148797 1.2004942
-0.43247578 0.1268492 1.2048967
-0.43148261 0.01714918 1.2159631
-0.42863768 0.046985667 1.2172825
-0.42711377 0.053421121 1.2129548
-0.42592371 0.085206091 1.2189972
-0.45667636 0.12315438 1.2169609
-0.44427121 0.12292904 1.2147343
-0.4279204 0.12596245 1.212132
-0.43477428 -0.0027285186 1.2252394
-0.43469653 0.003942458 1.2250203
-0.4339664 0.012252713 1.2229627
-0.430314 0.043843362 1.222043
-0.42920688 0.077504598 1.2283937
-0.42830157 0.080677405 1.2258027
-0.4256568 0.11589533 1.2277973
-0.45390576 0.12375303 1.2228765
-0.44996509 0.12358484 1.2212147
