# .PCD v0.7 - Point Cloud Data file format
VERSION 0.7
FIELDS x y z
SIZE 4 4 4
TYPE F F F
COUNT 1 1 1
WIDTH 411
HEIGHT 1
VIEWPOINT 0 0 0 1 0 0 0
POINTS 411
DATA ascii
-0.42538822 0.49756014 0.89974189
-0.40711403 0.47947422 0.90722263
-0.40158603 0.48222214 0.90312022
-0.39646292 0.48471555 0.90547621
-0.41981509 0.49527717 0.90004325
-0.31688547 0.49166095 0.90692884
-0.43030563 0.46953246 0.911892
-0.44591141 0.47542208 0.91847545
-0.43151978 0.47358882 0.91977
-0.32707265 0.4759621 0.91470903
-0.31103855 0.47560248 0.91882396
-0.42458996 0.4814344 0.91566592
-0.29830828 0.4802396 0.91812718
-0.41123584 0.49080545 0.91919529
-0.32054219 0.49358916 0.9173944
-0.24242185 0.49088919 0.91468972
-0.41807917 0.50376761 0.91774207
-0.27997926 0.5062142 0.91539109
-0.22800547 0.50947958 0.91678369
-0.42109403 0.51508272 0.91344523
-0.41860789 0.51508272 0.91344523
-0.40881911 0.46371821 0.92504865
-0.35187411 0.46751481 0.92758608
-0.4413293 0.47120672 0.92988962
-0.39448687 0.4742108 0.92097795
-0.23511493 0.47634432 0.92512149
-0.41293025 0.48826179 0.92863208
-0.31159195 0.48283595 0.92791927
-0.3066138 0.48725206 0.92432427
-0.27838627 0.49479929 0.92667508
-0.23643379 0.49147725 0.92045349
-0.45796797 0.50292498 0.92770672
-0.36441475 0.50430095 0.92099708
-0.30715865 0.50620997 0.9221915
-0.33759177 0.51296163 0.92304945
-0.28883305 0.51688027 0.92782581
-0.24637417 0.51913333 0.92960238
-0.45221514 0.52987587 0.92626697
-0.42597798 0.52357173 0.9240396
-0.35268602 0.52304125 0.92310333
-0.29641411 0.5206756 0.92784208
-0.2892355 0.52139193 0.92911857
-0.23981953 0.53603399 0.92384547
-0.36551958 0.45934919 0.93667555
-0.43930539 0.46174535 0.93636483
-0.38422811 0.46241835 0.93258238
-0.4458513 0.47077826 0.93406099
-0.35564673 0.47763067 0.93753123
-0.3383587 0.47333002 0.93912387
-0.31411576 0.4765628 0.93543512
-0.30247134 0.47427282 0.93094015
-0.44554946 0.4808228 0.93878162
-0.42147356 0.4893775 0.93075407
-0.41894031 0.4893775 0.93075407
-0.35049191 0.48266324 0.93739367
-0.32513085 0.48925823 0.93052721
-0.31624493 0.48610607 0.9342038
-0.28311804 0.48852345 0.93396437
-0.2586292 0.48263487 0.93733859
-0.41320392 0.49668381 0.93497032
-0.37434885 0.49619591 0.93645394
-0.36296132 0.49917009 0.93011975
-0.35243109 0.49965462 0.93576831
-0.24544266 0.4996143 0.93569279
-0.23575918 0.49558955 0.93771982
-0.42045847 0.50437045 0.93980974
-0.35507137 0.50997633 0.93601447
-0.32319331 0.50411594 0.9322437
-0.24567966 0.50260711 0.9333663
-0.21957101 0.50123936 0.93397546
-0.44839558 0.51399881 0.93406522
-0.42833346 0.51687413 0.93466747
-0.41771978 0.51949298 0.93940318
-0.3862592 0.51292431 0.93441606
-0.31529984 0.516693 0.93896127
-0.29500771 0.5185557 0.93540943
-0.23433033 0.51794422 0.93201548
-0.44493502 0.52747715 0.93392748
-0.42524689 0.52734333 0.93069601
-0.40722004 0.52133238 0.93582857
-0.39427146 0.52319038 0.93232334
-0.34174538 0.52435929 0.93440634
-0.29843834 0.52168882 0.93417841
-0.28127182 0.52286261 0.93628037
-0.25520435 0.52675265 0.93414062
-0.42884427 0.53277212 0.93578207
-0.3246198 0.53863764 0.93270791
-0.30322638 0.53895873 0.93326402
-0.25651896 0.53110337 0.93583888
-0.34785691 0.54376411 0.93716824
-0.33539459 0.54265904 0.93089694
-0.32581443 0.54104912 0.93248898
-0.29175952 0.54634875 0.93722647
-0.230038 0.54261672 0.93519074
-0.44759721 0.46249792 0.94309622
-0.42226544 0.46570006 0.94962585
-0.35930395 0.46886656 0.9404248
-0.44688299 0.47969916 0.94159138
-0.39245465 0.47383633 0.94012845
-0.36056456 0.47821718 0.94372422
-0.35363448 0.4715457 0.94579846
-0.46626645 0.48376033 0.94451702
-0.45829612 0.4848443 0.94664454
-0.41546112 0.48318559 0.94590312
-0.34893385 0.48404109 0.94006962
-0.2862066 0.48614362 0.94415301
-0.27675083 0.48404956 0.94257319
-0.23891637 0.48148742 0.94007927
-0.33113289 0.49571073 0.94770509
-0.28303334 0.4919382 0.94213194
-0.26208323 0.49295843 0.94985694
-0.23441455 0.49558219 0.94255388
-0.4238131 0.50428438 0.94442976
-0.41741237 0.50046086 0.94450474
-0.37237716 0.5008347 0.94763923
-0.36461613 0.50496787 0.94092292
-0.34210172 0.50575721 0.94239372
-0.30286556 0.50704604 0.94002795
-0.27361178 0.50844324 0.94500816
-0.24551192 0.50501126 0.94579172
-0.42729461 0.51205522 0.94931465
-0.39657027 0.51719189 0.94689626
-0.36897534 0.51001447 0.94553119
-0.33737937 0.51405799 0.94353342
-0.30121803 0.51628286 0.94287944
-0.23465231 0.51277924 0.94351733
-0.44836628 0.5250026 0.94471669
-0.43926725 0.52384567 0.94727421
-0.41133538 0.52625179 0.94234926
-0.40399486 0.52157909 0.94317549
-0.34529671 0.52723867 0.94411647
-0.290604 0.52181208 0.94593054
-0.24305215 0.5258323 0.94621921
-0.23961067 0.52394366 0.94281119
-0.42002302 0.53264093 0.94458288
-0.41062278 0.53121275 0.94661921
-0.33425394 0.5388546 0.94196254
-0.34124294 0.54954368 0.94712919
-0.24674985 0.54606938 0.94557691
-0.39363965 0.46854433 0.95542568
-0.34502956 0.46931326 0.95523262
-0.29619083 0.46918979 0.95146132
-0.43386215 0.47507721 0.95811218
-0.33222356 0.47516602 0.95829129
-0.29619083 0.47177941 0.95146132
-0.26933947 0.47465959 0.95726991
-0.41143301 0.48886105 0.95447588
-0.40510416 0.48908785 0.95494461
-0.39995056 0.48494014 0.95187879
-0.36435539 0.48366791 0.95705819
-0.35566032 0.48897082 0.95469022
-0.33497164 0.48188907 0.9586916
-0.27273673 0.48686719 0.95396203
-0.44492972 0.49926108 0.95948529
-0.4381372 0.49971527 0.95041561
-0.40309855 0.49498376 0.95627624
-0.38506514 0.49487829 0.95354885
-0.36886358 0.49271497 0.95188385
-0.33335993 0.49644792 0.95407891
-0.31401041 0.49871007 0.9584263
-0.29424548 0.49446166 0.9577812
-0.25602946 0.49495599 0.9562133
-0.42156556 0.50413853 0.9538905
-0.39506638 0.50808442 0.95888853
-0.36881015 0.50917178 0.95847797
-0.3505922 0.50547254 0.95151448
-0.34516662 0.50892818 0.9580195
-0.33220181 0.50766176 0.9507643
-0.32257068 0.50303805 0.95674086
-0.31541765 0.5028789 0.95480263
-0.25573939 0.50999278 0.95512992
-0.35139781 0.51632822 0.95723647
-0.34516662 0.51153564 0.9580195
-0.28351393 0.51440835 0.95528191
-0.25454491 0.51019824 0.95066881
-0.42726526 0.52553219 0.9550243
-0.40479946 0.52673966 0.95721859
-0.382135 0.52521068 0.95918411
-0.33839834 0.52679175 0.95731324
-0.32368892 0.52227199 0.95619375
-0.43853283 0.53439075 0.95692348
-0.40708166 0.53062183 0.95952755
-0.36014527 0.53922039 0.95625091
-0.34588689 0.53728622 0.95282078
-0.44114316 0.54161817 0.95131963
-0.41505757 0.54736698 0.95684284
-0.4092055 0.54260719 0.95534039
-0.36014527 0.54182303 0.95625091
-0.30632454 0.54647714 0.95076388
-0.39472547 0.55223846 0.95177364
-0.35176307 0.55393195 0.9546923
-0.34312764 0.55939662 0.95960927
-0.33232284 0.5535773 0.95857763
-0.28311965 0.55429655 0.95982307
-0.27142531 0.55696678 0.955441
-0.45395166 0.47438768 0.96200198
-0.43299323 0.47437447 0.96197522
-0.37502801 0.47460866 0.96779168
-0.35000703 0.47808129 0.96417063
-0.33001596 0.47953802 0.96710849
-0.30009714 0.47275394 0.96400964
-0.27024445 0.47364026 0.96048635
-0.4063057 0.48475003 0.967004
-0.39804214 0.48824352 0.96611118
-0.37275347 0.48482057 0.96192205
-0.36388329 0.48038584 0.96617597
-0.35279262 0.4809255 0.96461195
-0.34113121 0.48563731 0.96877402
-0.32423714 0.48666248 0.96557653
-0.29592988 0.48765287 0.96754158
-0.27567914 0.48707572 0.96120584
-0.44841394 0.49500164 0.9613564
-0.41691878 0.49488688 0.96113354
-0.37463456 0.49252978 0.96677637
-0.36448541 0.49782532 0.96429545
-0.33805478 0.49027309 0.96751559
-0.29104903 0.49698207 0.96012747
-0.28497282 0.4921881 0.96610564
-0.38720477 0.50229442 0.96531481
-0.36350438 0.50091106 0.96518642
-0.33327773 0.50154305 0.96893889
-0.32806888 0.50955629 0.96913242
-0.35466218 0.51587224 0.96614116
-0.32262662 0.51300985 0.96078038
-0.3025336 0.51797128 0.96760589
-0.27678397 0.51547456 0.96050239
-0.43490443 0.52906394 0.96622127
-0.42963678 0.52116477 0.96620309
-0.41066831 0.52308077 0.96488655
-0.36535105 0.52211934 0.96311307
-0.33267772 0.52959681 0.96719444
-0.31495267 0.52593654 0.9653309
-0.40337932 0.53525132 0.96315873
-0.38780236 0.53627002 0.96028876
-0.32261705 0.53129894 0.96075195
-0.3171941 0.534069 0.96814358
-0.30469579 0.53557718 0.96611154
-0.2940104 0.53635597 0.96989661
-0.38378695 0.54694915 0.96995705
-0.33572674 0.54443049 0.96085274
-0.3033534 0.54210198 0.9660238
-0.36477795 0.55008966 0.96160233
-0.30044097 0.55472535 0.96511412
-0.28771886 0.5555203 0.96649718
-0.35918221 0.56410134 0.96767992
-0.444686 0.46265835 0.97035033
-0.39530221 0.4773725 0.97886014
-0.38480633 0.47725147 0.97588921
-0.35582083 0.47711098 0.97290176
-0.42656118 0.48987666 0.97723085
-0.41611061 0.4896284 0.97146118
-0.40040132 0.48242465 0.97830003
-0.36332271 0.48710898 0.97170973
-0.35763085 0.48353261 0.97785282
-0.42302412 0.49417698 0.97521436
-0.36266893 0.49777573 0.97707355
-0.34472716 0.49228185 0.97148561
-0.32534251 0.49762896 0.97678542
-0.31986198 0.49206045 0.97628653
-0.3076278 0.49875599 0.97121775
-0.2953642 0.4975158 0.9765628
-0.42687663 0.50307238 0.97189343
-0.40901011 0.5065226 0.97344047
-0.39504591 0.50560486 0.97167677
-0.38719058 0.50611436 0.9752059
-0.37069833 0.50750208 0.97024786
-0.3436175 0.50776845 0.97583479
-0.40069038 0.51208323 0.97900623
-0.39731607 0.51609111 0.97399151
-0.36262745 0.51899093 0.97696185
-0.34395075 0.51623642 0.97678119
-0.28399855 0.51358759 0.97176927
-0.428581 0.52367139 0.97577387
-0.3973003 0.52710819 0.97722179
-0.37401199 0.52536035 0.97892088
-0.3671909 0.52588731 0.9749583
-0.34825906 0.52269804 0.9739601
-0.3122431 0.52453893 0.97739035
-0.30157891 0.52715808 0.97731429
-0.33858433 0.53210998 0.97663873
-0.32320923 0.53571904 0.97837538
-0.31837043 0.53920656 0.97987401
-0.30410221 0.53756726 0.97689503
-0.39537475 0.54043448 0.97248554
-0.38948888 0.54330045 0.97764277
-0.35058618 0.54075456 0.97306156
-0.39737955 0.55541807 0.97091687
-0.37855652 0.55086273 0.9768973
-0.34678805 0.55773169 0.97728586
-0.32658792 0.55372071 0.9725771
-0.30588755 0.55723548 0.97409379
-0.36334386 0.56590724 0.97534293
-0.40147814 0.47838241 0.98093098
-0.39342806 0.478333 0.98082966
-0.4043535 0.48290139 0.98470879
-0.39492401 0.48283151 0.98455918
-0.38895538 0.48742738 0.98301935
-0.36397737 0.48889601 0.98059869
-0.359965 0.48266652 0.98422277
-0.34794253 0.48886597 0.98053843
-0.42186457 0.49707416 0.98489922
-0.41405571 0.49401784 0.98549187
-0.38710046 0.49650636 0.9851076
-0.37590092 0.49496567 0.98738241
-0.36502427 0.4952296 0.9852494
-0.34822211 0.49034894 0.98891139
-0.32742494 0.49504519 0.98575163
-0.41275787 0.50715542 0.98236716
-0.40908217 0.50789189 0.98639095
-0.39355621 0.50838459 0.98561263
-0.38617983 0.50602478 0.98276478
-0.37008363 0.50328559 0.98263901
-0.36151847 0.50520295 0.98116869
-0.34077388 0.50612247 0.9829545
-0.33569688 0.50653535 0.98375636
-0.3091175 0.5068562 0.98437947
-0.39555198 0.51043874 0.98612469
-0.37505609 0.51715207 0.98869681
-0.35065815 0.51150852 0.98819137
-0.33003393 0.51676321 0.98283935
-0.41094896 0.52831787 0.98443174
-0.39192033 0.52259481 0.98374587
-0.38008645 0.52742803 0.98778319
-0.3746399 0.52090472 0.98056436
-0.36674342 0.52589697 0.98324156
-0.35057899 0.52217722 0.98044819
-0.32792932 0.52703977 0.98455191
-0.31216729 0.52398336 0.98133183
-0.40399748 0.53291512 0.98056579
-0.39403179 0.53521341 0.98233479
-0.37135884 0.53990757 0.98602492
-0.33413735 0.53510082 0.98705894
-0.39099833 0.5437786 0.9881826
-0.37246829 0.5403077 0.98187506
-0.3631162 0.54565716 0.98188341
-0.38526025 0.55670762 0.98726267
-0.3558574 0.55010593 0.98028678
-0.4007318 0.56117046 0.9856621
-0.39478099 0.56091166 0.98757255
-0.35052547 0.56777465 0.98781741
-0.3351061 0.56177264 0.98202515
-0.32008398 0.56624031 0.98514795
-0.32610288 0.57544231 0.98713464
-0.39742044 0.4878456 0.99755156
-0.3644557 0.4855254 0.99280798
-0.3477591 0.48773083 0.99271393
-0.33837762 0.48898929 0.99161232
-0.3217935 0.48839611 0.99040943
-0.39655441 0.4962644 0.99537778
-0.38098729 0.49987581 0.99717772
-0.37627077 0.49391827 0.99429458
-0.36676157 0.49324459 0.99294388
-0.35483211 0.49526769 0.99612224
-0.34280133 0.49688715 0.99662685
-0.33035624 0.49989873 0.99183828
-0.41109151 0.50229299 0.99123597
-0.38689643 0.50645196 0.99145555
-0.37363172 0.50334227 0.99688303
-0.36479637 0.50439429 0.99006492
-0.3571991 0.50348932 0.99896234
-0.33481312 0.50658846 0.99438858
-0.38119146 0.51100564 0.99771208
-0.3782793 0.51518601 0.99008995
-0.36194772 0.51282907 0.9933483
-0.34625319 0.51969707 0.99875939
-0.33419305 0.51452684 0.99927694
-0.36481476 0.52174783 0.99748307
-0.33363616 0.52781194 0.99356675
-0.32521626 0.52461213 0.99262893
-0.38321507 0.53664762 0.99240148
-0.36156058 0.53181404 0.99599743
-0.34371874 0.53748137 0.99145263
-0.3251766 0.5367142 0.99254221
-0.37332633 0.54816389 0.99124897
-0.36669716 0.55577934 0.9952237
-0.35764164 0.55029202 0.99265951
-0.34489715 0.55827719 0.99484795
-0.34151193 0.56257653 0.9928782
-0.34895903 0.57132506 0.99872363
-0.39463049 0.49659312 1.0042703
-0.38216606 0.4995361 1.0074396
-0.35461763 0.49661377 1.0070739
-0.34994674 0.49661595 1.0015504
-0.39184123 0.50608951 1.004127
-0.38925806 0.50081921 1.0045135
-0.37269971 0.50881046 1.0040977
-0.36935017 0.50624532 1.0098839
-0.39456004 0.51427281 1.004091
-0.38582802 0.51219547 1.0027046
-0.37817717 0.51246953 1.004148
-0.36086866 0.51827556 1.0092249
-0.34604251 0.51391065 1.0034118
-0.37288871 0.52820998 1.0046101
-0.36461684 0.52446353 1.0044187
-0.35469964 0.52688628 1.0073068
-0.39037448 0.53142518 1.0003684
-0.37031642 0.5311749 1.0050465
-0.36619782 0.53388876 1.0050071
-0.37629271 0.54558349 1.0063896
-0.36499685 0.54507405 1.0054407
-0.38208175 0.55973583 1.0072174
-0.37754136 0.55479759 1.0048919
-0.3741135 0.5723812 1.0005698
-0.35242262 0.57749265 1.0047247
-0.38896516 0.49297708 1.0108576
-0.37901521 0.49987116 1.0136795
-0.36427349 0.49633062 1.0148946
-0.37577406 0.50198597 1.0123804
-0.35892585 0.51255673 1.0114906
-0.37685582 0.52553779 1.0152948
-0.37864619 0.53659689 1.0126925
