# .PCD v0.7 - Point Cloud Data file format
VERSION 0.7
FIELDS x y z
SIZE 4 4 4
TYPE F F F
COUNT 1 1 1
WIDTH 448
HEIGHT 1
VIEWPOINT 0 0 0 1 0 0 0
POINTS 448
DATA ascii
-0.36918464 0.52121055 1.09943
-0.38049725 0.50937557 1.1062202
-0.3645356 0.51581776 1.1071438
-0.35423633 0.51460373 1.1088364
-0.3457554 0.51521707 1.1058335
-0.38712081 0.52373934 1.1079431
-0.36553603 0.52241278 1.1019659
-0.37313724 0.50919724 1.1157334
-0.3536374 0.50802034 1.1164756
-0.34340531 0.50940377 1.1128594
-0.33662584 0.50831401 1.1104786
-0.40605825 0.51354271 1.1185758
-0.39329743 0.51228201 1.1169286
-0.3837907 0.51546627 1.1128666
-0.37618059 0.51407981 1.1142387
-0.36752447 0.51833254 1.1125206
-0.3536717 0.5171867 1.1165839
-0.34083572 0.51463747 1.114361
-0.33583075 0.51545906 1.1128522
-0.3940917 0.52447939 1.1191758
-0.38040799 0.53152257 1.1147819
-0.37576661 0.53227997 1.1100339
-0.41526628 0.50515926 1.1270413
-0.40884769 0.50903207 1.1220601
-0.37723997 0.50812197 1.1234187
-0.36491913 0.50859845 1.1278687
-0.35123149 0.50417447 1.1282698
-0.34727556 0.50623167 1.1237559
-0.33324522 0.508645 1.1245751
-0.32410398 0.50490278 1.125789
-0.43300012 0.51357263 1.1253078
-0.42329574 0.51940417 1.1279995
-0.41765434 0.51199508 1.1252109
-0.40506756 0.51359093 1.1242675
-0.39258191 0.51768726 1.1265059
-0.38230351 0.5148803 1.1248193
-0.3735393 0.51455915 1.1230193
-0.36590022 0.5154978 1.1261674
-0.35459217 0.51425803 1.1243182
-0.34574634 0.51401472 1.1229379
-0.33477181 0.51475346 1.1245561
-0.43374622 0.52058315 1.1272362
-0.42297345 0.52019143 1.1230711
-0.39196092 0.52418041 1.1217954
-0.37133431 0.52064633 1.1240531
-0.35479352 0.52024889 1.1298341
-0.34814948 0.52028859 1.1232808
-0.38559037 0.53755158 1.1210275
-0.45994249 0.49963608 1.1389245
-0.45388478 0.50599396 1.1392808
-0.44722253 0.50526667 1.134174
-0.42545491 0.50537521 1.1378827
-0.41070634 0.50938344 1.1399268
-0.39894569 0.50935411 1.1329606
-0.35141477 0.50578725 1.1388153
-0.34690899 0.5083704 1.1342175
-0.33362004 0.5081867 1.1331125
-0.31467271 0.50823921 1.135988
-0.44562989 0.51292944 1.1340555
-0.42460331 0.51441282 1.1356132
-0.41473365 0.51289737 1.1339959
-0.40792528 0.51550245 1.1356415
-0.39079231 0.51697308 1.1361511
-0.38579261 0.51494539 1.1350937
-0.37575805 0.51417035 1.1350951
-0.36575136 0.51609272 1.1376239
-0.35590109 0.5146724 1.1333611
-0.34169036 0.51482153 1.1348302
-0.33368298 0.51554167 1.1330041
-0.32802057 0.5170573 1.1329523
-0.31043348 0.51085514 1.1362993
-0.44569558 0.52535671 1.1342226
-0.43324095 0.52555633 1.137996
-0.40806663 0.52350152 1.1369021
-0.37385735 0.52325732 1.1363676
-0.3658703 0.52185887 1.1355736
-0.47597229 0.48629481 1.1476717
-0.48436812 0.49623001 1.1453725
-0.46570608 0.49628305 1.1454949
-0.45954838 0.49947706 1.1456699
-0.48229358 0.50667769 1.1478544
-0.46052986 0.50337791 1.140379
-0.45707378 0.50216085 1.1446915
-0.4495739 0.50813097 1.1440923
-0.43006021 0.50559783 1.1418877
-0.42591876 0.50963384 1.1474762
-0.37263769 0.50625497 1.1468967
-0.35357898 0.50890422 1.1458334
-0.33465612 0.50804299 1.1415645
-0.32486606 0.5071128 1.143561
-0.31537098 0.50739992 1.145257
-0.3086772 0.50997037 1.1412402
-0.45863995 0.51093781 1.1434052
-0.44592083 0.5152896 1.1427107
-0.43252662 0.51601076 1.144311
-0.42514625 0.51494348 1.1453965
-0.41367 0.51305878 1.1481516
-0.40452179 0.51471716 1.1435062
-0.39604771 0.51598877 1.145404
-0.38405502 0.51418859 1.1437138
-0.3754704 0.51334196 1.1460094
-0.36354506 0.51600444 1.1477474
-0.34508765 0.51254797 1.1435251
-0.33917958 0.51069951 1.1498756
-0.31079045 0.51033431 1.1490533
-0.30442822 0.51065898 1.1427813
-0.29527795 0.51314282 1.1443586
-0.44346178 0.52072644 1.1443998
-0.43515906 0.52613187 1.1471295
-0.42662823 0.52229452 1.1410209
-0.40678579 0.52162063 1.1463649
-0.39232659 0.52210724 1.1406118
-0.37357125 0.52629936 1.14977
-0.49323651 0.47382095 1.1515211
-0.4878661 0.48097429 1.1536441
-0.4682343 0.48491931 1.1555626
-0.4846952 0.4947539 1.1535604
-0.47431502 0.49635369 1.1558288
-0.46605086 0.49841633 1.1540458
-0.45316005 0.49962926 1.1532185
-0.50562495 0.50500596 1.1547546
-0.49615976 0.50183266 1.1546848
-0.46424246 0.5033626 1.152178
-0.45453712 0.50611413 1.1551297
-0.4334833 0.50674969 1.15514
-0.42723137 0.50807172 1.1510125
-0.40385294 0.5070526 1.1558305
-0.37130252 0.5055657 1.1524411
-0.36944488 0.50732201 1.1564447
-0.35456464 0.50944197 1.1541167
-0.3470107 0.5083034 1.1551079
-0.33534443 0.50887084 1.152823
-0.320553 0.50780946 1.1504184
-0.3137072 0.50753021 1.156922
-0.30598161 0.50716269 1.1584759
-0.29387841 0.50832343 1.1563382
-0.46197113 0.51185268 1.1595781
-0.45278871 0.51196122 1.156268
-0.44894183 0.51746166 1.1544838
-0.43661249 0.51458627 1.1550984
-0.40751767 0.51515764 1.1528486
-0.39353496 0.51707077 1.154797
-0.38478225 0.51475018 1.1533518
-0.3759174 0.51362032 1.155051
-0.36490607 0.51627719 1.1553596
-0.35147625 0.51495981 1.1594679
-0.34504411 0.5122804 1.1548609
-0.33149844 0.51019824 1.15583
-0.32550904 0.51067251 1.1569045
-0.31026453 0.51307201 1.1587692
-0.30388069 0.51064634 1.1544802
-0.44797775 0.52287871 1.1560447
-0.40293398 0.52394736 1.153205
-0.52784908 0.47964147 1.1656666
-0.51145619 0.47703552 1.1644745
-0.52538478 0.48518008 1.1637251
-0.50432765 0.48787564 1.1626239
-0.49545383 0.4863708 1.1640947
-0.471228 0.48485845 1.1629605
-0.53795224 0.49286819 1.1669363
-0.49467981 0.4972322 1.1647543
-0.48736951 0.49946052 1.1674978
-0.47686967 0.4952763 1.1651435
-0.46712214 0.49562952 1.1629783
-0.54169607 0.50928235 1.1681607
-0.52316529 0.50981402 1.1693803
-0.5136404 0.50028855 1.1694332
-0.50400209 0.50656408 1.1692251
-0.46497232 0.50344306 1.1644645
-0.43109736 0.50950813 1.161428
-0.4148244 0.5074684 1.16546
-0.40713567 0.50800276 1.1652256
-0.37384176 0.50801295 1.1652491
-0.36750132 0.50464815 1.1662604
-0.34593958 0.50979006 1.1620706
-0.33452779 0.50851351 1.1664072
-0.32035452 0.509341 1.161047
-0.31591219 0.50712144 1.1650409
-0.30543187 0.50843638 1.1644069
-0.28546545 0.50876451 1.1669729
-0.5175817 0.5169642 1.163981
-0.45036077 0.51933378 1.1621943
-0.44848776 0.51765978 1.1655471
-0.42453605 0.51746082 1.1650991
-0.41684204 0.51352656 1.1657763
-0.40429696 0.51567274 1.166178
-0.3951467 0.51704973 1.1641924
-0.38366944 0.51371628 1.1652477
-0.37196293 0.51504904 1.1668234
-0.36355734 0.51308316 1.1638081
-0.35442114 0.51218927 1.1639407
-0.33370802 0.51043212 1.1635342
-0.30402046 0.51269865 1.1651309
-0.29144272 0.51128912 1.1654876
-0.27689242 0.51077706 1.1643205
-0.44439137 0.52464199 1.1652083
-0.42461494 0.52353537 1.1609898
-0.37166995 0.52145684 1.1634097
-0.45219427 0.54050434 1.1669258
-0.53514034 0.48975605 1.1747077
-0.51094139 0.4878754 1.1778862
-0.50308722 0.48008716 1.1745187
-0.49054453 0.48992112 1.1751035
-0.48057407 0.48953858 1.174186
-0.52736288 0.49144673 1.1787628
-0.50597697 0.4925752 1.1738067
-0.49423909 0.49361402 1.1737509
-0.47789168 0.49640161 1.1715286
-0.46722856 0.49852601 1.1727746
-0.52750611 0.50774604 1.1719532
-0.50422364 0.50519991 1.1753215
-0.4858633 0.50118464 1.1715279
-0.46447903 0.50379294 1.1738927
-0.45567593 0.50625211 1.1759105
-0.42234594 0.50701869 1.1751952
-0.41326272 0.50846791 1.1736194
-0.39761415 0.50772476 1.1793128
-0.37646136 0.50802761 1.1750722
-0.36699229 0.50606537 1.1754675
-0.33335501 0.50732458 1.1734376
-0.32574144 0.50691712 1.1759501
-0.31466684 0.50755399 1.1752074
-0.30742508 0.50880492 1.1781029
-0.27491909 0.50959164 1.1762131
-0.26482806 0.50707519 1.1741041
-0.45701849 0.51496994 1.1738881
-0.44660643 0.51782322 1.1731102
-0.43429002 0.51263255 1.1721822
-0.42307138 0.51513928 1.1742562
-0.41428536 0.51693147 1.1734903
-0.38683197 0.5136922 1.1709656
-0.3658427 0.51342124 1.1752033
-0.35364658 0.51250273 1.1718916
-0.34575552 0.51260912 1.1743394
-0.33239767 0.51553178 1.1775988
-0.32668987 0.51239175 1.1753005
-0.30272743 0.51059943 1.1785393
-0.29628187 0.51156127 1.1752293
-0.28312719 0.51209384 1.1770645
-0.27394032 0.51096427 1.1720186
-0.45301569 0.52485776 1.174552
-0.44727543 0.5231244 1.1706771
-0.4314383 0.5200516 1.1709325
-0.42731023 0.5217309 1.1771286
-0.41649732 0.52129364 1.1737289
-0.40210232 0.5201419 1.1783569
-0.39899161 0.52026761 1.1786418
-0.37743455 0.52409917 1.1764374
-0.53105682 0.48842761 1.1870195
-0.52870214 0.48947835 1.1817563
-0.51892775 0.48936033 1.1814713
-0.48092735 0.48995847 1.1829154
-0.55019557 0.49789754 1.1864898
-0.52584976 0.49189532 1.1850008
-0.50995225 0.49000543 1.1830288
-0.49662331 0.49115139 1.1857955
-0.47451049 0.49803168 1.182971
-0.50343764 0.50388378 1.1853793
-0.49010077 0.50565785 1.1895521
-0.47078955 0.50578088 1.1898415
-0.46559486 0.50688946 1.1848631
-0.45318553 0.5073095 1.1833358
-0.4317289 0.50554699 1.1892914
-0.42525217 0.5017246 1.1802992
-0.41459543 0.50924182 1.1865951
-0.40471232 0.50818765 1.1860139
-0.39912641 0.50848657 1.1885964
-0.38986814 0.50907004 1.1899601
-0.37508905 0.50660622 1.184201
-0.36834711 0.50619972 1.1832508
-0.35732293 0.50884521 1.1894346
-0.34071797 0.50822103 1.1879756
-0.33478579 0.50739229 1.1841595
-0.32497022 0.50887787 1.1895111
-0.31365693 0.50732946 1.1859025
-0.3043479 0.50849074 1.1848428
-0.29513383 0.50847477 1.1866888
-0.28688899 0.5089857 1.1859974
-0.26815632 0.50874454 1.1816814
-0.25586829 0.507743 1.1843518
-0.51065373 0.51002526 1.1846561
-0.46557045 0.51008761 1.184801
-0.45325801 0.51397938 1.1863387
-0.44565958 0.513798 1.1869924
-0.43310037 0.51562321 1.1842011
-0.42519826 0.51173782 1.186142
-0.41275701 0.51299655 1.1859391
-0.40515682 0.51599145 1.1846042
-0.395724 0.51446891 1.1853504
-0.38557389 0.51171464 1.1867126
-0.36427566 0.51351595 1.1867697
-0.35454914 0.51365197 1.185596
-0.34550935 0.51381803 1.1822605
-0.29436594 0.51150286 1.1836048
-0.28270155 0.51199186 1.1842448
-0.27600741 0.5113622 1.1877615
-0.25595087 0.51005852 1.1847334
-0.45528638 0.52121556 1.1832298
-0.43161106 0.52091956 1.1801187
-0.39565647 0.52111733 1.1878911
-0.45279345 0.53280371 1.1851196
-0.5341987 0.48807526 1.1940613
-0.52824718 0.48532122 1.1952826
-0.50748169 0.48737761 1.1923546
-0.51015681 0.49980009 1.1910236
-0.50716281 0.49347025 1.1992745
-0.49473438 0.49844629 1.1981585
-0.48394534 0.49389848 1.1963637
-0.52245766 0.50553423 1.196925
-0.4962793 0.50431299 1.1940371
-0.46523637 0.506787 1.1922084
-0.4271546 0.50942731 1.1946037
-0.39467624 0.50948513 1.1947436
-0.38806885 0.50933552 1.1943905
-0.3747068 0.50943637 1.198441
-0.35451096 0.50818652 1.193593
-0.34561804 0.50824177 1.1937234
-0.33469176 0.50811702 1.1953373
-0.32407016 0.50931311 1.198151
-0.31498957 0.50694853 1.1925884
-0.30349356 0.50843167 1.1941721
-0.29338914 0.50701153 1.1927366
-0.28797054 0.50890964 1.1972018
-0.27182153 0.5091778 1.1978328
-0.26783359 0.50941843 1.194587
-0.25487688 0.50788903 1.1948011
-0.24799342 0.5071187 1.1929888
-0.46643755 0.51460528 1.1952865
-0.453462 0.51356232 1.1953883
-0.4423269 0.51656282 1.1960635
-0.4356133 0.51307046 1.1954982
-0.42692766 0.51241493 1.1939894
-0.41382274 0.51498836 1.1936651
-0.3944436 0.51583755 1.1956496
-0.3839094 0.51191783 1.196617
-0.36337686 0.51201791 1.1923014
-0.35576284 0.51186419 1.1914405
-0.3474721 0.51307088 1.1917336
-0.32778031 0.51001191 1.199795
-0.28440434 0.51161444 1.1959077
-0.27412641 0.51174223 1.1936808
-0.26292431 0.51098585 1.1944385
-0.46175256 0.52274072 1.1915917
-0.45856792 0.52280748 1.1917439
-0.43255559 0.52273059 1.1915686
-0.40230167 0.52182984 1.1932173
-0.54117501 0.49799624 1.2023212
-0.53784829 0.49140188 1.2021998
-0.52015442 0.49323997 1.2066966
-0.5106442 0.49357116 1.2075069
-0.49515748 0.49561143 1.2018304
-0.48417038 0.49664789 1.2043364
-0.51516718 0.50139481 1.2065663
-0.50219387 0.50482994 1.2030097
-0.49806917 0.50729859 1.2088926
-0.48195553 0.50592893 1.2056243
-0.24354777 0.5081389 1.2030919
-0.23739849 0.50900245 1.2051365
-0.54022443 0.51018804 1.2002094
-0.48570022 0.5112496 1.2027066
-0.47474945 0.51192361 1.20816
-0.46481127 0.51167709 1.2037122
-0.45519909 0.51240623 1.2028553
-0.44515654 0.51590729 1.2059458
-0.43933594 0.51226103 1.2012402
-0.42268813 0.51388371 1.2050552
-0.41545326 0.51141357 1.2030923
-0.40376592 0.51112223 1.2024071
-0.38512167 0.51244587 1.2055207
-0.37151358 0.51177752 1.2039486
-0.36695194 0.51226795 1.2051023
-0.28335032 0.51316518 1.2052855
-0.27807212 0.5133208 1.2037303
-0.26442742 0.51063889 1.20127
-0.23169824 0.51089841 1.2096255
-0.46252111 0.5240429 1.2020175
-0.5021528 0.49820203 1.2147968
-0.49212834 0.49811536 1.2186241
-0.4954451 0.50143212 1.2186241
-0.21608765 0.50961244 1.2144064
-0.50285834 0.51211542 1.2125069
-0.49881458 0.5114364 1.218753
-0.47367668 0.51447153 1.2180853
-0.45513296 0.51743978 1.2172689
-0.41336459 0.51492834 1.2113608
-0.3793959 0.51474935 1.2187431
-0.36396599 0.51403594 1.2170541
-0.35629886 0.51492596 1.2191613
-0.34479451 0.51262307 1.2137089
-0.33795288 0.51478207 1.2188206
-0.3243241 0.51420748 1.2174602
-0.31451389 0.5117268 1.2115868
-0.30473912 0.51193064 1.2120693
-0.29502523 0.51224184 1.2128062
-0.28555882 0.51303005 1.2146723
-0.27624246 0.51414859 1.2173207
-0.26558399 0.51275027 1.21401
-0.25550967 0.51242721 1.213245
-0.23543167 0.51185757 1.2118964
-0.22023514 0.51156873 1.2190683
-0.21334328 0.51095575 1.2176075
-0.5338496 0.4965848 1.2230233
-0.52570176 0.49674913 1.223428
-0.49806213 0.49741438 1.2209742
-0.50935727 0.50202018 1.2281772
-0.51433861 0.5103575 1.2241213
-0.48707768 0.51542854 1.2295961
-0.47218806 0.51829606 1.2271404
-0.46842471 0.51782793 1.2260321
-0.44473287 0.51743621 1.2251046
-0.43296388 0.51865917 1.2201375
-0.42974856 0.51878661 1.2204373
-0.41285115 0.51927936 1.2294686
-0.40529048 0.51817453 1.2268527
-0.39771336 0.51917589 1.2292235
-0.38564706 0.51869565 1.2280866
-0.37485015 0.51764214 1.225592
-0.33255732 0.51670736 1.223379
-0.21046731 0.5120213 1.2201468
-0.53455818 0.50036389 1.2323307
-0.523857 0.50135934 1.2347825
-0.51729184 0.5065164 1.239177
-0.51747102 0.51006567 1.2396061
-0.46697983 0.51993459 1.2310199
-0.45356071 0.51991487 1.2309732
-0.32094303 0.51882237 1.2363538
-0.31504411 0.5174247 1.233023
-0.45876038 0.52201921 1.2359555
-0.44270232 0.5229187 1.2380853
-0.4318932 0.52207261 1.236082
-0.42696166 0.5222156 1.2364204
-0.41818571 0.52176017 1.2353421
-0.40799555 0.5216279 1.2350291
-0.39269626 0.52139729 1.234483
-0.5228461 0.5069412 1.2443693
-0.50372511 0.50645828 1.2473404
-0.49965218 0.50916225 1.2456501
-0.49540192 0.51511621 1.2477537
-0.48719341 0.52390903 1.2484752
-0.46659702 0.52516317 1.2433993
-0.44173926 0.52578324 1.2448674
-0.4394168 0.52706152 1.2478939
-0.42414126 0.52496994 1.2429417
-0.3842333 0.52252311 1.2451725
-0.52165401 0.50904679 1.2537155
-0.51269841 0.50692081 1.2526808
-0.49459395 0.52475768 1.258661
-0.48768046 0.52811623 1.2585009
