# .PCD v0.7 - Point Cloud Data file format
VERSION 0.7
FIELDS x y z
SIZE 4 4 4
TYPE F F F
COUNT 1 1 1
WIDTH 582
HEIGHT 1
VIEWPOINT 0 0 0 1 0 0 0
POINTS 582
DATA ascii
-0.16151972 0.57324141 1.0165836
-0.15320165 0.5704093 1.0164673
-0.16581781 0.50318301 1.0260587
-0.17424828 0.52847612 1.0263681
-0.16447085 0.52427995 1.026359
-0.17572515 0.53570342 1.0252575
-0.15991622 0.53006101 1.0240332
-0.1633888 0.54628837 1.0283473
-0.15966891 0.54593813 1.0224495
-0.17268232 0.56424415 1.0253737
-0.16895127 0.5657624 1.0281327
-0.15770665 0.56837511 1.0277971
-0.1792431 0.57963747 1.0229887
-0.16617894 0.57984436 1.0282933
-0.15587443 0.57236159 1.0249172
-0.18806782 0.58388674 1.0255618
-0.17082608 0.58776951 1.0226045
-0.16520309 0.58756852 1.0222548
-0.15977983 0.58391154 1.0231597
-0.18222712 0.59421015 1.0241112
-0.15191308 0.59417027 1.0264537
-0.1721973 0.49709779 1.030813
-0.17743611 0.5014137 1.0368383
-0.16302058 0.50540966 1.0349128
-0.16425151 0.51166916 1.0338072
-0.18199468 0.52351385 1.0386926
-0.17935328 0.52971619 1.0397688
-0.16130836 0.52342981 1.0329478
-0.15895912 0.52213645 1.0359597
-0.19590554 0.53279471 1.0374959
-0.18992159 0.53044719 1.0356706
-0.17560101 0.53820914 1.0343361
-0.16178992 0.5334518 1.0360315
-0.17416759 0.54235268 1.034186
-0.16569309 0.54424053 1.0368842
-0.19509721 0.55310595 1.0332377
-0.18150592 0.55030227 1.0359031
-0.17531621 0.55419987 1.0326586
-0.16684732 0.55409145 1.0324552
-0.15879613 0.55258477 1.0348974
-0.19265722 0.56545323 1.0352805
-0.16769215 0.56534886 1.0376568
-0.18405309 0.57623327 1.034373
-0.16401704 0.57367557 1.0323013
-0.18892381 0.5893482 1.0302296
-0.16949372 0.58161527 1.0314337
-0.21252069 0.5968287 1.035908
-0.1699933 0.59459168 1.0344738
-0.15020785 0.59850836 1.0339463
-0.1540795 0.60137045 1.0316126
-0.16807768 0.49871787 1.0400424
-0.19553392 0.50517499 1.0455987
-0.18512335 0.50415921 1.0484157
-0.17896177 0.50288427 1.0457709
-0.1641582 0.50493544 1.0451088
-0.22343454 0.51223016 1.0474188
-0.21808583 0.51508981 1.0445614
-0.17473182 0.5186488 1.0459852
-0.20681417 0.52552056 1.0426732
-0.17478171 0.5235433 1.0462825
-0.16494527 0.52632689 1.0470998
-0.15995233 0.52823603 1.0424325
-0.229257 0.53959972 1.0479716
-0.20570533 0.53435743 1.0442457
-0.19818667 0.53186077 1.0495856
-0.1864415 0.53095376 1.0477958
-0.16627972 0.533167 1.0465423
-0.20004885 0.54912764 1.0443937
-0.19449593 0.54382104 1.045164
-0.1826708 0.54532146 1.0425514
-0.17950127 0.54289925 1.0406268
-0.21640706 0.55382383 1.0479031
-0.20572984 0.5548017 1.0443729
-0.16693817 0.5576719 1.0417721
-0.17479733 0.56156236 1.0463773
-0.23344713 0.57502639 1.0475633
-0.18812668 0.57302916 1.0413382
-0.1964982 0.58256006 1.0406436
-0.18423681 0.58703309 1.0460966
-0.17974271 0.58758837 1.0420264
-0.16319068 0.58430475 1.0450376
-0.15767169 0.5813579 1.0461253
-0.22861935 0.5949859 1.0450568
-0.21948813 0.599042 1.0422164
-0.1952972 0.59175158 1.0494094
-0.17974271 0.59042448 1.0420264
-0.23967923 0.6027205 1.0436742
-0.22189836 0.60072428 1.0402176
-0.20659539 0.60708863 1.0487669
-0.16020371 0.60863286 1.0440708
-0.15695593 0.60422778 1.0413764
-0.24517828 0.5073899 1.0551286
-0.19471329 0.50686508 1.0540507
-0.1860653 0.50851095 1.056474
-0.17453578 0.50510693 1.0533663
-0.16448916 0.50508291 1.0533162
-0.2428571 0.51276964 1.0544013
-0.23725766 0.51031095 1.0582126
-0.20861918 0.51071018 1.0590404
-0.17430183 0.52877814 1.0548482
-0.21011871 0.53027946 1.052116
-0.20502543 0.53576273 1.05539
-0.18686581 0.53770792 1.0582869
-0.16498734 0.53824329 1.0565064
-0.20280567 0.5422864 1.0587862
-0.18801525 0.54406321 1.0566403
-0.17385419 0.54762673 1.0579687
-0.1638241 0.54608929 1.0536119
-0.19557185 0.55540103 1.0508852
-0.21141361 0.56235945 1.0585998
-0.18976948 0.56087923 1.0504316
-0.17004173 0.56754869 1.0521957
-0.23589799 0.5727064 1.0564487
-0.19949302 0.57274812 1.056504
-0.24849223 0.58452213 1.0569959
-0.19622563 0.5830856 1.0543982
-0.15971301 0.58600044 1.0596691
-0.23887283 0.59930217 1.0526382
-0.22878499 0.591389 1.0589893
-0.20635858 0.59482312 1.0548671
-0.18513358 0.59005874 1.0566071
-0.24248332 0.60402423 1.0558845
-0.21269004 0.60104263 1.0506724
-0.20770891 0.60318619 1.0544195
-0.18990104 0.60132152 1.0511599
-0.17565976 0.60153896 1.05154
-0.16457462 0.60573649 1.0538635
-0.25095791 0.61372858 1.0552671
-0.26472935 0.50172853 1.0644462
-0.23795442 0.50892103 1.0613203
-0.22297391 0.50726497 1.0679686
-0.21196729 0.50953192 1.06866
-0.19491604 0.50968146 1.0629061
-0.18920472 0.50843275 1.0633249
-0.17531197 0.50865644 1.0668238
-0.27194068 0.51181227 1.0643365
-0.26494992 0.511814 1.0653473
-0.24345827 0.51138771 1.0664644
-0.23277006 0.5179565 1.0640514
-0.22233301 0.51286614 1.0695477
-0.2149002 0.51327395 1.0663695
-0.20341319 0.51262277 1.0670224
-0.19838957 0.51117742 1.066026
-0.16315974 0.51567566 1.0633358
-0.16396552 0.52694756 1.0685872
-0.21177658 0.53157729 1.0604174
-0.16115636 0.53891289 1.0692455
-0.27926537 0.54818141 1.0646384
-0.16479099 0.54379034 1.0645621
-0.26809144 0.55193686 1.0662955
-0.18713328 0.5528295 1.06802
-0.16480538 0.55831695 1.0646298
-0.26079872 0.56756169 1.0602446
-0.16362563 0.56648827 1.066372
-0.22399488 0.57660377 1.0636163
-0.16872217 0.57279116 1.0619148
-0.28188565 0.58816969 1.0635918
-0.27479491 0.58577728 1.069796
-0.25658211 0.58118331 1.0667083
-0.18370794 0.58315891 1.0650141
-0.28413805 0.59261948 1.0611926
-0.15797757 0.59900826 1.0674305
-0.28527799 0.6094963 1.0654501
-0.25526154 0.60761905 1.0672462
-0.21583073 0.60701609 1.0661871
-0.20238571 0.60246181 1.0666866
-0.24151909 0.61173481 1.0642995
-0.227529 0.61887056 1.066613
-0.21614522 0.6195249 1.0677407
-0.19151686 0.61509389 1.0601039
-0.18025456 0.61893684 1.0617467
-0.15995449 0.61288279 1.0612713
-0.19532283 0.49703562 1.0730786
-0.3063224 0.5062927 1.0782803
-0.29562402 0.50752348 1.0767521
-0.28608617 0.50619638 1.0739291
-0.27544424 0.50577444 1.0761428
-0.26401421 0.50883102 1.0733168
-0.24197984 0.5028429 1.0792744
-0.23278874 0.50683057 1.0752749
-0.22391212 0.50674236 1.0771582
-0.21379477 0.50750935 1.070529
-0.20270357 0.50601017 1.0735452
-0.19521952 0.50562054 1.0778966
-0.18307975 0.5060972 1.078384
-0.1774607 0.50545597 1.0754673
-0.29962072 0.51269567 1.0752954
-0.28774351 0.51239187 1.0746583
-0.27390501 0.5146836 1.0748719
-0.26305053 0.51274514 1.0733743
-0.25435346 0.51216197 1.075716
-0.24809441 0.51206517 1.0739729
-0.23666748 0.51352477 1.0729406
-0.22188088 0.51374805 1.0744352
-0.21582273 0.51326025 1.0734092
-0.20684706 0.5119679 1.0737736
-0.19445193 0.51221824 1.0763453
-0.18517879 0.51184857 1.0735188
-0.17365022 0.51083845 1.0744753
-0.16593339 0.51399159 1.0718988
-0.23032875 0.5236299 1.0797377
-0.22022809 0.52059364 1.0734768
-0.16475843 0.52511221 1.0737547
-0.1636858 0.53661072 1.0763049
-0.16543415 0.55514407 1.0781585
-0.24665186 0.5647133 1.0740362
-0.19155088 0.56015426 1.0765104
-0.16835517 0.56976968 1.0780724
-0.29883912 0.58433366 1.0724905
-0.17075479 0.58261669 1.0747079
-0.15866292 0.59868902 1.0720613
-0.22141145 0.60857552 1.079245
-0.19992095 0.60868537 1.0742546
-0.25610742 0.61255443 1.070796
-0.24587741 0.61539292 1.0706639
-0.2212384 0.61690521 1.0784014
-0.21725263 0.61685705 1.0732112
-0.15901911 0.61757952 1.0744681
-0.294622 0.50717294 1.0838213
-0.28946105 0.50956553 1.0810728
-0.2775301 0.50606132 1.0861822
-0.26842594 0.50414234 1.0852728
-0.25551289 0.50489771 1.0868592
-0.23549022 0.50699526 1.0865983
-0.22561245 0.50742334 1.0853132
-0.21439943 0.50869459 1.0833983
-0.20409909 0.50918639 1.0840406
-0.19356944 0.50362229 1.0854855
-0.18553151 0.50590611 1.0858545
-0.17384182 0.50692666 1.0848721
-0.16644524 0.50834537 1.0847478
-0.26349068 0.51399595 1.0831789
-0.25856894 0.51250452 1.0831498
-0.24491608 0.51297903 1.0870765
-0.23508152 0.51556861 1.0813202
-0.22873762 0.5119524 1.0861367
-0.21555337 0.51150668 1.0867631
-0.20254736 0.51445305 1.0831015
-0.1953526 0.51228231 1.0868366
-0.18624043 0.5131442 1.0839739
-0.17271182 0.51297742 1.0870624
-0.16623603 0.51419818 1.0834082
-0.23801522 0.52764016 1.0880069
-0.22722368 0.52359581 1.0845398
-0.2109374 0.52361995 1.0858109
-0.163899 0.54365945 1.0874678
-0.16416018 0.5519222 1.0891753
-0.16646673 0.57041889 1.0848879
-0.2247079 0.58895481 1.0809722
-0.16488644 0.58459729 1.0874609
-0.28092727 0.59257078 1.0822029
-0.16356981 0.59129006 1.0852584
-0.15800938 0.62367463 1.0876476
-0.28237399 0.50918192 1.0993019
-0.27481735 0.50711942 1.0970004
-0.26876944 0.50399351 1.0966978
-0.25388134 0.50606287 1.092568
-0.24276099 0.50619268 1.0960753
-0.23351853 0.50705314 1.0947061
-0.22635171 0.50767601 1.0960507
-0.21337047 0.50735623 1.0932187
-0.20358582 0.50521052 1.0939474
-0.19539405 0.50564057 1.0981089
-0.18312413 0.50776684 1.0962468
-0.1732364 0.50793648 1.0950079
-0.1681675 0.50912797 1.0959721
-0.28415918 0.51197302 1.0946245
-0.27438706 0.51122975 1.0972755
-0.26547426 0.51282179 1.097491
-0.25558794 0.51662296 1.0947868
-0.24624157 0.51458687 1.0938516
-0.23058192 0.51310027 1.0948942
-0.2218366 0.51056826 1.0958557
-0.21718383 0.51163936 1.0949581
-0.20917904 0.51177192 1.0920596
-0.18807247 0.51392269 1.0903168
-0.17324786 0.51396143 1.0903989
-0.16587549 0.51366878 1.0939949
-0.20118536 0.52010298 1.0970937
-0.23459655 0.53033918 1.0997443
-0.16172269 0.55075228 1.0927358
-0.15973514 0.55118245 1.0995268
-0.17384952 0.57828563 1.0941857
-0.16464543 0.57139283 1.0923949
-0.17166685 0.58396941 1.0992789
-0.16542146 0.58304131 1.0975344
-0.15963762 0.58673519 1.0988555
-0.16877818 0.59929574 1.099952
-0.27363172 0.50489467 1.1063008
-0.26816785 0.50461328 1.1024008
-0.25487509 0.50804061 1.1046321
-0.24425766 0.50780362 1.1028064
-0.23899385 0.5093863 1.1062436
-0.22360133 0.5096187 1.1045793
-0.21314505 0.50725937 1.1048958
-0.20645356 0.50670874 1.1053293
-0.19138233 0.50721681 1.1037166
-0.18463607 0.50594968 1.1053239
-0.1745436 0.50778031 1.1049427
-0.16594408 0.50997365 1.1010113
-0.27589786 0.51194948 1.105293
-0.26579204 0.51541936 1.1049807
-0.25388083 0.51405519 1.1033487
-0.23344661 0.51042384 1.1084968
-0.22171275 0.51187766 1.1051348
-0.21104388 0.51033682 1.1017953
-0.20811966 0.51201665 1.1021903
-0.18525515 0.51064646 1.1089803
-0.16723236 0.51091284 1.1095588
-0.24777034 0.52389908 1.1051011
-0.23483922 0.52639341 1.1008818
-0.16699278 0.52525878 1.1079692
-0.15796906 0.5313673 1.1081306
-0.16343361 0.55358446 1.1043134
-0.16328955 0.56732911 1.106706
-0.16437039 0.57300568 1.105551
-0.1580642 0.57091922 1.108798
-0.16228762 0.58327425 1.1052682
-0.15814683 0.58480442 1.1093776
-0.16276959 0.59405416 1.103194
-0.16579925 0.6029855 1.106729
-0.16296355 0.62390763 1.1011201
-0.15684156 0.62938744 1.1002214
-0.15402371 0.63611048 1.101491
-0.15450034 0.64108151 1.1048931
-0.14906372 0.64659506 1.1091926
-0.26656485 0.50788224 1.1145124
-0.25734451 0.50627393 1.1153179
-0.24354935 0.50960737 1.1133043
-0.22138774 0.50787288 1.116173
-0.21403491 0.50472069 1.1147875
-0.20664954 0.50711203 1.1144886
-0.18437329 0.50535709 1.1146231
-0.17509295 0.50648248 1.113937
-0.16723974 0.50793737 1.1146365
-0.25382316 0.51199472 1.1185197
-0.24981911 0.51003528 1.114239
-0.23481277 0.51341367 1.1149899
-0.22518383 0.51148188 1.1173992
-0.21575502 0.51441568 1.1106039
-0.19925997 0.51259691 1.1198353
-0.18273792 0.51205057 1.1120297
-0.1727991 0.51148504 1.1129979
-0.16500765 0.51490206 1.1149317
-0.24509656 0.52576351 1.1111602
-0.1593509 0.52993071 1.1178241
-0.24392629 0.53619719 1.1150274
-0.16341971 0.53364509 1.1144557
-0.1574571 0.53399837 1.1152058
-0.16849956 0.54216933 1.1179664
-0.15904918 0.54107386 1.1157075
-0.16308762 0.55449969 1.1121826
-0.16502088 0.56805032 1.1150149
-0.15914419 0.56569254 1.116374
-0.16291925 0.57811928 1.1110358
-0.15919892 0.57348824 1.1167579
-0.16588554 0.58674175 1.1140161
-0.1589435 0.58167791 1.1149662
-0.15919606 0.59476632 1.1167378
-0.16199079 0.60601193 1.1150534
-0.16230744 0.62543297 1.117233
-0.15464249 0.63886571 1.1167903
-0.15404078 0.64251554 1.1160926
-0.153147 0.65112031 1.1169554
-0.22700557 0.49804807 1.12139
-0.23143861 0.50513005 1.1281211
-0.22484533 0.50540239 1.1258763
-0.21436279 0.5045132 1.12447
-0.20820555 0.50668716 1.1270282
-0.1952028 0.5070917 1.1256737
-0.18404727 0.50491422 1.1230913
-0.1756454 0.50565279 1.1247276
-0.24594329 0.5125643 1.1242247
-0.23417269 0.51463163 1.1265156
-0.22532634 0.5108583 1.1244016
-0.19517703 0.51235712 1.1226501
-0.16672733 0.51107043 1.1265514
-0.16591333 0.52383286 1.1210513
-0.24289787 0.53912771 1.1243143
-0.16372764 0.53326291 1.1270134
-0.15658014 0.53432119 1.1270871
-0.24232535 0.5424372 1.1216643
-0.16442607 0.54444355 1.1247675
-0.15696307 0.54131526 1.1225051
-0.17013596 0.55050701 1.1288236
-0.16057387 0.55545497 1.1264031
-0.15999447 0.5595631 1.1223385
-0.15984155 0.56513184 1.1212659
-0.15760842 0.5742172 1.1271203
-0.16918188 0.59324652 1.1224935
-0.16078922 0.60685718 1.1279137
-0.16611215 0.61457819 1.1223947
-0.16347519 0.63452923 1.1252711
-0.15513846 0.63894022 1.1240567
-0.15173259 0.64895296 1.1290518
-0.15469468 0.65463662 1.1282588
-0.24348339 0.50680017 1.1341457
-0.23457086 0.50440562 1.1334032
-0.22533928 0.50759906 1.1345575
-0.21373755 0.50581157 1.1319333
-0.20553318 0.50838411 1.1376903
-0.19579342 0.5078243 1.1350657
-0.1846796 0.50576007 1.1364391
-0.17460957 0.50700581 1.1346158
-0.16654658 0.50905883 1.1357493
-0.23706053 0.51364422 1.1379107
-0.20475483 0.5149591 1.1362557
-0.19571346 0.51163882 1.134614
-0.16605255 0.51377845 1.1359223
-0.16500275 0.53380853 1.1357886
-0.15660706 0.53483462 1.1346864
-0.17126827 0.54798526 1.1363363
-0.16766813 0.54530233 1.1329081
-0.1553371 0.54429698 1.1329666
-0.17084968 0.55898684 1.1335591
-0.16602193 0.55489761 1.1357083
-0.1588906 0.55723751 1.1362896
-0.17061701 0.5613066 1.1320153
-0.16630504 0.56234074 1.1341009
-0.15883245 0.56476837 1.1358738
-0.15886676 0.57106912 1.1361191
-0.15859905 0.58554822 1.1342047
-0.15858288 0.59473586 1.134089
-0.15922377 0.60489625 1.1386722
-0.16152497 0.61425835 1.1330748
-0.16645065 0.62310255 1.1351494
-0.16188386 0.63571125 1.1355925
-0.15503573 0.63760781 1.1307306
-0.16124289 0.64397085 1.131096
-0.15579605 0.64385998 1.1363335
-0.1706171 0.6506567 1.1320159
-0.1642503 0.65907812 1.1306065
-0.15296841 0.65114051 1.1382476
-0.16201058 0.66250277 1.1364813
-0.153056 0.66081262 1.1388993
-0.14638191 0.66176695 1.135219
-0.22724429 0.50572443 1.1456947
-0.21469787 0.50866497 1.1452947
-0.20404485 0.50930071 1.1467261
-0.19449112 0.50724721 1.1456184
-0.18475133 0.50620466 1.1432674
-0.17554048 0.50622809 1.14402
-0.16710888 0.5064851 1.1460146
-0.2264549 0.51056916 1.1495821
-0.20619743 0.51313132 1.1413654
-0.1998146 0.51890451 1.1403958
-0.1648902 0.5119853 1.1457515
-0.16647987 0.52767015 1.1459537
-0.16332886 0.53379464 1.1457076
-0.1568981 0.53625965 1.1443135
-0.16932572 0.54861921 1.1441083
-0.15386596 0.54277915 1.1449263
-0.14174178 0.5472098 1.1476831
-0.13868278 0.54433995 1.1482186
-0.17207764 0.55989707 1.1417063
-0.15562612 0.55129367 1.1464388
-0.16773072 0.56249452 1.1438334
-0.1603286 0.61533529 1.1465733
-0.16313572 0.62349856 1.144374
-0.1632655 0.63750505 1.1452899
-0.15636128 0.63995546 1.1403983
-0.16269916 0.64512742 1.1413116
-0.15635665 0.64412665 1.1441493
-0.16832402 0.65256333 1.144366
-0.20175681 0.50827825 1.1514804
-0.19445668 0.50609797 1.1565261
-0.18525842 0.50784945 1.1528877
-0.17425829 0.50719029 1.1561444
-0.16493425 0.50436461 1.1514943
-0.21446207 0.51132882 1.1566155
-0.20696835 0.51111126 1.1543477
-0.16417599 0.52090061 1.1516713
-0.15880142 0.53961271 1.1581951
-0.15296903 0.54699266 1.1538221
-0.14394681 0.54651821 1.1528134
-0.11580077 0.54696774 1.1537616
-0.14763179 0.55171406 1.1571302
-0.17028314 0.567379 1.1505774
-0.15903962 0.56252116 1.1599324
-0.15864179 0.58788157 1.1570308
-0.15886496 0.6092065 1.1586585
-0.15833221 0.6103065 1.154773
-0.16124699 0.62513667 1.1531411
-0.15724277 0.62637234 1.1583273
-0.16314399 0.63736194 1.1554213
-0.16366555 0.64101768 1.1591572
-0.16731387 0.65256369 1.1516945
-0.15246411 0.65925765 1.1579463
-0.17720872 0.66380697 1.1548949
-0.15223436 0.66769761 1.1562014
-0.14557953 0.67233074 1.1533405
-0.20111689 0.50672221 1.1659395
-0.19448642 0.50629508 1.1642249
-0.18579613 0.50647473 1.1653798
-0.17547679 0.50863528 1.1642621
-0.16625765 0.50527966 1.1662676
-0.20628506 0.51119614 1.1652924
-0.1629518 0.51281083 1.165333
-0.16424075 0.53879994 1.163246
-0.15266234 0.54688054 1.1642725
-0.14570698 0.54699397 1.1627181
-0.11852627 0.5491814 1.1651201
-0.15369956 0.55975419 1.1673294
-0.14535595 0.55350071 1.1642071
-0.13714606 0.55071825 1.1616728
-0.12148532 0.55138993 1.1630896
-0.11193129 0.55110818 1.1624954
-0.16017748 0.57396209 1.1682312
-0.15977848 0.57464951 1.1653211
-0.15988773 0.5877378 1.1661179
-0.15943412 0.5955649 1.1628096
-0.15959401 0.60407567 1.1639757
-0.15952542 0.61807251 1.1634755
-0.15975532 0.6237191 1.1651523
-0.16417316 0.63667786 1.1627588
-0.15356496 0.63227415 1.1663071
-0.16731279 0.64283091 1.1662631
-0.15944497 0.64624631 1.1628888
-0.15429938 0.65523189 1.1638607
-0.15281808 0.66394717 1.1606348
-0.15055567 0.67427462 1.1675872
-0.19437902 0.50506663 1.1731386
-0.18293101 0.50432235 1.1714097
-0.17583656 0.50610262 1.1746187
-0.16650572 0.50502229 1.1755164
-0.17659454 0.51081455 1.1716752
-0.16170159 0.51415926 1.179347
-0.16407257 0.52432024 1.1733479
-0.16594973 0.53321087 1.1753602
-0.16798078 0.54259402 1.1783614
-0.15492851 0.54821211 1.1766524
-0.14472955 0.54917592 1.1718752
-0.14224829 0.55192387 1.177739
-0.13539813 0.5541479 1.1739674
-0.12585114 0.55454308 1.1742296
-0.11648568 0.55456358 1.1765388
-0.10956467 0.55514824 1.1710174
-0.15770766 0.56591314 1.1735127
-0.16091956 0.58673739 1.1736434
-0.15840088 0.6165204 1.1786709
-0.15805334 0.62636107 1.1760849
-0.16087656 0.63927478 1.1733298
-0.16244438 0.64555645 1.1731327
-0.1579113 0.64019996 1.175028
-0.15138532 0.67160505 1.1740214
-0.14828813 0.68164235 1.1747991
-0.18490231 0.50492144 1.1840382
-0.1749309 0.50351214 1.1819856
-0.16678733 0.50483942 1.1850981
-0.16217583 0.51351565 1.1828059
-0.15917677 0.5179894 1.1844443
-0.16285098 0.52589816 1.1877298
-0.1580337 0.52439058 1.1879822
-0.16574153 0.54415768 1.1852732
-0.15557991 0.55052215 1.1816105
-0.14475021 0.55378795 1.1851537
-0.13159277 0.5591346 1.1828264
-0.1143621 0.55984384 1.1877412
-0.1270491 0.56199825 1.1854666
-0.10754055 0.56121784 1.1838205
-0.15012175 0.57030177 1.1893257
-0.15925071 0.61175996 1.1849946
-0.15714592 0.63396132 1.1812853
-0.17494482 0.50471306 1.1930616
-0.16376537 0.50772643 1.1944233
-0.16047442 0.51408869 1.1941004
-0.15740505 0.52281094 1.1954722
-0.16260502 0.53347647 1.1938443
-0.1578794 0.53255051 1.1990747
-0.15604463 0.55466974 1.1975081
-0.14584465 0.55633557 1.1940881
-0.13730983 0.55790681 1.1905059
-0.14063366 0.56796509 1.1912141
-0.13313912 0.56081235 1.1967061
-0.1116695 0.56256473 1.1935136
-0.10525833 0.56789744 1.1944854
-0.1420498 0.5605852 1.2032093
-0.12745893 0.56452239 1.2046227
-0.10953728 0.56835628 1.2058008
-0.13516033 0.57224536 1.2001911
-0.11608311 0.57483804 1.2056289
-0.10496148 0.57274294 1.2035334
