# .PCD v0.7 - Point Cloud Data file format
VERSION 0.7
FIELDS x y z
SIZE 4 4 4
TYPE F F F
COUNT 1 1 1
WIDTH 158
HEIGHT 1
VIEWPOINT 0 0 0 1 0 0 0
POINTS 158
DATA ascii
-0.48669788 0.19157967 0.72680539
-0.47379532 0.17675227 0.7364499
-0.47212043 0.18088734 0.73696429
-0.47872326 0.19155125 0.7317273
-0.48309636 0.18149801 0.74774373
-0.47664988 0.18504322 0.74562061
-0.52716452 0.18409462 0.75844139
-0.50748795 0.18473673 0.75682724
-0.49959141 0.18512063 0.75421137
-0.48621836 0.1855007 0.75575984
-0.53182381 0.18884549 0.76514482
-0.51643932 0.18751818 0.76397938
-0.50953341 0.18671097 0.76922035
-0.46657789 0.1858542 0.76572788
-0.53659767 0.19084392 0.76900178
-0.51411861 0.19027066 0.7666918
-0.47961414 0.17259006 0.77160901
-0.53893346 0.18957254 0.77234918
-0.52356535 0.18401653 0.77552408
-0.51610214 0.18834412 0.77594864
-0.48532528 0.18463105 0.77514625
-0.47269654 0.18261227 0.77403712
-0.46723536 0.1850834 0.77549618
-0.52357131 0.16716063 0.7855711
-0.49005762 0.17771582 0.78497344
-0.48985147 0.1784189 0.78807896
-0.52069211 0.18614641 0.78445953
-0.49651027 0.18725479 0.78617346
-0.48786688 0.18526267 0.78374308
-0.47194624 0.18512079 0.78240269
-0.46701962 0.18644804 0.78575861
-0.52288532 0.18311852 0.79922897
-0.49440128 0.18541089 0.79658389
-0.48303038 0.18636636 0.79451692
-0.47622895 0.18666007 0.79578
-0.46780145 0.18517308 0.79251683
-0.53150666 0.17874649 0.80239761
-0.50934219 0.17794086 0.80533057
-0.49108258 0.17407723 0.80774403
-0.54584384 0.18793505 0.80745459
-0.53130007 0.18672529 0.80540347
-0.52531612 0.18542634 0.80295658
-0.51375341 0.18272811 0.80709159
-0.50659001 0.18450563 0.80212724
-0.49053648 0.18622601 0.8032499
-0.53791082 0.17906001 0.81039566
-0.51767129 0.17862295 0.81849986
-0.50384688 0.1791766 0.81595725
-0.49731505 0.17328607 0.81435668
-0.54480344 0.18835925 0.81245124
-0.52282745 0.18293306 0.81785017
-0.51721245 0.18356201 0.81079608
-0.50270033 0.18397884 0.81591749
-0.49221334 0.18632534 0.81324744
-0.55555385 0.17558455 0.82512236
-0.50379109 0.17778113 0.82496232
-0.4986006 0.17119546 0.82565421
-0.55054432 0.18214513 0.8243584
-0.52411723 0.18343666 0.8251574
-0.51679558 0.18686084 0.82539743
-0.55943066 0.17906587 0.83089203
-0.50281554 0.17490888 0.83263391
-0.57954055 0.18423036 0.83379573
-0.53372359 0.18635039 0.83312297
-0.52589744 0.18679258 0.83512253
-0.51180238 0.18662104 0.8343541
-0.50847781 0.18356422 0.83077788
-0.49454618 0.18398085 0.83781707
-0.51702929 0.17401552 0.8447746
-0.49317497 0.1775572 0.84524101
-0.47190258 0.17782041 0.8428601
-0.46964535 0.17965706 0.84429801
-0.56853241 0.18271783 0.84783769
-0.55247551 0.18274961 0.84798515
-0.53745216 0.18313551 0.84977579
-0.5004788 0.18460712 0.84592098
-0.48279363 0.18466669 0.84620035
-0.52119499 0.17928226 0.85345298
-0.51189196 0.17927819 0.85343361
-0.49604809 0.17942859 0.85414952
-0.48109895 0.17832552 0.85443866
-0.54379171 0.18557976 0.8546567
-0.53846729 0.18427439 0.8550604
-0.5244503 0.1839086 0.85878396
-0.50515723 0.18407707 0.85778224
-0.55472153 0.17992282 0.86774516
-0.52104652 0.17775568 0.86869621
-0.51310468 0.17982255 0.86726153
-0.50205588 0.17849065 0.8665247
-0.48836717 0.1794063 0.86525398
-0.56178951 0.18425338 0.86589843
-0.55530614 0.18307222 0.8659119
-0.54297054 0.18190831 0.86595398
-0.53033185 0.18549889 0.86074221
-0.51414394 0.18402357 0.86206907
-0.49669477 0.18413356 0.86542821
-0.47877872 0.18080828 0.86071736
-0.54150456 0.17666622 0.87501055
-0.53404546 0.17616956 0.87255073
-0.51746303 0.17896949 0.87462813
-0.50270867 0.17761102 0.87380874
-0.49573594 0.17929226 0.87620556
-0.44603321 0.17992364 0.87929112
-0.56763691 0.18140864 0.87491107
-0.52341735 0.18415228 0.87662882
-0.50576717 0.18333356 0.87843084
-0.48726821 0.18282539 0.87598574
-0.54864931 0.17581101 0.88267362
-0.51229584 0.17773069 0.88628018
-0.4957754 0.17798051 0.88549554
-0.47756758 0.17693307 0.88228577
-0.44213983 0.17885982 0.88587528
-0.43909052 0.17860022 0.88458955
-0.56104153 0.1807383 0.88327235
-0.5521239 0.18284151 0.88568044
-0.54578608 0.18459097 0.88527602
-0.53471494 0.18050903 0.88215196
-0.52600503 0.18169066 0.88499349
-0.49839935 0.18068835 0.88302827
-0.50007701 0.1773288 0.89029378
-0.4970268 0.1779719 0.89352256
-0.48423183 0.17939582 0.89458555
-0.44439718 0.17832202 0.89528036
-0.42433953 0.17911245 0.89924878
-0.57511449 0.18457268 0.89017081
-0.56588674 0.18308367 0.8947342
-0.53324145 0.18277349 0.89616024
-0.5198071 0.18071431 0.89506036
-0.52938348 0.17987661 0.90308529
-0.51498097 0.17918 0.90372515
-0.50364852 0.17788064 0.90543687
-0.48507705 0.17985308 0.90296715
-0.46333224 0.17848617 0.90851903
-0.45604306 0.17720184 0.90511256
-0.44708011 0.17939901 0.90068752
-0.42808959 0.17894107 0.90460026
-0.40857917 0.17779538 0.90500283
-0.57317442 0.1829749 0.90625691
-0.56282794 0.18364578 0.90350223
-0.55835718 0.18296906 0.90622801
-0.54671454 0.18196727 0.90126622
-0.53377974 0.18215689 0.90220535
-0.51358414 0.18178098 0.90340579
-0.55858964 0.17394353 0.9106279
-0.53393143 0.17977759 0.91509259
-0.52185345 0.17990692 0.91575086
-0.49347711 0.17910546 0.91167134
-0.48411006 0.17833325 0.91194785
-0.46369338 0.1770964 0.91410887
-0.5257073 0.18037403 0.91812849
-0.56440699 0.13629125 0.92421228
-0.56486475 0.14417383 0.92634267
-0.56822342 0.16361144 0.92224115
-0.48454243 0.1788246 0.9230293
-0.47454903 0.17931755 0.92557371
-0.57041562 0.16062219 0.93405133
-0.56697392 0.1603678 0.93257195
-0.47219747 0.17877096 0.93590045
