# .PCD v0.7 - Point Cloud Data file format
VERSION 0.7
FIELDS x y z
SIZE 4 4 4
TYPE F F F
COUNT 1 1 1
WIDTH 120
HEIGHT 1
VIEWPOINT 0 0 0 1 0 0 0
POINTS 120
DATA ascii
-0.16784957 0.52975643 0.95796269
-0.17702444 0.47866139 0.96534055
-0.17412342 0.48578015 0.96382594
-0.17160445 0.49395013 0.96441203
-0.15722935 0.50596529 0.9647975
-0.16145673 0.51475441 0.96651745
-0.17365071 0.5237034 0.9612093
-0.18410653 0.53491616 0.96571797
-0.19030556 0.55527627 0.96607262
-0.16571259 0.55479681 0.96068931
-0.15932609 0.55464178 0.96955979
-0.17545262 0.47891527 0.97118342
-0.18503644 0.4859018 0.97994268
-0.17835125 0.48641762 0.9774217
-0.16833046 0.48122433 0.9758659
-0.17755963 0.49431434 0.97549069
-0.20325862 0.50346273 0.97778898
-0.159949 0.50647575 0.97335047
-0.19804259 0.52503526 0.97831511
-0.16605504 0.52226186 0.97810781
-0.20326868 0.53808582 0.97783738
-0.19956863 0.53441346 0.97277468
-0.21147251 0.54130948 0.97885406
-0.20411859 0.54153651 0.97766054
-0.19444111 0.54901153 0.97361439
-0.18682103 0.54732728 0.97533524
-0.17567368 0.54700738 0.97240704
-0.16255343 0.5487116 0.97308254
-0.2079072 0.55223429 0.9746297
-0.19281943 0.55728304 0.97883409
-0.17273542 0.5526908 0.97076803
-0.16255343 0.55136007 0.97308254
-0.15703338 0.55586708 0.9717018
-0.18143359 0.56301194 0.97491473
-0.17473161 0.56279069 0.97453159
-0.17958082 0.57086408 0.97928089
-0.21908662 0.48509482 0.98917437
-0.17578617 0.48396546 0.98412985
-0.20242572 0.49462405 0.98670119
-0.18194005 0.49504474 0.98485899
-0.17596066 0.49596703 0.98139393
-0.20135631 0.50536764 0.98148847
-0.19865924 0.50530213 0.98136133
-0.18519303 0.52635378 0.98077202
-0.20975028 0.53572279 0.98326969
-0.19443983 0.53444099 0.98256004
-0.18778601 0.53414464 0.98037314
-0.22320144 0.54659951 0.98357928
-0.21334381 0.54878718 0.98751587
-0.20668635 0.54540431 0.9814285
-0.18825278 0.54349709 0.98280996
-0.22407769 0.55143291 0.98744065
-0.20280808 0.55609453 0.98856497
-0.19545835 0.55231345 0.98542464
-0.21899888 0.56485844 0.9827565
-0.22031353 0.49322608 0.9947139
-0.20734559 0.49186781 0.99744964
-0.23688498 0.50475317 0.99609089
-0.22828418 0.5091325 0.99405485
-0.2007032 0.50510466 0.99145836
-0.24223652 0.51408726 0.99580061
-0.2154043 0.51745296 0.99705338
-0.23109436 0.52019024 0.99450523
-0.22106627 0.52751023 0.9981125
-0.21718262 0.52739275 0.99277759
-0.20348023 0.52419579 0.99184126
-0.24044603 0.53103006 0.99962455
-0.23181698 0.53810817 0.99761498
-0.22691885 0.53074944 0.99400353
-0.21425216 0.53595829 0.99489057
-0.24382713 0.54566395 0.99489594
-0.23311768 0.54340613 0.99737293
-0.22602004 0.54808033 0.99599993
-0.24817786 0.55998683 0.99789453
-0.23646006 0.5579561 0.99428415
-0.22551036 0.55766332 0.99375397
-0.24592802 0.5610503 0.9997896
-0.23748139 0.56095666 0.99480844
-0.20890266 0.56205195 0.99195242
-0.24478371 0.57602453 0.99509293
-0.23516884 0.57303679 0.99462569
-0.22194952 0.572469 0.99598467
-0.25358319 0.49648881 1.00497
-0.2463093 0.49516648 1.0069152
-0.23566644 0.49596864 1.0024523
-0.22803593 0.49553531 1.0049281
-0.258549 0.50593579 1.0065496
-0.24480233 0.50447577 1.0063642
-0.2525745 0.51725698 1.0045791
-0.2434369 0.51538241 1.0045073
-0.23141968 0.51500523 1.0037378
-0.25793687 0.52797264 1.0041665
-0.24308544 0.5228982 1.0049114
-0.25755143 0.53264576 1.002666
-0.24119304 0.53630698 1.0027303
-0.23278044 0.53489161 1.0017612
-0.26440877 0.54919726 1.0080009
-0.25838518 0.5453186 1.0059118
-0.23543195 0.54562384 1.0014422
-0.24777161 0.55566442 1.0072844
-0.26041347 0.5629521 1.0031786
-0.24388953 0.56262511 1.0025959
-0.26528254 0.5782907 1.0061252
-0.25711849 0.57261616 1.0009805
-0.26125392 0.50530475 1.013509
-0.25489128 0.50545931 1.0138186
-0.27429098 0.51571298 1.0140963
-0.26325789 0.51389426 1.0141479
-0.27789196 0.52753347 1.013822
-0.27689698 0.53290701 1.0135435
-0.28321779 0.5454886 1.0164533
-0.27793401 0.55705416 1.0173395
-0.27791217 0.56531644 1.0172595
-0.29788721 0.4989633 1.0288745
-0.2859672 0.49631655 1.0262949
-0.29686958 0.5047133 1.0253758
-0.2865895 0.52144611 1.0235356
-0.29438838 0.53612751 1.0231967
-0.28981718 0.53917414 1.020182
-0.31417295 0.50543845 1.0364099
