# .PCD v0.7 - Point Cloud Data file format
VERSION 0.7
FIELDS x y z
SIZE 4 4 4
TYPE F F F
COUNT 1 1 1
WIDTH 278
HEIGHT 1
VIEWPOINT 0 0 0 1 0 0 0
POINTS 278
DATA ascii
0.22968671 0.20361882 0.7698217
0.23544741 0.20251921 0.76698464
0.24447504 0.20199254 0.76367313
0.25415632 0.2012081 0.76466054
0.2653788 0.20078997 0.76701927
0.28400379 0.19947575 0.77511132
0.31500697 0.19828293 0.77352703
0.32438818 0.19823006 0.77332079
0.33451876 0.197998 0.77241546
0.19474992 0.20404731 0.77373415
0.20531981 0.20439135 0.77274233
0.21544071 0.20395723 0.77510315
0.22477329 0.20381454 0.77455914
0.23422818 0.2021296 0.77375764
0.24489279 0.2019701 0.77152735
0.25760657 0.20160167 0.77821106
0.26558733 0.20123355 0.77679008
0.27100387 0.20054404 0.77412844
0.28723824 0.19955841 0.78685749
0.29449722 0.19940011 0.78623337
0.30544406 0.19874531 0.78607237
0.31475204 0.19802494 0.78456479
0.3256962 0.19837368 0.78536177
0.33508819 0.19837123 0.78358912
0.34460467 0.19715868 0.78582871
0.18296035 0.20432815 0.7805351
0.19520196 0.2044102 0.78495282
0.20532706 0.20465232 0.78485101
0.21490437 0.20397267 0.78599679
0.22524704 0.20394723 0.78726524
0.23476389 0.20227271 0.78447455
0.24478449 0.20219655 0.78464216
0.25350487 0.202071 0.78519309
0.26446038 0.20147781 0.78599077
0.27483445 0.20046708 0.78204763
0.28509009 0.20030573 0.78980422
0.29607654 0.19940597 0.79478586
0.30324548 0.19878492 0.79231042
0.31577855 0.19843581 0.79670393
0.32366192 0.19832808 0.7948209
0.33725452 0.19849436 0.79115236
0.34636709 0.19785635 0.79725814
0.3541216 0.19569367 0.79398638
0.16648245 0.20680857 0.7983104
0.17409973 0.20554049 0.79341537
0.18450741 0.20510519 0.79173511
0.19631939 0.20486708 0.79417545
0.20551462 0.20425566 0.79442877
0.21519344 0.20344058 0.79364771
0.22487743 0.20340744 0.79351842
0.23117408 0.2032471 0.79289293
0.24274719 0.20264141 0.79901379
0.25565332 0.20253056 0.79857671
0.26510906 0.20228094 0.79759252
0.2754243 0.20124333 0.79472655
0.28517365 0.20058139 0.79603308
0.29429093 0.20002659 0.79725951
0.29924169 0.19971262 0.80473799
0.30513829 0.19927146 0.80296034
0.31477889 0.19847086 0.80527079
0.32625973 0.19847773 0.8056643
0.33510002 0.19878794 0.80495554
0.34478751 0.19844082 0.80625927
0.35603347 0.19611876 0.80438107
0.13536912 0.20909797 0.80714762
0.14602368 0.20862602 0.80532593
0.15654984 0.20779002 0.80493349
0.16474156 0.20696828 0.80497575
0.17474476 0.20540622 0.8013159
0.18473189 0.20560001 0.80207199
0.19302456 0.20513158 0.80024451
0.20487523 0.20391627 0.80404055
0.21448077 0.20367762 0.80309963
0.22466281 0.20399438 0.80434847
0.23524451 0.20368378 0.80312389
0.24627602 0.20272145 0.80552042
0.25549603 0.20264195 0.80396348
0.2645613 0.20218213 0.80585098
0.27542189 0.20210676 0.80555058
0.28576559 0.20093767 0.80381846
0.29592857 0.20043656 0.80765504
0.30529913 0.19922236 0.81507146
0.31606957 0.19888212 0.81708658
0.32563657 0.19874173 0.81878531
0.33653948 0.1986018 0.81820875
0.12818991 0.20992211 0.81032908
0.13478909 0.20941244 0.8169446
0.14568458 0.20908812 0.81567949
0.15379483 0.20804588 0.81161356
0.16869015 0.20785727 0.81957984
0.17419295 0.20645241 0.8140406
0.18521543 0.2063875 0.8137846
0.19545673 0.205567 0.81494087
0.20521317 0.20424126 0.81405824
0.21472454 0.20379803 0.81229162
0.22465721 0.20378856 0.81225395
0.23557019 0.20366409 0.81175774
0.24800053 0.20349588 0.81998253
0.25343937 0.20338309 0.8195281
0.26420575 0.20309031 0.81834835
0.27476487 0.20266302 0.81662655
0.28460225 0.20131074 0.81297266
0.29396483 0.20073786 0.81527072
0.12425848 0.21016413 0.81341606
0.29951414 0.19989936 0.82355446
0.30434781 0.19873269 0.82537198
0.31492391 0.19832188 0.82366079
0.15631798 0.20921873 0.82494807
0.16469362 0.20816168 0.82374632
0.1737781 0.20638053 0.82258481
0.18466002 0.20602106 0.82115191
0.19537759 0.20565787 0.82869422
0.20697746 0.20486772 0.82551038
0.21533658 0.20426904 0.823098
0.225889 0.20397697 0.82343668
0.23443887 0.203899 0.82463855
0.24414301 0.20353463 0.82581776
0.25527161 0.20300119 0.82364899
0.26551768 0.20271081 0.82587659
0.27455577 0.20192026 0.82265568
0.28401101 0.20147848 0.82085598
0.29531085 0.20085491 0.82749116
0.094814107 0.21198905 0.82699633
0.10456262 0.21122265 0.82400656
0.11551929 0.21075766 0.82219261
0.12441658 0.21066593 0.82183468
0.13790935 0.21024084 0.82897824
0.14479457 0.21041016 0.82964587
0.15269041 0.21040039 0.82960737
0.29894513 0.19952331 0.83132696
0.15832254 0.20962031 0.83549786
0.16203704 0.2085503 0.83123302
0.17622423 0.20700747 0.83413237
0.18488798 0.20609438 0.83453697
0.194493 0.20562267 0.83620423
0.20397185 0.20561278 0.8346312
0.21482618 0.20474605 0.83416843
0.22424012 0.20401424 0.83118701
0.23611413 0.20364271 0.83587354
0.24475437 0.20376202 0.83946806
0.25455412 0.20337908 0.83789045
0.26435691 0.20302454 0.83642966
0.27454251 0.2029819 0.83625412
0.28582016 0.20202619 0.83500618
0.29324672 0.20087574 0.83507729
0.083589539 0.21495599 0.83857077
0.099633455 0.21282265 0.8391583
0.10501218 0.21215555 0.83652794
0.1151369 0.21194077 0.83568096
0.1250228 0.2113428 0.8333233
0.13283454 0.211143 0.83253545
0.14505512 0.2104817 0.8344276
0.15347067 0.21054319 0.83692276
0.16684112 0.20947808 0.84408778
0.17584728 0.20788579 0.84321988
0.18645756 0.20625082 0.84972149
0.19428182 0.20596705 0.84855247
0.20469438 0.20598565 0.848629
0.21515813 0.20495752 0.84439325
0.2250492 0.20454298 0.84268546
0.23452206 0.2035574 0.8462286
0.24479881 0.20341438 0.84753931
0.25433716 0.20274365 0.84474468
0.26517111 0.20224272 0.84265751
0.064865097 0.21490803 0.847381
0.075221173 0.21486342 0.8472051
0.082267031 0.21519038 0.84849429
0.09738183 0.2154192 0.84939659
0.107792 0.21312222 0.84945565
0.11446728 0.2126478 0.8475647
0.12542148 0.21165967 0.84362632
0.13556163 0.21136449 0.84244972
0.14556976 0.21091327 0.84065121
0.16179049 0.21037832 0.84771526
0.16764244 0.20961875 0.85402071
0.1744826 0.20886476 0.85332942
0.18494515 0.20652312 0.85496622
0.19467141 0.20529006 0.85535443
0.20470309 0.20484105 0.85348368
0.21486817 0.20456958 0.85235256
0.22474353 0.20394532 0.85461771
0.23412423 0.20357311 0.8563031
0.044604719 0.21499538 0.85692167
0.057513513 0.21531218 0.85818434
0.062289082 0.21567278 0.85962158
0.085667044 0.21592838 0.85371053
0.093010373 0.21600756 0.8517164
0.12491632 0.21241127 0.8559069
0.13515192 0.21201833 0.85432351
0.14426711 0.21174772 0.85323322
0.15511607 0.21137357 0.85329735
0.16263518 0.21065895 0.85825866
0.17569721 0.20903027 0.86506838
0.18383406 0.20715062 0.8663944
0.19721428 0.20561194 0.86652219
0.20491348 0.20466004 0.86583054
0.035649016 0.2149184 0.86600947
0.044049032 0.21566069 0.86900043
0.053993016 0.21596317 0.86392486
0.067049719 0.21593635 0.86067218
0.075352684 0.21623661 0.86186892
0.085959792 0.21635684 0.86234808
0.095394112 0.21648216 0.86284763
0.10476305 0.21641824 0.8625927
0.11855897 0.21354637 0.86048079
0.12876779 0.21259266 0.86613685
0.13484661 0.21288605 0.86733216
0.14512196 0.21238895 0.86530679
0.15405698 0.21171211 0.8625493
0.16923998 0.21072929 0.86817211
0.17107435 0.21008022 0.86549807
0.17461234 0.20914492 0.87141597
0.04885786 0.21601535 0.87042952
0.053663082 0.21629038 0.87153769
0.064301617 0.21615942 0.87101001
0.075113587 0.21658373 0.87271971
0.085900605 0.21681827 0.87366492
0.095399946 0.21681032 0.87363279
0.10487239 0.21671905 0.87326509
0.1143779 0.21672073 0.87327182
0.1470955 0.2128828 0.8770442
0.15510401 0.21240467 0.87507439
0.16499531 0.21118933 0.87428981
0.17072597 0.21019591 0.87579501
0.0147352 0.2164418 0.88427871
0.024301706 0.2164965 0.88204181
0.035121638 0.2165989 0.88245898
0.046043154 0.21711649 0.88456762
0.055895116 0.21800144 0.88817316
0.065333851 0.21723245 0.88504016
0.075125158 0.21767682 0.88685054
0.084869102 0.21790148 0.88776588
0.09449663 0.21782963 0.88747311
0.10508219 0.21723811 0.88506317
0.11581949 0.21704897 0.8842926
0.1250889 0.21642876 0.88176572
0.13831155 0.21406053 0.88189632
0.14412576 0.21355316 0.88312787
0.15548396 0.21216927 0.88401711
0.0088337976 0.21499243 0.89578003
0.014963176 0.21791328 0.89776909
0.024721542 0.2178168 0.89737153
0.034528289 0.21802431 0.89822656
0.044211559 0.21753719 0.89621955
0.051681429 0.2181918 0.89891654
0.065045096 0.21789388 0.89768916
0.077385128 0.21823637 0.89910018
0.098270059 0.21842453 0.89987528
0.10543179 0.21804418 0.89830828
0.11496187 0.21757215 0.89636368
0.12446909 0.21712816 0.89453441
0.13394883 0.21671279 0.89282316
0.0089601213 0.21559389 0.90858966
0.018682972 0.21856451 0.90045202
0.056664728 0.21854416 0.90036809
0.072667964 0.21876904 0.90129465
0.086081654 0.21856913 0.90047109
0.093415678 0.21852699 0.9002974
0.0090661766 0.20313258 0.91934407
0.0090589076 0.21547066 0.918607
0.011453622 0.21845931 0.91022497
0.025226671 0.2197651 0.91566569
0.035195101 0.21973057 0.91552186
0.045087475 0.21937397 0.91403598
0.055152528 0.21982846 0.91592968
0.066236556 0.21939552 0.9141258
0.075475082 0.21972665 0.91550541
0.016551176 0.22035103 0.91810697
0.061457194 0.22009265 0.91703045
0.0091123218 0.20584568 0.92402351
0.009118841 0.21437947 0.92468446
0.01163276 0.21935996 0.92446119
0.031825446 0.21980001 0.92631572
0.026860263 0.22045092 0.92905891
0.035711676 0.22044015 0.92901349
0.0091878865 0.21346691 0.93168592
0.016802786 0.22118613 0.9321574
0.021827832 0.22068021 0.93002516
