# .PCD v0.7 - Point Cloud Data file format
VERSION 0.7
FIELDS x y z
SIZE 4 4 4
TYPE F F F
COUNT 1 1 1
WIDTH 135
HEIGHT 1
VIEWPOINT 0 0 0 1 0 0 0
POINTS 135
DATA ascii
-0.85081089 -0.26156583 1.2193029
-0.8539269 -0.26020798 1.2285604
-0.84406847 -0.26256925 1.2239802
-0.83882672 -0.26196876 1.2211812
-0.85574341 -0.25807369 1.2263718
-0.85142702 -0.21695371 1.2297794
-0.85241497 -0.26179922 1.2360735
-0.84775895 -0.2624391 1.2390946
-0.83843553 -0.2616381 1.2353126
-0.86085641 -0.2529006 1.2336991
-0.85553217 -0.25638548 1.236328
-0.84395999 -0.25893581 1.2384688
-0.8626669 -0.24887198 1.2387099
-0.8497839 -0.21738963 1.2322503
-0.8409422 -0.26008749 1.2439772
-0.82797027 -0.26311672 1.242294
-0.81906325 -0.26297095 1.2416056
-0.85436636 -0.2535339 1.2450494
-0.8463943 -0.25688413 1.2448872
-0.82303333 -0.25977814 1.2424976
-0.8712973 -0.24407448 1.2486621
-0.86429107 -0.24753095 1.2446892
-0.85516703 -0.24687707 1.2456807
-0.84998846 -0.24622263 1.2423533
-0.861628 -0.22722073 1.2494252
-0.85748255 -0.22022825 1.2483407
-0.84297073 -0.26346999 1.2520187
-0.82816243 -0.26247552 1.255399
-0.80662704 -0.26325306 1.259118
-0.76386982 -0.26953056 1.2564309
-0.74528062 -0.26337284 1.2596908
-0.73508841 -0.26559633 1.2540013
-0.85000098 -0.2516095 1.2523354
-0.84718716 -0.25513273 1.2562543
-0.80576223 -0.25954872 1.2577738
-0.7549175 -0.25972116 1.2586093
-0.87261552 -0.24283907 1.2554562
-0.8674258 -0.24440138 1.2561821
-0.85441726 -0.24386141 1.2563274
-0.8459565 -0.24844801 1.2564654
-0.87269926 -0.23539931 1.2541714
-0.86421067 -0.23352678 1.2545916
-0.86215639 -0.22513954 1.2568053
-0.85355681 -0.2230494 1.2565664
-0.84678578 -0.22187673 1.2576849
-0.86081362 -0.21853887 1.2581755
-0.8567974 -0.21838802 1.2573071
-0.84561217 -0.21815211 1.2559488
-0.83508945 -0.21422578 1.2529777
-0.82999223 -0.21168962 1.2581728
-0.84522724 -0.26288414 1.2656031
-0.83822399 -0.26166657 1.2680368
-0.81921488 -0.26165754 1.267993
-0.77389348 -0.26034287 1.2616221
-0.76408327 -0.26394629 1.2624335
-0.84273565 -0.25434324 1.2638134
-0.80320531 -0.2586076 1.2699631
-0.86432922 -0.2411615 1.2645868
-0.85203183 -0.243918 1.2654823
-0.84341693 -0.24609852 1.2665876
-0.83684063 -0.24623623 1.2685542
-0.88316947 -0.23017614 1.2656761
-0.87517643 -0.23503929 1.2640761
-0.8612361 -0.23488566 1.2645531
-0.85329378 -0.23094751 1.2699177
-0.83522791 -0.23287416 1.2678542
-0.87362075 -0.22947766 1.2618355
-0.86147118 -0.2294437 1.2616487
-0.85397434 -0.2267541 1.2658033
-0.84650558 -0.22481005 1.266488
-0.83536911 -0.22358032 1.267368
-0.82976055 -0.22719902 1.2682869
-0.84151793 -0.21931118 1.2626219
-0.83661795 -0.21810555 1.265609
-0.82897866 -0.21274881 1.2644681
-0.80650055 -0.20972578 1.2669963
-0.79997319 -0.20937097 1.2648528
-0.85728121 -0.2707727 1.2784413
-0.83542258 -0.26295763 1.2742934
-0.82232761 -0.26028401 1.2781956
-0.81203067 -0.2603288 1.2784156
-0.78004408 -0.26933411 1.271649
-0.77209342 -0.2603547 1.2785428
-0.84134698 -0.25744444 1.2727634
-0.83672446 -0.25569794 1.2751454
-0.82232761 -0.25680512 1.2781956
-0.81391495 -0.25378242 1.277007
-0.80506593 -0.25549009 1.2751106
-0.78436917 -0.25835788 1.2772844
-0.77823794 -0.25950271 1.2743589
-0.86177164 -0.24224232 1.2747895
-0.85535276 -0.24239008 1.2755671
-0.84398168 -0.24211535 1.2741213
-0.8369925 -0.24607615 1.2766886
-0.86252594 -0.23724617 1.2759051
-0.85621393 -0.23640783 1.2753792
-0.84551895 -0.23442832 1.2727087
-0.83444673 -0.23677374 1.2747024
-0.88092202 -0.22793245 1.2723812
-0.84409934 -0.2278083 1.2716881
-0.83386654 -0.22517039 1.273913
-0.83450735 -0.21808565 1.2755535
-0.82587272 -0.21462582 1.275624
-0.79581761 -0.21131705 1.2766094
-0.83386058 -0.26291844 1.2825587
-0.82868236 -0.26119044 1.2826469
-0.80325854 -0.26143909 1.283868
-0.79532194 -0.26247865 1.2832674
-0.83405048 -0.25478172 1.2855468
-0.8255353 -0.25309989 1.2859015
-0.81879276 -0.25089622 1.2835615
-0.80581951 -0.25339496 1.2851688
-0.79579997 -0.25485551 1.2859254
-0.78493476 -0.25357571 1.2845072
-0.8328613 -0.24443682 1.2837114
-0.82628763 -0.24501707 1.287078
-0.81597662 -0.24813987 1.2873859
-0.83287704 -0.23374054 1.2852772
-0.82676077 -0.23495035 1.2887222
-0.87761313 -0.22978629 1.2827299
-0.83178687 -0.22532907 1.2838477
-0.82654881 -0.22339495 1.2861232
-0.8121258 -0.22400014 1.2896172
-0.8316744 -0.21916695 1.2818779
-0.82437688 -0.21844244 1.2827401
-0.81431615 -0.21570151 1.2820175
-0.80692077 -0.21652654 1.286921
-0.79785776 -0.21247472 1.2836032
-0.80574894 -0.25228125 1.2906473
-0.82257301 -0.24379966 1.2922471
-0.81421196 -0.24538057 1.2936296
-0.82323945 -0.23489819 1.2916373
-0.8149606 -0.23479627 1.2930028
-0.82423997 -0.22619134 1.2921032
-0.81467843 -0.22409961 1.2924329
