# .PCD v0.7 - Point Cloud Data file format
VERSION 0.7
FIELDS x y z
SIZE 4 4 4
TYPE F F F
COUNT 1 1 1
WIDTH 450
HEIGHT 1
VIEWPOINT 0 0 0 1 0 0 0
POINTS 450
DATA ascii
0.23526722 0.19385193 0.90714425
0.20736568 0.19879031 0.91473567
0.21552481 0.19617614 0.91415948
0.22504143 0.19408174 0.91424072
0.20389521 0.20130627 0.91333848
0.20634785 0.19768004 0.92507184
0.21378915 0.19429904 0.92495966
0.1853494 0.20856619 0.92496032
0.19405422 0.20554414 0.92569637
0.20172659 0.20187683 0.92505562
0.17403048 0.21319278 0.92500985
0.18092094 0.2101178 0.92809343
0.20589142 0.19509736 0.93481982
0.18614094 0.20789757 0.93401432
0.19587731 0.20408814 0.93519992
0.20093066 0.20065513 0.93502635
0.14561382 0.21714377 0.93660766
0.15525948 0.21637446 0.93328941
0.16566098 0.21539855 0.93458623
0.1755584 0.21258464 0.9345085
0.18065861 0.21022595 0.93987012
0.19863117 0.19878484 0.94629276
0.20333056 0.19484267 0.9450379
0.18560627 0.20763126 0.94553983
0.19456416 0.20307834 0.94530833
0.10993151 0.21969593 0.94761592
0.11625632 0.21947211 0.94665051
0.12611258 0.21868348 0.94324893
0.13503307 0.21858472 0.94282293
0.14581007 0.21678019 0.94614685
0.15449958 0.21632765 0.94417173
0.16524288 0.21555601 0.94531357
0.17498843 0.21243739 0.94516557
0.19778158 0.19793089 0.95460987
0.20386355 0.1928364 0.95511973
0.18464129 0.20687452 0.95478463
0.19273394 0.20198554 0.95535207
0.11917248 0.21989104 0.95972431
0.12543082 0.21942241 0.95767891
0.13551569 0.21886632 0.95525187
0.14620979 0.21691166 0.95429265
0.15623987 0.21616533 0.95480555
0.16523659 0.21515656 0.9541887
0.17408575 0.21190047 0.9543314
0.094967678 0.22088757 0.95275587
0.10264979 0.22067878 0.95185518
0.19723421 0.19738664 0.96464336
0.20207404 0.1930366 0.9647702
0.17939174 0.20960742 0.96047932
0.18523601 0.20510437 0.96565938
0.19156568 0.20090613 0.96473789
0.11772381 0.21944767 0.96930361
0.12425698 0.21933788 0.96881866
0.13444613 0.21875396 0.96623945
0.14337608 0.21834557 0.96443552
0.15551654 0.21617195 0.96645325
0.16575384 0.21448252 0.96478605
0.17518692 0.21171032 0.96611178
0.062338717 0.22214454 0.96955979
0.07396961 0.22143289 0.96645373
0.08447139 0.22136915 0.96617556
0.094921626 0.22121099 0.96548522
0.10536101 0.22106361 0.96484208
0.1141701 0.22031915 0.96159285
0.18962148 0.19904256 0.97272569
0.1950018 0.1962204 0.97450411
0.20174804 0.19130427 0.9737649
0.17921722 0.20984989 0.9737345
0.18460742 0.20435834 0.97598803
0.11258423 0.21971457 0.97048247
0.13597271 0.21858121 0.97722447
0.14627643 0.21808819 0.97502041
0.15568057 0.21559034 0.97572583
0.16478427 0.21408395 0.97613829
0.17426097 0.21202859 0.97564232
0.024313889 0.22434576 0.9791671
0.037622616 0.22424848 0.9787426
0.045450136 0.22346206 0.97531021
0.055949911 0.22299241 0.97326028
0.065339789 0.22207054 0.97505456
0.074854299 0.22140837 0.97796398
0.085342087 0.22099127 0.97612166
0.09591601 0.22087212 0.97559547
0.10514861 0.22074121 0.97501725
0.11282278 0.22018135 0.97254425
0.18645827 0.1982536 0.98636699
0.19587468 0.1926865 0.98421723
0.178495 0.20632668 0.98733425
0.18295531 0.20320523 0.98434961
0.11944596 0.21998116 0.98348337
0.12625661 0.2192931 0.98442137
0.13478352 0.21830322 0.98800373
0.14526814 0.21790054 0.98618138
0.15498278 0.21544822 0.98479575
0.16470659 0.213167 0.98602521
0.17381459 0.21147776 0.98440737
0.015088154 0.2232514 0.98612452
0.024462152 0.22436368 0.98512328
0.032340266 0.22456571 0.9801271
0.045985755 0.22341526 0.98682851
0.05526666 0.22292076 0.98464429
0.064394295 0.22205308 0.98081177
0.090518557 0.22124477 0.98913264
0.1051988 0.22097838 0.98794162
0.11431129 0.22040427 0.98537493
0.17840624 0.1989551 0.99887043
0.18460698 0.19425111 0.99568135
0.19139364 0.19290042 0.99104548
0.16730438 0.20954564 0.9975183
0.17581934 0.20557852 0.99522722
0.18017352 0.20061445 0.99362385
0.11527441 0.21955636 0.99367523
0.12193476 0.21937504 0.99285471
0.13773622 0.21815921 0.99966598
0.14418009 0.21762754 0.9972297
0.15494087 0.21411151 0.99532729
0.16449417 0.21198153 0.99367237
0.17293471 0.21085054 0.9908917
0.015219405 0.22255872 0.99505103
0.024603415 0.22430849 0.99077392
0.03538435 0.22427896 0.99064344
0.045222916 0.22357188 0.99953657
0.054754443 0.2236145 0.99972713
0.065393083 0.22279525 0.99606448
0.074678227 0.22217284 0.99328184
0.083950698 0.22168243 0.99108928
0.096923612 0.22125612 0.99404955
0.10780409 0.22087337 0.99963588
0.11021525 0.2202547 0.99683595
0.16936612 0.19013999 1.0098079
0.17540105 0.19549452 1.0050577
0.18135509 0.19104168 1.00014
0.16570568 0.20789388 1.0070618
0.172846 0.20443317 1.0041009
0.11681989 0.21976046 1.0070034
0.12482813 0.21938573 1.0052862
0.13439798 0.21799484 1.0052021
0.14563769 0.21708722 1.0073167
0.15606478 0.21233957 1.0056046
0.16231516 0.21011546 1.0002309
0.016718579 0.22436802 1.0030959
0.024680471 0.2242465 1.0050105
0.03588846 0.22472835 1.0047069
0.045503061 0.223313 1.0057424
0.056330897 0.22352521 1.0034215
0.064776018 0.2226079 1.0074861
0.074089572 0.22176179 1.0036567
0.084821522 0.22125201 1.0013494
0.09292154 0.22106624 1.0005088
0.1037817 0.22099844 1.0002019
0.16603573 0.1952022 1.014694
0.15917493 0.20905432 1.0149245
0.16559868 0.20390065 1.0153931
0.012771396 0.21873207 1.0149491
0.1151244 0.21901387 1.0162567
0.12428716 0.21810426 1.012036
0.13095295 0.21773149 1.0103062
0.14440227 0.21659833 1.0179034
0.15381098 0.21341887 1.0159688
0.015472807 0.22245115 1.0109255
0.025558731 0.22333863 1.0107932
0.034831781 0.22399402 1.0137594
0.040238012 0.22338295 1.0109938
0.053987339 0.22334632 1.010828
0.076472633 0.22198236 1.0171847
0.084657542 0.22165911 1.0157036
0.094188809 0.22132626 1.0141783
0.10522569 0.22131379 1.0141211
0.11182492 0.22071877 1.0113946
0.1586764 0.19947395 1.0296139
0.16072586 0.19435588 1.0248134
0.15827437 0.20734811 1.0270051
0.16120505 0.20454341 1.0234429
0.012862741 0.21751435 1.0222083
0.11780885 0.21865711 1.0275788
0.12582019 0.21800789 1.0245277
0.1347841 0.21640691 1.0245132
0.14550881 0.21546338 1.0256891
0.15434107 0.21265045 1.0256164
0.017091664 0.22379537 1.0254924
0.025465095 0.22380911 1.0255554
0.03527499 0.22405462 1.0266805
0.044919316 0.22339676 1.0236659
0.054715797 0.2235719 1.0244684
0.065237418 0.22275019 1.0232673
0.074808858 0.22138889 1.0247005
0.085290253 0.22053348 1.0233078
0.094955564 0.2203449 1.0224328
0.10483231 0.22062406 1.0237283
0.11032595 0.22047149 1.0230203
0.15978926 0.18958506 1.036835
0.15922581 0.194538 1.0331788
0.1577315 0.20629494 1.0356978
0.015906284 0.21831974 1.0392865
0.10922153 0.21825984 1.0390013
0.11565031 0.21815586 1.0358323
0.12539266 0.21688855 1.0324734
0.13604088 0.21536067 1.0386574
0.14416762 0.21483636 1.0361288
0.15280485 0.21348259 1.0341327
0.017209413 0.22250316 1.0324476
0.025678456 0.22287977 1.0341949
0.035572033 0.22311798 1.0353004
0.045360085 0.22278441 1.0337527
0.055144589 0.22251408 1.0324982
0.065039739 0.22198382 1.0333211
0.075320482 0.22118847 1.039475
0.085049823 0.22074269 1.0373799
0.09477134 0.2203649 1.0356045
0.10455693 0.22019708 1.0348159
0.11163057 0.22026134 1.0351177
0.15836725 0.19839346 1.0460821
0.15705067 0.20503812 1.043654
0.015968222 0.21633022 1.0433334
0.067294292 0.21986328 1.0466343
0.073897049 0.21972582 1.04598
0.085604526 0.21933876 1.0441374
0.09547174 0.21914952 1.0432366
0.10381776 0.21879685 1.0415577
0.11882742 0.21748608 1.048908
0.12551764 0.21672186 1.0452223
0.13379318 0.21448146 1.0454077
0.14505707 0.21332167 1.0425081
0.15331772 0.21173291 1.0440161
0.017405281 0.2221639 1.0440588
0.024618804 0.2232202 1.049023
0.034544598 0.22275825 1.0468519
0.044566832 0.22302449 1.0481033
0.055292036 0.22199051 1.0459301
0.064266078 0.22138326 1.0437436
0.075909324 0.22006361 1.047588
0.15960729 0.19420546 1.0542731
0.15574497 0.2070692 1.0540216
0.068026625 0.2193763 1.0580243
0.074728176 0.21931314 1.0577197
0.085324168 0.21942554 1.0582619
0.095234267 0.21903498 1.0563781
0.10582203 0.21791267 1.0544384
0.11451636 0.21695027 1.0542531
0.12500286 0.21543804 1.0528507
0.13557859 0.21343707 1.057133
0.14600365 0.21195145 1.0554848
0.15098193 0.21139714 1.054154
0.018941566 0.22072773 1.0507494
0.024733707 0.22137094 1.0538113
0.034756571 0.22125666 1.0532674
0.04480654 0.22135441 1.0537328
0.053341903 0.22108099 1.052431
0.061814297 0.22063886 1.0503263
0.16118106 0.19177671 1.0646687
0.15485492 0.20621358 1.0643845
0.019272514 0.21876466 1.0691081
0.057097975 0.21875679 1.0690696
0.065661497 0.21893686 1.0664214
0.074985877 0.2186138 1.0648433
0.084428072 0.21795738 1.0651629
0.09437599 0.21749902 1.062923
0.10291463 0.2172001 1.0614622
0.12598889 0.2146569 1.0660566
0.13511126 0.21208102 1.0647702
0.14180657 0.21125801 1.0606382
0.019173253 0.22053277 1.0636019
0.025010562 0.22094193 1.0655751
0.035132427 0.22076614 1.0647273
0.045321554 0.22099076 1.0658107
0.055365987 0.22058149 1.0638367
0.062524639 0.22028281 1.0623963
0.15927038 0.1988042 1.0713078
0.16118291 0.19352858 1.0743592
0.14553347 0.20876567 1.0775745
0.15451579 0.20586924 1.0747294
0.025160713 0.21935397 1.0719881
0.035382874 0.21942422 1.0723313
0.045581788 0.21934901 1.0719638
0.052792951 0.21900436 1.0702795
0.064740323 0.21847978 1.074893
0.07523635 0.21780755 1.0787796
0.085329905 0.21735695 1.0765479
0.096209571 0.21637127 1.0752982
0.10504995 0.21576539 1.0748953
0.11502907 0.21524709 1.074394
0.12449878 0.21376388 1.0732192
0.13656762 0.21143949 1.076256
0.14471486 0.21050373 1.0714928
0.16407628 0.18932195 1.0837928
0.16152169 0.19570032 1.0864509
0.13737547 0.20973706 1.0825884
0.14563076 0.20832649 1.0854936
0.15469518 0.20433715 1.0852246
0.019543203 0.21740916 1.0841241
0.026102578 0.21826355 1.0869132
0.034335703 0.21913654 1.085362
0.045295145 0.21779589 1.0850117
0.054943398 0.21738479 1.0840118
0.064616665 0.2170932 1.0836018
0.075565144 0.21655494 1.0835422
0.084307782 0.21555614 1.0822173
0.094681755 0.21493974 1.0828445
0.10563873 0.21404998 1.0895437
0.11446252 0.2139167 1.0888653
0.12524958 0.21227136 1.0869583
0.13262457 0.21097052 1.0838944
0.1658453 0.18688539 1.0954779
0.15922344 0.19948263 1.0909646
0.1623809 0.19376861 1.0922303
0.01676693 0.20329721 1.0955195
0.13559803 0.20836312 1.0960335
0.14413686 0.20711541 1.0936515
0.15457892 0.20316622 1.0948412
0.0197838 0.21411139 1.097471
0.024747729 0.21642059 1.0965762
0.033842869 0.21703596 1.0934039
0.045157168 0.21623744 1.0968996
0.05563838 0.2156578 1.0977277
0.06448599 0.21525836 1.0956945
0.075953953 0.21436971 1.0962451
0.085347913 0.21373686 1.0955546
0.094271414 0.2136856 1.0952976
0.1047025 0.2121911 1.0952554
0.11506303 0.21206284 1.0945934
0.12058627 0.2112962 1.0906361
0.1586943 0.19958222 1.1080017
0.16207002 0.19578068 1.1035976
0.12545428 0.20852022 1.1074228
0.13233772 0.20749782 1.1019931
0.14576583 0.20464154 1.1060146
0.15285213 0.202521 1.1021212
0.025924386 0.21473992 1.1045475
0.035539072 0.21516012 1.1043892
0.044606883 0.21480389 1.105646
0.055989183 0.21400622 1.1046243
0.064826421 0.21340385 1.1015152
0.074015118 0.21293776 1.1043072
0.08486601 0.21179113 1.1087673
0.095423184 0.21177234 1.108669
0.10421382 0.21124284 1.1058969
0.11476693 0.21128063 1.1060948
0.12476785 0.21037534 1.1013554
0.16870153 0.18556008 1.1143445
0.15808527 0.197694 1.114357
0.16463271 0.19371042 1.1176149
0.086779878 0.20974915 1.1139495
0.095906034 0.2098152 1.1143003
0.10480824 0.20941763 1.1121888
0.11528677 0.20921311 1.1111026
0.12669478 0.20753753 1.1183697
0.13596898 0.20561337 1.1145531
0.14412551 0.20331925 1.1119469
0.15352049 0.20071022 1.114264
0.023766454 0.21255648 1.1159544
0.035301205 0.21313331 1.1157939
0.044468667 0.21343106 1.1173528
0.055020064 0.21305798 1.1153995
0.066390559 0.21225655 1.1151881
0.074086435 0.21106711 1.1145228
0.080821112 0.21001722 1.1153733
0.09555418 0.21206407 1.1101962
0.16960029 0.18349957 1.1202812
0.14751917 0.19981168 1.1262938
0.15490466 0.19842075 1.124229
0.16110189 0.19648729 1.1248115
0.0202643 0.20707428 1.1241257
0.069561489 0.20964354 1.1297184
0.075582072 0.20929162 1.1278219
0.08473067 0.20913956 1.1270025
0.095362365 0.20892069 1.1258233
0.1054609 0.20765737 1.125638
0.11510283 0.20706151 1.124064
0.12428887 0.20553596 1.1240952
0.13415028 0.2037642 1.1255703
0.1440243 0.20148575 1.1253976
0.026383249 0.21166274 1.1241124
0.035514362 0.21137707 1.1225952
0.044716474 0.21155724 1.1235521
0.055327933 0.21120439 1.1216781
0.064407192 0.21094304 1.1202902
0.020509768 0.19874616 1.1377426
0.14435625 0.19872737 1.1376351
0.15491518 0.19681439 1.135551
0.16535544 0.19380014 1.1329749
0.022920264 0.2061599 1.1342299
0.036040857 0.20831335 1.1392593
0.045343384 0.20832336 1.1393142
0.054588191 0.20810014 1.1380935
0.064519487 0.20861982 1.1337231
0.075953752 0.20723705 1.1333733
0.085216045 0.20725337 1.1334623
0.094279662 0.20683548 1.1311769
0.10463551 0.20598191 1.1349919
0.11579531 0.20415972 1.1368586
0.12490157 0.20263787 1.1352738
0.1345055 0.20097964 1.1328772
0.02812203 0.21016341 1.13252
0.035822958 0.21013334 1.1323578
0.045129251 0.21041887 1.1338964
0.05433172 0.21020639 1.1327515
0.020651003 0.19387048 1.1455774
0.12951033 0.19970082 1.1432077
0.13661686 0.19882993 1.1453842
0.14518049 0.19674727 1.1441261
0.15388168 0.19359878 1.1439519
0.16772006 0.19448888 1.1491816
0.17042358 0.19088598 1.1463281
0.026845422 0.20710653 1.144032
0.034735121 0.2066678 1.1473382
0.045611005 0.20746246 1.1460063
0.055057168 0.20675874 1.1478431
0.065175816 0.20586643 1.1472325
0.075243592 0.20487361 1.1460532
0.086119875 0.20477292 1.1454843
0.095326476 0.20446059 1.1437401
0.10461405 0.20357966 1.143158
0.11472167 0.20200947 1.1430902
0.12541983 0.2006257 1.1485023
0.020881914 0.18816301 1.1583867
0.085543141 0.19926775 1.1587832
0.095017247 0.19929449 1.1589388
0.10583793 0.19888207 1.1565404
0.11509982 0.19857049 1.1547287
0.12445347 0.19845073 1.1540321
0.13339528 0.19677381 1.1552808
0.14478281 0.19499011 1.1558732
0.15569861 0.19196522 1.1528094
0.16360462 0.19517581 1.1532404
0.024993127 0.20371018 1.1541985
0.035259403 0.20414189 1.15426
0.045887969 0.20532821 1.1529758
0.055306874 0.20455194 1.1530136
0.064242542 0.20314358 1.1557344
0.074399769 0.2021327 1.1571293
0.083749019 0.2018991 1.155792
0.094737485 0.20185477 1.1555381
0.10546365 0.20131509 1.1524487
0.11318485 0.20110157 1.1512263
0.12093338 0.20095959 1.1504136
0.065392882 0.19875357 1.1650395
0.074921146 0.19878623 1.1652344
0.083702855 0.19813749 1.166074
0.094073087 0.19587696 1.1667758
0.1045111 0.19611511 1.1668444
0.11513659 0.19521731 1.1642005
0.12545875 0.19530217 1.16335
0.026255194 0.20116512 1.1636956
0.034155235 0.20158117 1.1630502
0.045434166 0.20158786 1.1643925
0.055768214 0.20151584 1.1626706
0.025663171 0.19633174 1.1752213
0.034002729 0.19741842 1.1759685
0.045187846 0.19736615 1.1756495
0.056267925 0.19694099 1.1731175
