# .PCD v0.7 - Point Cloud Data file format
VERSION 0.7
FIELDS x y z
SIZE 4 4 4
TYPE F F F
COUNT 1 1 1
WIDTH 240
HEIGHT 1
VIEWPOINT 0 0 0 1 0 0 0
POINTS 240
DATA ascii
0.4177027 0.12044717 0.93794912
0.42156655 0.13536541 0.93519431
0.42046016 0.11867262 0.94414097
0.41914558 0.12307191 0.94504917
0.42426977 0.12442581 0.94882858
0.42654964 0.13610946 0.94626236
0.42208734 0.11986445 0.953623
0.42555726 0.12791249 0.95557714
0.41471711 0.13339332 0.95758128
0.42728499 0.1354395 0.95363784
0.43271244 0.13551353 0.95415908
0.35593015 0.14842579 0.95369339
0.37188816 0.14519066 0.95802987
0.41652328 0.14874527 0.95574611
0.42136484 0.1490775 0.9578808
0.43159443 0.14380448 0.95744634
0.42900878 0.11846349 0.96333688
0.41809568 0.12922466 0.9653796
0.42535919 0.12680456 0.96696109
0.43093869 0.12089129 0.96179241
0.36411247 0.13968816 0.96505874
0.41635334 0.1354405 0.96440542
0.42516178 0.13453196 0.96576917
0.31827548 0.14695463 0.96678966
0.3251631 0.1459474 0.9673757
0.33515275 0.14680156 0.96866298
0.35810238 0.14594951 0.9630295
0.36232802 0.14324966 0.96631479
0.37151608 0.14434765 0.96555054
0.4182623 0.1449481 0.96515906
0.42469046 0.14507595 0.96424049
0.43248117 0.14583492 0.9623152
0.43094912 0.11973103 0.97364444
0.39884815 0.1280098 0.97615182
0.40297809 0.12805557 0.97650093
0.41634068 0.12990709 0.97047776
0.439082 0.1277342 0.97405022
0.31754258 0.13909933 0.97940695
0.32148147 0.1390733 0.97922361
0.36507112 0.13560013 0.97616559
0.37386152 0.1357318 0.97820324
0.38025931 0.13379368 0.97959495
0.39487559 0.13096492 0.97838038
0.40215054 0.13087595 0.97771573
0.41335666 0.13565905 0.97382373
0.42547253 0.13027687 0.97324038
0.4336718 0.13609338 0.97380197
0.31750613 0.14424543 0.97520983
0.32442871 0.14216666 0.9743619
0.33400911 0.14469801 0.97357827
0.35974884 0.14637299 0.97459066
0.36442471 0.14732137 0.97647786
0.37428707 0.14476651 0.97273278
0.41796306 0.14366758 0.97427726
0.42497927 0.14514653 0.97521937
0.43546802 0.14685328 0.97426856
0.36996904 0.12952584 0.98771256
0.39511216 0.12895998 0.98339748
0.40451205 0.12687823 0.98456717
0.41465563 0.12728886 0.98425496
0.4237318 0.1286622 0.98521167
0.43122256 0.12628143 0.98333859
0.44247094 0.12604852 0.98156816
0.29921156 0.13987578 0.98487401
0.30557677 0.13906212 0.98293191
0.31491423 0.13796356 0.98490006
0.32621765 0.13734773 0.98277986
0.33383486 0.13839464 0.98578471
0.34571713 0.13817444 0.98469913
0.35574099 0.13761579 0.98405141
0.36246023 0.13355176 0.98436415
0.37581357 0.13483439 0.98331606
0.38481653 0.13356523 0.98444545
0.39404973 0.13128059 0.98073864
0.40855902 0.13165529 0.98353791
0.41627419 0.13579264 0.98438513
0.44338098 0.13166186 0.98358697
0.29811132 0.14199051 0.98715913
0.30470577 0.14290886 0.98358792
0.31586915 0.14452425 0.98456866
0.33793175 0.14115182 0.98445642
0.34295282 0.14209016 0.9847585
0.35538244 0.14170048 0.98825693
0.36177599 0.14104608 0.98372209
0.38112098 0.14478573 0.98181468
0.41548878 0.14559656 0.98728329
0.42003876 0.14530696 0.98534918
0.4378525 0.14498934 0.98319542
0.44368079 0.11980332 0.99628282
0.36819446 0.12984806 0.9901697
0.39998618 0.12783934 0.99551368
0.41715559 0.12693457 0.99556434
0.4243376 0.12599847 0.99703717
0.43498978 0.12777473 0.9950105
0.4450542 0.12214764 0.99329615
0.30468464 0.13846706 0.99400389
0.32593307 0.13559715 0.9927994
0.33549923 0.13563776 0.99309683
0.34404883 0.13634998 0.9983114
0.36355826 0.13399218 0.99593127
0.37700966 0.13145007 0.99209332
0.39352509 0.13417137 0.99426186
0.40236425 0.13631436 0.99805057
0.41713506 0.13386932 0.99333096
0.4205645 0.13291144 0.99292201
0.45013466 0.13910301 0.99856919
0.29824385 0.14196709 0.99959898
0.30545348 0.14608607 0.99063241
0.34724924 0.14627667 0.99192494
0.36312798 0.14452493 0.99847448
0.38666427 0.14474128 0.99377906
0.412507 0.12647784 1.0062382
0.43488193 0.12854333 1.0009958
0.30160391 0.1395423 1.0017227
0.32277483 0.13712496 1.0039855
0.3541759 0.13656704 1.0039238
0.36610624 0.13383757 1.0066648
0.38089284 0.1314401 1.00231
0.39553007 0.13586682 1.0048606
0.4080756 0.13686348 1.0020711
0.41627321 0.1375951 1.0034331
0.45247269 0.13709357 1.0037558
0.39317298 0.14284919 1.0058099
0.40151519 0.14015691 1.0061347
0.37897894 0.12992646 1.0117664
0.40336838 0.12979959 1.0107785
0.41168183 0.12792212 1.0177286
0.43354082 0.12702243 1.0105708
0.44646734 0.12480995 1.0149459
0.45650232 0.12490621 1.0157669
0.31993878 0.13885698 1.0166669
0.32126737 0.13823801 1.012135
0.33877134 0.13587452 1.0150579
0.34490281 0.13557002 1.0127832
0.3565104 0.13579011 1.0144272
0.36467743 0.13499622 1.0153883
0.3782289 0.13061842 1.0171549
0.3847459 0.13139176 1.012452
0.3917644 0.13281417 1.0127881
0.45876369 0.13265887 1.0116038
0.30164656 0.14083514 1.0110035
0.42740986 0.12570453 1.0222205
0.43264663 0.12601471 1.0247428
0.44711283 0.12855217 1.0227412
0.45406753 0.1233619 1.0258759
0.33990222 0.13744901 1.0268202
0.36915028 0.13462034 1.0265613
0.3781378 0.13154982 1.024408
0.38792109 0.13108709 1.0208046
0.40743139 0.13200735 1.0279708
0.46402803 0.1341773 1.023212
0.32022324 0.14019294 1.0264484
0.41472691 0.12974127 1.0322014
0.42815274 0.12716623 1.034107
0.44006217 0.12694661 1.0323211
0.45907766 0.1211551 1.0308564
0.46215773 0.12122707 1.0314687
0.36803335 0.13575302 1.0351986
0.38040188 0.1333205 1.0381966
0.39488769 0.13249235 1.0317476
0.46489623 0.11984942 1.0439219
0.42862684 0.12857327 1.0455489
0.47166929 0.12867069 1.0463412
0.34196681 0.1394303 1.0416214
0.36685708 0.13689262 1.0438886
0.40695304 0.13415545 1.0446987
0.4546079 0.13193935 1.0496891
0.42829049 0.12933102 1.0517108
0.45724529 0.12516889 1.0568799
0.46275151 0.12605715 1.0563221
0.47387424 0.12392882 1.0544096
0.36558723 0.13802065 1.0524906
0.38209835 0.13491724 1.0506308
0.42022836 0.13235891 1.053027
0.47847092 0.13261439 1.0550596
0.46727777 0.11943302 1.065556
0.47235692 0.11864708 1.0672026
0.44668454 0.1284657 1.0683191
0.46339503 0.12535885 1.0666347
0.47462869 0.12429341 1.065789
0.38336238 0.13638422 1.0620545
0.40619567 0.13435327 1.0688938
0.42688304 0.13255608 1.0661016
0.47247931 0.079708308 1.077414
0.47459814 0.11726613 1.0722607
0.44593191 0.12908955 1.073507
0.45506737 0.12919262 1.0743642
0.46603224 0.12634082 1.0749476
0.47284168 0.12487453 1.0749022
0.48571455 0.12370428 1.0774989
0.40541822 0.13506345 1.074544
0.41349027 0.13483381 1.072717
0.42182243 0.13516584 1.0753585
0.43193838 0.13219967 1.0750386
0.46444562 0.13187596 1.0724062
0.48773724 0.13225548 1.0754924
0.47453642 0.077110082 1.0821038
0.48188514 0.077581853 1.0887243
0.47784579 0.082337938 1.0862861
0.48232475 0.083584435 1.0897175
0.47732517 0.10674708 1.0839834
0.48350143 0.10279718 1.0890291
0.47520599 0.11503736 1.0843062
0.4821595 0.11493837 1.0871224
0.46837506 0.12159958 1.0848856
0.48436022 0.12116646 1.0810214
0.44638145 0.13007192 1.0816764
0.46441975 0.13017681 1.0825486
0.49263501 0.13062698 1.0862923
0.47774273 0.081353441 1.0996512
0.49393463 0.088251412 1.0924358
0.4884986 0.099064499 1.096921
0.49392262 0.092992075 1.0957096
0.4771677 0.10748617 1.0914897
0.4844633 0.10481419 1.0945737
0.49480969 0.10510503 1.0976841
0.47678894 0.11603271 1.0974557
0.4862242 0.11530116 1.0951552
0.49491939 0.11486196 1.0957189
0.45832175 0.12924981 1.0997307
0.46841514 0.12760715 1.0941876
0.4708578 0.12301969 1.0975555
0.49483109 0.12551875 1.0933203
0.44539663 0.13152157 1.0937316
0.48432633 0.076449096 1.1044337
0.4794246 0.083400086 1.1069977
0.48740706 0.099450946 1.1012
0.49429157 0.096277848 1.104151
0.50052738 0.099676318 1.1036955
0.47961813 0.10871498 1.1039679
0.4845264 0.10294927 1.106606
0.49673057 0.1064222 1.1036
0.50060225 0.10269561 1.1038605
0.47852343 0.11446251 1.1014482
0.49362278 0.11410322 1.1028132
0.45523867 0.12965041 1.1031393
0.47450879 0.12397569 1.1060698
0.49792105 0.12131408 1.100149
0.45297533 0.13029516 1.1086252
0.46747065 0.13013008 1.1072205
