# .PCD v0.7 - Point Cloud Data file format
VERSION 0.7
FIELDS x y z
SIZE 4 4 4
TYPE F F F
COUNT 1 1 1
WIDTH 101
HEIGHT 1
VIEWPOINT 0 0 0 1 0 0 0
POINTS 101
DATA ascii
-0.69522971 0.65866494 1.2559843
-0.70035124 0.66541564 1.2590461
-0.69527644 0.66721362 1.2581303
-0.69056547 0.67966348 1.2537225
-0.6882562 0.68587768 1.2557352
-0.67586279 0.70926839 1.2517713
-0.71605676 0.52547276 1.2686582
-0.70635629 0.56260419 1.2667426
-0.70767987 0.57261825 1.2660264
-0.70971769 0.58118367 1.269672
-0.70870423 0.59415674 1.267859
-0.70703298 0.63578838 1.2648692
-0.70661092 0.64400887 1.2641141
-0.70601708 0.65352643 1.2692318
-0.69625628 0.66633886 1.2640543
-0.6967082 0.67712784 1.2633154
-0.6960398 0.68161213 1.2636613
-0.69602102 0.69880366 1.2699021
-0.69142199 0.70455182 1.2678068
-0.68727422 0.70728499 1.266522
-0.68448275 0.71590078 1.2634846
-0.6830734 0.7225045 1.2630001
-0.6826297 0.73489821 1.2685666
-0.7210905 0.50932461 1.2714454
-0.72224784 0.51658779 1.2765564
-0.71701479 0.51926064 1.2703555
-0.71701479 0.52271819 1.2703555
-0.7181251 0.53498882 1.2769439
-0.71384299 0.54500723 1.2739567
-0.71456814 0.55553973 1.2758611
-0.71314746 0.56399989 1.2745701
-0.70825362 0.56203002 1.2732525
-0.71141684 0.58776969 1.2727118
-0.71088552 0.59598571 1.2717614
-0.71351928 0.60860902 1.276473
-0.71293747 0.61655182 1.2741979
-0.7093609 0.6149714 1.275243
-0.71522582 0.62444383 1.273326
-0.7128917 0.63411272 1.2753503
-0.710504 0.6542033 1.2772981
-0.71150786 0.6620903 1.2791027
-0.70465761 0.66240478 1.2730166
-0.70182711 0.68551117 1.2773275
-0.69835055 0.68551117 1.2773275
-0.70090461 0.69326508 1.2788123
-0.69184935 0.70502388 1.2717673
-0.69256049 0.71267128 1.273068
-0.68577105 0.71620941 1.2701224
-0.6873194 0.72842789 1.2794397
-0.7234664 0.51695555 1.281786
-0.72598064 0.52490759 1.2841735
-0.72081172 0.53152519 1.2832707
-0.71786535 0.54415989 1.2842481
-0.71380836 0.55770648 1.2832384
-0.72383374 0.58285642 1.2886509
-0.71604443 0.58397722 1.2872584
-0.71717304 0.59367144 1.2892872
-0.71603668 0.60849553 1.2872443
-0.71361351 0.61341804 1.2828882
-0.72067416 0.62570864 1.2830259
-0.71415436 0.6245876 1.2807271
-0.72358394 0.63524723 1.2882061
-0.71797085 0.63338852 1.2844368
-0.72432423 0.64467144 1.2895241
-0.71466053 0.64753461 1.2847704
-0.72273988 0.65551847 1.2867035
-0.71328199 0.65327114 1.2822921
-0.71274197 0.6666131 1.2844691
-0.70623231 0.67065519 1.2821658
-0.71407366 0.68369442 1.2837154
-0.70620281 0.68447804 1.288479
-0.70879507 0.6906901 1.2804912
-0.69808996 0.70437866 1.2800333
-0.69216275 0.72471702 1.2852032
-0.68780184 0.73416632 1.2803378
-0.73348033 0.51631719 1.2933027
-0.72815877 0.51679724 1.2900996
-0.72550291 0.52795362 1.2916225
-0.73116261 0.54360956 1.2954216
-0.72477597 0.54233962 1.2966111
-0.72044313 0.55760264 1.295166
-0.73299068 0.56264162 1.2986604
-0.72945607 0.56264162 1.2986604
-0.72383201 0.57864308 1.29492
-0.71724641 0.57548869 1.2957592
-0.72627819 0.58481741 1.2930028
-0.71789229 0.58021647 1.2905803
-0.72579151 0.59146655 1.2921363
-0.71818721 0.5945136 1.2911105
-0.71808982 0.60321426 1.2909354
-0.72137034 0.63287508 1.2905184
-0.72563457 0.64544368 1.29814
-0.72613996 0.65332258 1.2927567
-0.72188526 0.66496122 1.2914397
-0.71812326 0.668001 1.2973433
-0.71760261 0.70280111 1.2964027
-0.70806444 0.71265888 1.2951018
-0.70287466 0.74989778 1.2985272
-0.68950725 0.7432456 1.2900484
-0.7014423 0.75001103 1.2926313
-0.72491086 0.67999274 1.3000174
