# .PCD v0.7 - Point Cloud Data file format
VERSION 0.7
FIELDS x y z
SIZE 4 4 4
TYPE F F F
COUNT 1 1 1
WIDTH 508
HEIGHT 1
VIEWPOINT 0 0 0 1 0 0 0
POINTS 508
DATA ascii
0.12991273 0.28617954 0.64832628
0.13289726 0.28652793 0.64911681
0.27704394 0.29925811 0.64990437
0.28936926 0.29919952 0.64977711
0.29275385 0.29797623 0.64865559
0.27527016 0.3027904 0.64989269
0.28597412 0.30514514 0.64952511
0.2931518 0.30621058 0.64901626
0.29366347 0.31321245 0.64949542
0.20903566 0.34570774 0.64745194
0.12874275 0.28772134 0.65586782
0.13398086 0.28802568 0.6538744
0.13497761 0.29128569 0.65585011
0.1449666 0.29599115 0.65623122
0.20759296 0.29836816 0.6596691
0.21263146 0.29787976 0.6585893
0.22485453 0.29804754 0.65839356
0.23459294 0.29821369 0.65734899
0.24484186 0.29903898 0.65775996
0.25553387 0.29849416 0.6560002
0.26558852 0.29866892 0.65491557
0.27450642 0.29884064 0.65334833
0.28481653 0.29876915 0.65293372
0.29371408 0.29736555 0.65353227
0.14644384 0.30494243 0.65386295
0.19859838 0.30552182 0.65960854
0.20099501 0.30432934 0.65961826
0.21607082 0.30433047 0.65875465
0.22482064 0.30365583 0.65915555
0.23542391 0.30463085 0.65812904
0.24459247 0.30576819 0.6577757
0.25471109 0.30437219 0.65549505
0.26518592 0.30444169 0.65430045
0.27475488 0.30494756 0.65269488
0.28427547 0.30549258 0.65221077
0.29259634 0.30485147 0.65105766
0.14745818 0.31334379 0.6567136
0.20838402 0.31436467 0.65933061
0.22821201 0.31549707 0.65847898
0.2351145 0.31451324 0.65838909
0.24511601 0.31441239 0.65730774
0.25512254 0.31445351 0.65627933
0.26505315 0.31411833 0.65482044
0.27569577 0.31391281 0.65406251
0.28521913 0.31454501 0.65198976
0.29267472 0.31512034 0.65221614
0.14810234 0.3264569 0.65660191
0.25879639 0.32174987 0.65975332
0.26310727 0.32153139 0.65930539
0.27605879 0.3216041 0.65840477
0.28527543 0.32311112 0.65782207
0.2952131 0.32329938 0.65716076
0.14847946 0.33577886 0.65629083
0.15004991 0.33587068 0.65927351
0.21279995 0.3375819 0.6591112
0.29704598 0.33425564 0.65962553
0.14911465 0.34489304 0.65741038
0.20889696 0.34513295 0.65811831
0.21244536 0.34837401 0.65663999
0.15011549 0.35217375 0.65956163
0.21557488 0.35239828 0.65663511
0.13461702 0.25915915 0.66502178
0.13747075 0.26028103 0.66790062
0.12682575 0.28789982 0.66452283
0.13638866 0.29171443 0.66703117
0.14560978 0.29560301 0.6615178
0.16548133 0.29914936 0.66764927
0.17553014 0.29910904 0.66632855
0.18510422 0.29918572 0.66576046
0.19502404 0.29886886 0.66504252
0.20463344 0.29894379 0.66522598
0.2152826 0.29873404 0.66375935
0.22493036 0.29833078 0.66492784
0.23531781 0.29845521 0.66547686
0.24307358 0.29891011 0.66588223
0.25368261 0.29979098 0.66281486
0.26554504 0.2997396 0.66270131
0.27521989 0.29966909 0.66254538
0.284563 0.2990644 0.66120839
0.29351899 0.29902345 0.66111791
0.16529307 0.3045553 0.66636193
0.17497632 0.30458251 0.66508126
0.1849068 0.30529934 0.66386443
0.19518638 0.30558497 0.66377503
0.20520639 0.30539745 0.66135037
0.21391189 0.30483267 0.66151869
0.22525331 0.30559871 0.66085118
0.23353785 0.30916899 0.66068929
0.24769771 0.3028526 0.66322529
0.25425822 0.30064428 0.66671538
0.26484066 0.30016851 0.66364956
0.27905065 0.30102593 0.66957438
0.28504896 0.30062684 0.66868681
0.29800487 0.30084395 0.66916966
0.30238903 0.30067503 0.66879392
0.14769916 0.31881726 0.6648941
0.15071505 0.31933644 0.66219592
0.16508646 0.31443346 0.66695368
0.1752582 0.31435135 0.6669119
0.1849426 0.31435093 0.66513777
0.19490574 0.31469926 0.66340965
0.20492771 0.31484824 0.66240829
0.21485546 0.3140586 0.6619972
0.22443444 0.31473532 0.66146505
0.23361306 0.31196433 0.6608991
0.14870785 0.32609639 0.6612848
0.15111318 0.32494968 0.66261268
0.16596922 0.3208946 0.66920394
0.17432784 0.32052401 0.6684311
0.18465307 0.32012922 0.66760778
0.19798295 0.32294226 0.66967314
0.20615782 0.32586828 0.66733491
0.21557704 0.32407242 0.66770184
0.22527711 0.32521111 0.66684192
0.23494597 0.32605791 0.66663361
0.24496593 0.32535103 0.66535199
0.25472468 0.32604927 0.66504568
0.26550764 0.32668957 0.66362834
0.27449852 0.32659721 0.66298699
0.28432292 0.32707506 0.66161126
0.29537374 0.32783613 0.6621573
0.30000865 0.32622153 0.6615386
0.15350823 0.33410218 0.66649801
0.20717315 0.33447349 0.666013
0.21620139 0.33610976 0.66657478
0.22558188 0.33402836 0.66900104
0.23554966 0.33509788 0.6686421
0.24578482 0.33574149 0.6684131
0.25488567 0.3351644 0.66740006
0.26451379 0.33509743 0.66553104
0.27495798 0.33465061 0.66429901
0.28494367 0.33489919 0.66305047
0.29430228 0.33490413 0.66221124
0.30004981 0.33707091 0.66162938
0.14880136 0.34791297 0.66170061
0.15290837 0.34454331 0.66389364
0.20638599 0.34369934 0.66674924
0.21478838 0.34378874 0.66577125
0.22548845 0.34455097 0.66820019
0.23525064 0.34376994 0.6688813
0.24565725 0.34464148 0.66832799
0.25469658 0.34520215 0.66726404
0.26483193 0.34495139 0.6662997
0.2746959 0.34464648 0.66534823
0.28489056 0.34513888 0.66480356
0.29518715 0.34512848 0.66358805
0.30073911 0.34777236 0.6631493
0.14892988 0.35001597 0.66227216
0.15262282 0.35580748 0.66490287
0.20892587 0.35211584 0.66969413
0.21626158 0.35520038 0.66486645
0.22515555 0.35605547 0.66797531
0.23762557 0.3532446 0.66932148
0.24618965 0.35335198 0.66884941
0.25541008 0.35484082 0.66783756
0.26479059 0.35488406 0.66708195
0.27522823 0.35512131 0.66677779
0.28476945 0.35438809 0.66597068
0.2948584 0.35514614 0.66353577
0.30074149 0.35499462 0.6631546
0.24470299 0.36361161 0.66919965
0.13587016 0.26608428 0.6780566
0.1420154 0.26195771 0.67220312
0.12904231 0.28902853 0.67133814
0.13080548 0.2907134 0.67100966
0.14696002 0.29838878 0.67391264
0.17626563 0.29950964 0.67025942
0.21287601 0.29968619 0.67065448
0.22204047 0.29973629 0.67076659
0.23387815 0.29969925 0.67068374
0.24676286 0.2998291 0.67097431
0.15590957 0.30256581 0.67301303
0.16319098 0.30237338 0.67463332
0.17425166 0.30049977 0.67659628
0.18470918 0.30104351 0.67782056
0.19483437 0.30100363 0.67773074
0.20539942 0.30162796 0.6791364
0.22139053 0.30200562 0.67998672
0.24949107 0.30164242 0.6709457
0.25784642 0.3018029 0.67130268
0.26505506 0.30169141 0.67105472
0.27446073 0.30199137 0.67172188
0.29309344 0.30141133 0.67043161
0.15987074 0.31779876 0.67035764
0.16117345 0.31427315 0.67454302
0.14910245 0.3221269 0.67948735
0.15418212 0.32590386 0.67584348
0.16446126 0.32574248 0.67484033
0.17503463 0.32678607 0.67431134
0.18508485 0.32586423 0.67399979
0.19467519 0.32690793 0.67354453
0.20406814 0.32788998 0.6726318
0.21472934 0.32771945 0.67074585
0.22302954 0.32906061 0.67099941
0.16634001 0.33499193 0.67745668
0.17488435 0.33527097 0.67699564
0.18502361 0.33448198 0.67624533
0.19458145 0.33445892 0.67387253
0.20471738 0.3355037 0.6749422
0.21516332 0.33552185 0.67337829
0.22475684 0.33621609 0.6707027
0.2340057 0.33724675 0.67067605
0.24144612 0.33493763 0.670582
0.16598214 0.34477332 0.67843705
0.17518853 0.34379807 0.6781956
0.18510027 0.34532875 0.6772362
0.19383942 0.34541714 0.67551297
0.20497242 0.34343776 0.6766156
0.21424453 0.3442899 0.67527223
0.22446272 0.34445372 0.67110181
0.23472857 0.34694013 0.67126399
0.24202369 0.34523696 0.67049396
0.15691283 0.35603225 0.67628014
0.1669638 0.35499641 0.67868793
0.1751181 0.35506541 0.67882127
0.18487395 0.35538408 0.67841929
0.19527996 0.35487792 0.67517585
0.20516515 0.35545242 0.67454064
0.2143036 0.35509181 0.67420381
0.22453503 0.35407358 0.67359549
0.23441699 0.3554289 0.67356533
0.24436828 0.35530332 0.67098063
0.15669137 0.36358514 0.67237306
0.25266895 0.36187574 0.67089671
0.27333969 0.36022162 0.67121261
0.13214323 0.26603091 0.68265522
0.14125076 0.26753309 0.68174851
0.15173496 0.26431119 0.68301255
0.13895208 0.27215934 0.68876052
0.14330798 0.27151644 0.6871475
0.13434221 0.29520279 0.68677282
0.14495845 0.30100068 0.6861335
0.15251736 0.30491367 0.6865344
0.1646674 0.30196258 0.68461949
0.17424476 0.30184063 0.68380564
0.18480527 0.30237299 0.68501174
0.19494818 0.30220166 0.68462366
0.20463012 0.30273816 0.68583912
0.21538909 0.30249807 0.68338734
0.22557609 0.3029502 0.68556178
0.23514335 0.30330285 0.68501562
0.24477457 0.30307674 0.68469435
0.25510693 0.30305043 0.68354762
0.26526913 0.30493283 0.68467551
0.27525216 0.30472311 0.68506527
0.28490621 0.30472672 0.68437499
0.29500133 0.30441529 0.68402278
0.30511066 0.30457908 0.68417591
0.31289893 0.30455831 0.68996251
0.15626025 0.3189393 0.68655986
0.15623099 0.32354212 0.68643129
0.1521672 0.33869854 0.68495822
0.16265254 0.33500201 0.68692678
0.15953596 0.34689727 0.68457937
0.16432138 0.34513679 0.68367237
0.17495741 0.34714991 0.68037522
0.2046739 0.34447291 0.68241966
0.2161973 0.34143785 0.68111759
0.15923636 0.35182741 0.68329376
0.16459741 0.35613969 0.68551695
0.17371225 0.35224134 0.6805023
0.18072891 0.35208112 0.68019164
0.20582686 0.35443148 0.68414247
0.21133195 0.35651559 0.68336844
0.14768243 0.2689462 0.69013608
0.1369922 0.27385867 0.69305217
0.14236711 0.27519673 0.69168377
0.14386106 0.2812551 0.69894302
0.13324603 0.29486966 0.69814634
0.13742398 0.30121735 0.69525433
0.16595328 0.30328229 0.693699
0.17457479 0.3027865 0.69359964
0.18516786 0.30280787 0.6948325
0.19506636 0.30272603 0.69372237
0.20471127 0.30280387 0.69456887
0.2145656 0.30327487 0.69506717
0.2256595 0.30230251 0.69434768
0.23515318 0.30310863 0.69608241
0.24469443 0.30298436 0.69549561
0.25485557 0.30272356 0.6949259
0.26579204 0.30344251 0.69562727
0.27485958 0.30456585 0.69254464
0.28499654 0.3037641 0.69472235
0.29492992 0.30425221 0.69538307
0.30494937 0.30381918 0.6946215
0.3131893 0.30339569 0.69592696
0.16419739 0.31500626 0.69644797
0.15157467 0.32558796 0.6907537
0.16423854 0.3283467 0.69662261
0.15425277 0.33956268 0.69434607
0.16275877 0.33611554 0.69569468
0.16408521 0.34793329 0.69597214
0.16374946 0.35667178 0.69454807
0.13674718 0.2771894 0.70149076
0.14852406 0.27779019 0.70301062
0.15293197 0.2756595 0.7057122
0.14281976 0.28262609 0.70553577
0.13697153 0.30654123 0.70756662
0.16691905 0.30193138 0.70450813
0.17481163 0.30189201 0.70464265
0.18484324 0.30211085 0.70564401
0.19546625 0.30182829 0.70480311
0.20531747 0.30172738 0.70530856
0.2153246 0.30209705 0.70561558
0.22475898 0.30234709 0.70507693
0.23594622 0.3017424 0.70534623
0.24555415 0.30124551 0.70418006
0.25536761 0.30189338 0.70569831
0.26466602 0.30153221 0.70548791
0.27551216 0.30323938 0.70437568
0.28439832 0.30304211 0.70526743
0.29528502 0.30280977 0.704974
0.30554375 0.3031013 0.70552027
0.31491512 0.30256015 0.70463055
0.32190403 0.30173182 0.70981938
0.13814731 0.31281692 0.70867199
0.15345329 0.31159553 0.70808482
0.16542198 0.32117188 0.70164216
0.16490844 0.33289081 0.70489717
0.16579276 0.34491 0.70592874
0.15827821 0.27764818 0.712466
0.23118545 0.27827311 0.71909183
0.13934238 0.28244969 0.7148025
0.14516217 0.28890169 0.71472311
0.15649247 0.28209865 0.71761751
0.13757168 0.29823047 0.71068323
0.14552383 0.29352802 0.71810329
0.16258958 0.29571491 0.718669
0.18405549 0.29990548 0.71467483
0.20544602 0.2998963 0.7146529
0.22104242 0.29994482 0.71476847
0.24430993 0.29985192 0.71454716
0.2546429 0.29980513 0.71443558
0.26619396 0.29953092 0.715114
0.27468693 0.2997506 0.71896881
0.28257445 0.29990667 0.71623248
0.32420489 0.29985166 0.7192111
0.13855234 0.30116028 0.71074975
0.14619087 0.30977046 0.71502346
0.16744079 0.30267748 0.71433383
0.17519668 0.30069834 0.71425146
0.18478523 0.30112648 0.71470058
0.1945515 0.30134177 0.71557009
0.20493343 0.30097276 0.71490377
0.21528728 0.30102947 0.71503705
0.22536905 0.30140406 0.71446484
0.2352801 0.30120224 0.71468103
0.24574538 0.30061585 0.71431857
0.25513998 0.3012315 0.714526
0.26422152 0.3008959 0.71318221
0.27565852 0.30080658 0.71514297
0.28565675 0.30196616 0.71419209
0.29528952 0.30219731 0.71320248
0.30480778 0.30200332 0.71504992
0.31472108 0.30151415 0.71416503
0.32211432 0.30085176 0.71385443
0.14371808 0.31073457 0.7172215
0.15645225 0.31386283 0.71695089
0.16443422 0.32355988 0.71397078
0.16505849 0.33974317 0.71664667
0.15941936 0.34703535 0.71760273
0.16760091 0.345202 0.71583539
0.15882474 0.35838354 0.71492612
0.15828735 0.36299086 0.71250713
0.22801954 0.27918851 0.72145736
0.15628442 0.2874729 0.7241925
0.16189593 0.28810644 0.72578263
0.22369492 0.28116441 0.72656333
0.31665507 0.28602344 0.72886705
0.32435098 0.28581402 0.72833341
0.33001679 0.2855688 0.72770852
0.14656198 0.29628432 0.72484678
0.15113388 0.29622427 0.72469985
0.16430119 0.29572207 0.72428542
0.1745646 0.2991209 0.72576106
0.18406871 0.29888719 0.72559679
0.19602102 0.29961374 0.72655725
0.20611104 0.29910362 0.7273218
0.21576044 0.29946983 0.72480965
0.22242743 0.29956743 0.72564369
0.23721358 0.29917577 0.72656482
0.24438453 0.29917264 0.72708976
0.25446025 0.29945347 0.72563726
0.26480049 0.29885036 0.72630733
0.27514499 0.29857013 0.72502899
0.28498808 0.29821306 0.72510046
0.29349759 0.2983481 0.72604162
0.30361927 0.29963335 0.72682685
0.313988 0.29926062 0.72728932
0.32479209 0.29918358 0.72710204
0.14638868 0.30315003 0.72400254
0.15329285 0.30504546 0.72692811
0.16571969 0.30384853 0.72578114
0.17492226 0.30065155 0.72112978
0.18730293 0.30050692 0.72268808
0.19553638 0.30069318 0.72439796
0.20421042 0.30041796 0.72234333
0.21501043 0.30050075 0.72348869
0.22615691 0.30061865 0.72421902
0.23417711 0.30077982 0.7238121
0.24537109 0.30050033 0.72456992
0.25603044 0.30036175 0.72202146
0.26423785 0.30066532 0.7211628
0.28694814 0.30078548 0.72027552
0.29594931 0.3012765 0.72191155
0.30590859 0.30036902 0.72222769
0.3149341 0.30029801 0.72264856
0.32428455 0.30040681 0.72448814
0.14671959 0.31205964 0.72560012
0.15577573 0.31439495 0.72682637
0.16549012 0.31594682 0.72521096
0.16405004 0.32002938 0.72950953
0.16796331 0.34364614 0.72074169
0.16468778 0.28540134 0.73234546
0.20819174 0.28566322 0.73818886
0.21472044 0.28367454 0.73304981
0.2202384 0.28306779 0.73148191
0.26882839 0.28805855 0.73917985
0.27459618 0.28777948 0.7384637
0.28494573 0.28707403 0.73665345
0.29492185 0.28604522 0.7340135
0.30601034 0.28576738 0.73257089
0.31229708 0.28657463 0.7302717
0.14349394 0.2948643 0.73613262
0.15730575 0.29247358 0.73510689
0.1676755 0.29473785 0.73451602
0.17550246 0.29812354 0.73514462
0.18492933 0.2979815 0.73541719
0.1955604 0.29876405 0.73547876
0.20525971 0.29807085 0.73559737
0.21514249 0.29861885 0.73547786
0.22539558 0.29860476 0.73572946
0.23519354 0.29800338 0.7351836
0.24615011 0.2979542 0.73506463
0.25536683 0.2981137 0.73422432
0.26470286 0.29788002 0.73610944
0.27492797 0.29756081 0.73532808
0.28523543 0.297353 0.73480666
0.29531914 0.29632151 0.73639965
0.30514479 0.29669076 0.73656493
0.31510952 0.29770136 0.736996
0.32509688 0.29768932 0.73474282
0.33278164 0.29632741 0.73702526
0.14445403 0.30473933 0.73333567
0.15472814 0.30643669 0.73447812
0.16374116 0.30770454 0.73407578
0.19398579 0.30041111 0.73008531
0.22785054 0.30052227 0.7303555
0.23297748 0.30072653 0.73085189
0.25754681 0.30038109 0.73001242
0.30211541 0.30023372 0.73451269
0.31294855 0.3000778 0.73413128
0.14724639 0.31303188 0.73483437
0.15544221 0.31474379 0.73500496
0.16393809 0.31375006 0.73468125
0.16764301 0.32713717 0.73657221
0.1713482 0.32655725 0.73526645
0.17095943 0.34777945 0.73359823
0.16759256 0.28767332 0.7407788
0.17528014 0.2893641 0.74775237
0.18444856 0.28939399 0.74782956
0.19518952 0.28872859 0.74611014
0.20306519 0.28693628 0.74147862
0.25910658 0.28956127 0.74303591
0.26476979 0.28949088 0.74285525
0.15708742 0.29987773 0.74354368
0.16925918 0.29385394 0.74367321
0.17411408 0.29593432 0.74528474
0.18537423 0.29672313 0.74462509
0.19542548 0.29744086 0.74505377
0.20595165 0.29646993 0.74516672
0.21514121 0.29555809 0.74696249
0.22428705 0.29687482 0.74584347
0.23562513 0.29500651 0.74660218
0.24544416 0.29473916 0.74571979
0.25526768 0.29458654 0.74531472
0.26542777 0.29491502 0.74426877
0.275307 0.29453358 0.74340248
0.28530186 0.29481208 0.74342006
0.29402804 0.29280183 0.74228036
0.30518553 0.29252642 0.74309552
0.31558397 0.29465902 0.74229401
0.32498991 0.29461586 0.74126935
0.33359841 0.29438046 0.74116576
0.14670375 0.30843037 0.74221122
0.15735255 0.30341804 0.7447986
0.16542459 0.30234429 0.74463439
0.14781629 0.31426096 0.74526477
0.15158463 0.31314999 0.74301875
0.16444753 0.31562781 0.7425257
0.16924255 0.32823461 0.74360007
0.17213616 0.32176492 0.74737632
0.17717043 0.2950882 0.75271785
0.1848335 0.29502937 0.75294292
0.1958634 0.2953231 0.75257456
0.20465004 0.29451424 0.75224996
0.21486655 0.29368025 0.75098425
0.22626959 0.293933 0.75075924
0.23354852 0.29599392 0.75080299
0.14642864 0.31228977 0.75644648
0.15067574 0.31759149 0.75194353
0.16199952 0.31356329 0.75704139
0.17138636 0.32726854 0.75301933
0.17188521 0.33130443 0.75521111
0.14864792 0.30961385 0.76253831
0.1496229 0.31373364 0.76753986
0.16548586 0.31836689 0.76362103
0.17556283 0.33024484 0.76225412
