# .PCD v0.7 - Point Cloud Data file format
VERSION 0.7
FIELDS x y z
SIZE 4 4 4
TYPE F F F
COUNT 1 1 1
WIDTH 168
HEIGHT 1
VIEWPOINT 0 0 0 1 0 0 0
POINTS 168
DATA ascii
0.43999553 -0.31770888 1.1578373
0.40540522 -0.30515939 1.1580487
0.41634974 -0.30194306 1.1578016
0.42255014 -0.30329683 1.1589649
0.43427944 -0.30519396 1.1552292
0.44784382 -0.30872101 1.1537009
0.38467717 -0.29866919 1.1573262
0.4381077 -0.33049315 1.1696235
0.43583643 -0.3129454 1.1635598
0.37373859 -0.30342311 1.163483
0.38239095 -0.30375573 1.1647522
0.39517784 -0.30384275 1.165086
0.40426978 -0.30537581 1.166898
0.41229302 -0.30360019 1.164156
0.42699122 -0.3043645 1.1610329
0.43796745 -0.3081108 1.1692491
0.45182097 -0.30671355 1.1639466
0.37147442 -0.29945207 1.1603599
0.42709416 -0.31222194 1.1787658
0.44185039 -0.31405303 1.1796154
0.45159462 -0.31734267 1.1799093
0.24598727 -0.30118889 1.1795299
0.29998323 -0.30060777 1.1772541
0.30320716 -0.30062738 1.1773309
0.31610757 -0.30231017 1.1776502
0.3257181 -0.3006987 1.1776102
0.33915111 -0.30445653 1.1797519
0.34925577 -0.30208731 1.1705713
0.35296476 -0.30253562 1.1723084
0.36693197 -0.30353615 1.1761854
0.38260049 -0.30966121 1.1751326
0.39518473 -0.30949733 1.1745107
0.40975985 -0.30525151 1.1704879
0.45904836 -0.30945006 1.1743314
0.27229217 -0.29690498 1.1752803
0.28206992 -0.29710293 1.1760638
0.31656945 -0.29962826 1.173418
0.33093956 -0.29962528 1.1734064
0.44240764 -0.33294147 1.189748
0.4519226 -0.32354376 1.1849827
0.3748033 -0.31115383 1.180797
0.38159499 -0.31145099 1.1819247
0.39361915 -0.3101041 1.1890951
0.40529501 -0.31236044 1.1853759
0.41902086 -0.31297499 1.1877081
0.42305738 -0.3123765 1.185437
0.43507528 -0.31416541 1.1830384
0.46725154 -0.31280202 1.1870517
0.47366518 -0.31277031 1.1869314
0.24620149 -0.30019668 1.1883101
0.26725715 -0.30023411 1.1884584
0.2763426 -0.30279106 1.1858044
0.2991688 -0.30302832 1.1867335
0.30852902 -0.3027049 1.185467
0.31451553 -0.30386862 1.1837207
0.32414764 -0.30544716 1.1835905
0.33572596 -0.30572426 1.1846642
0.34498158 -0.30678603 1.1887785
0.35527706 -0.30591613 1.1854079
0.36314696 -0.30573556 1.184708
0.37402433 -0.3099578 1.1885341
0.23500618 -0.29577425 1.1835556
0.25922993 -0.29844052 1.1813586
0.26628473 -0.29914281 1.1841385
0.27850133 -0.29841852 1.1812716
0.44427153 -0.32133698 1.1947606
0.45783103 -0.32498083 1.1962036
0.32204521 -0.31288546 1.1997603
0.3362799 -0.3109507 1.1923414
0.35745174 -0.31101871 1.1926022
0.37558484 -0.3112486 1.1934838
0.3811622 -0.31698316 1.1906213
0.39719814 -0.31037182 1.1901217
0.4077858 -0.31428161 1.1926666
0.41827342 -0.31809756 1.1948071
0.42014101 -0.3170529 1.1908832
0.44429225 -0.31926906 1.1992073
0.25557411 -0.3017239 1.1943557
0.28190121 -0.30531588 1.1956922
0.29416901 -0.30454057 1.1926559
0.30472133 -0.30860597 1.1958308
0.31724814 -0.30813241 1.1939957
0.34906554 -0.30753353 1.1916751
0.13593055 -0.29985377 1.19988
0.14511298 -0.29858875 1.194818
0.17474978 -0.29595715 1.1973276
0.18064582 -0.29494715 1.1932416
0.20541632 -0.29880005 1.1956635
0.21330717 -0.2984519 1.1942704
0.22478315 -0.29859629 1.1948482
0.43477431 -0.32395229 1.2044845
0.13604784 -0.31318668 1.2009152
0.30108264 -0.31158143 1.2073605
0.31367385 -0.31103295 1.2052351
0.33558479 -0.31157708 1.2073436
0.34358704 -0.3146708 1.2066061
0.36494425 -0.31327066 1.2012373
0.37281352 -0.31439263 1.2055395
0.39700341 -0.31865454 1.2092614
0.40348306 -0.3185733 1.2089531
0.13683006 -0.30512536 1.2078201
0.1435779 -0.30549377 1.2092785
0.16892731 -0.30045748 1.2022958
0.17250204 -0.30098513 1.2044072
0.18749595 -0.30137384 1.2059627
0.19734228 -0.30136895 1.2059431
0.20494126 -0.30212277 1.2024155
0.21541968 -0.30469188 1.2061043
0.22158323 -0.30414015 1.2039202
0.23135684 -0.30406579 1.2036259
0.245682 -0.30558506 1.2096398
0.26847327 -0.30858448 1.2084929
0.27721533 -0.30733675 1.2036064
0.28849223 -0.3071394 1.2028337
0.16741353 -0.29740518 1.2031858
0.25019804 -0.33686337 1.2155854
0.26068416 -0.32101139 1.2182055
0.37913343 -0.3202405 1.2152799
0.25675318 -0.31362849 1.2152927
0.26248163 -0.31123188 1.2188607
0.28324705 -0.31366438 1.2154318
0.29776776 -0.31327945 1.2139401
0.31931749 -0.31335211 1.2142217
0.35563818 -0.31662861 1.2141134
0.37095276 -0.31560102 1.2101731
0.13433002 -0.30361751 1.2149408
0.17047891 -0.30651954 1.2133389
0.18600342 -0.30596089 1.2176902
0.19307137 -0.3023963 1.2100542
0.22856189 -0.3069154 1.2149059
0.23844276 -0.30686396 1.2147022
0.2434884 -0.30697021 1.2151228
0.2557185 -0.30907029 1.2103953
0.16197249 -0.29945201 1.2114666
0.19607164 -0.31044006 1.228858
0.22719723 -0.31456029 1.2253723
0.26780978 -0.31163988 1.2204585
0.27790812 -0.31178921 1.2210433
0.29489136 -0.31550476 1.2225631
0.305397 -0.31937942 1.2246614
0.15156832 -0.30503568 1.2206157
0.16544646 -0.30615097 1.2250786
0.17721345 -0.30795461 1.2256346
0.18483 -0.30842456 1.2208798
0.19142438 -0.30834177 1.2205521
0.20823272 -0.30863577 1.2217158
0.19520578 -0.31341946 1.233996
0.2236456 -0.31493533 1.2333643
0.24043268 -0.31493893 1.2333784
0.25453943 -0.31578147 1.236678
0.27105486 -0.31877807 1.235247
0.28502566 -0.31936386 1.237517
0.16682811 -0.30868283 1.2352099
0.18401285 -0.30931363 1.2377342
0.24000099 -0.32222322 1.2485968
0.25539303 -0.32021761 1.2408252
0.26342338 -0.32178074 1.2468822
0.27586964 -0.32046568 1.2417865
0.15803671 -0.31123173 1.2454095
0.16128011 -0.31094974 1.2442812
0.18188672 -0.31822526 1.2462485
0.20534363 -0.31439447 1.2445114
0.21615353 -0.31873763 1.248255
0.23590744 -0.3178798 1.2448957
0.238539 -0.32486024 1.2588152
0.24779385 -0.32181674 1.2536368
0.2521857 -0.32136038 1.2585264
0.2236924 -0.31980139 1.252421
