# .PCD v0.7 - Point Cloud Data file format
VERSION 0.7
FIELDS x y z
SIZE 4 4 4
TYPE F F F
COUNT 1 1 1
WIDTH 103
HEIGHT 1
VIEWPOINT 0 0 0 1 0 0 0
POINTS 103
DATA ascii
0.24922529 0.19920547 0.54955798
0.23551969 0.18974888 0.554115
0.24481863 0.18940002 0.55369788
0.25166845 0.18964395 0.55661505
0.15941061 0.19225849 0.55981684
0.16249737 0.19230516 0.55995274
0.17844979 0.19834594 0.55979657
0.18563336 0.19468227 0.55937159
0.19499753 0.19469243 0.55846804
0.20485866 0.19567181 0.55810183
0.21476829 0.19513671 0.55688947
0.22506991 0.19524243 0.55562937
0.23475653 0.19470033 0.55386531
0.2449854 0.19533519 0.55316585
0.25094989 0.19489387 0.55377698
0.25470564 0.18982822 0.56164253
0.11477431 0.19595778 0.56968421
0.1257994 0.19471715 0.56826818
0.13467588 0.19473185 0.56771624
0.1459673 0.19533055 0.56751376
0.15436786 0.19475038 0.56618321
0.16522439 0.19486372 0.56406713
0.17505324 0.19504894 0.56370968
0.18465775 0.19437316 0.5633502
0.19502342 0.19332007 0.56275457
0.2054735 0.19214113 0.56465894
0.21485531 0.19150043 0.5641554
0.22407167 0.19117624 0.56374943
0.23462828 0.1909081 0.56483757
0.24516501 0.19073407 0.56432271
0.2522254 0.19026396 0.56293172
0.048184335 0.19854435 0.57811993
0.055996507 0.19736642 0.57889777
0.065124579 0.19665843 0.57720304
0.075269803 0.19671389 0.57688081
0.085254706 0.19664939 0.57640886
0.094181217 0.19620208 0.57489151
0.10463082 0.19660358 0.57380265
0.11423118 0.19587453 0.57313615
0.12400779 0.19420171 0.57403404
0.13535832 0.19417599 0.57537925
0.14200054 0.19334923 0.57361662
0.15188968 0.19321132 0.57165205
0.1608233 0.19273008 0.57022822
0.17620659 0.19445264 0.57999527
0.21791282 0.19434023 0.57966
0.2260133 0.19380014 0.57898998
0.23416811 0.19408222 0.57889032
0.24510705 0.19325286 0.57837564
0.25496101 0.19267523 0.57685995
0.2607044 0.19207411 0.57602537
-0.0043417793 0.19835144 0.58844215
0.0052171322 0.19808553 0.58822948
0.015272924 0.1977132 0.58655608
0.024837727 0.19700702 0.58551395
0.035325054 0.19726001 0.58443242
0.044640735 0.19707502 0.5835911
0.054653488 0.19617109 0.58401227
0.065349072 0.19495486 0.58387423
0.074730508 0.19517927 0.58433223
0.084438883 0.19539642 0.58454859
0.095448807 0.1951832 0.58574766
0.10488099 0.19521955 0.58371824
0.11568981 0.19534706 0.58539557
0.12404719 0.19520521 0.58343589
0.13479495 0.19546255 0.58540112
0.14583422 0.19509497 0.58270931
0.1557681 0.1955471 0.5832597
0.1660046 0.19553544 0.58481872
0.17538595 0.19520856 0.58463198
0.1851119 0.19517583 0.58435035
0.19455811 0.19464833 0.58295172
0.20525566 0.19500715 0.58470941
0.21434496 0.19458833 0.58368474
0.2250687 0.19403081 0.58422923
0.23547165 0.19363613 0.58409911
0.24540466 0.19296792 0.58611727
0.25554323 0.19289306 0.58708286
0.26301616 0.19217299 0.58568305
-0.0049104174 0.19755168 0.59244919
0.0046766317 0.1967497 0.59095943
0.013051526 0.19631089 0.59033024
0.032327436 0.19628219 0.59024394
0.078136101 0.1963423 0.59042472
0.088570863 0.19631924 0.59035534
0.10557707 0.19656274 0.59108758
0.12588719 0.19682235 0.59256923
0.18478307 0.19540629 0.5949232
0.19508705 0.195187 0.59425545
0.20496309 0.19492835 0.59365284
0.21612059 0.19455193 0.59314346
0.22528486 0.19421415 0.59326047
0.23488423 0.19381836 0.59525013
0.24462172 0.19365309 0.59557861
0.2556459 0.19289379 0.596663
0.26454642 0.1922179 0.59487975
0.27040645 0.19179262 0.59626383
0.22434366 0.19439924 0.60252005
0.23530486 0.19418497 0.60428226
0.24523222 0.19397436 0.60498762
0.25490066 0.19336136 0.6053462
0.26449031 0.19244133 0.60618287
0.27277941 0.19238624 0.60617566
