# .PCD v0.7 - Point Cloud Data file format
VERSION 0.7
FIELDS x y z
SIZE 4 4 4
TYPE F F F
COUNT 1 1 1
WIDTH 313
HEIGHT 1
VIEWPOINT 0 0 0 1 0 0 0
POINTS 313
DATA ascii
-0.64053935 0.1278695 0.93621999
-0.6434831 0.13099794 0.93310815
-0.62689197 0.12979202 0.9502961
-0.61471587 0.12844443 0.95955104
-0.6383993 0.13055854 0.95590824
-0.64531094 0.13143636 0.96233547
-0.63190866 0.1316454 0.96386588
-0.59428048 0.16623096 0.96666747
-0.63300616 0.13381846 0.97977638
-0.62810749 0.13334461 0.97630703
-0.59233677 0.13360539 0.97502768
-0.59135389 0.14640406 0.97486269
-0.59457636 0.16551334 0.97797304
-0.58562821 0.16463035 0.97594041
-0.59255987 0.1782157 0.97465628
-0.58342665 0.1728175 0.97419262
-0.6367985 0.13405542 0.98151135
-0.62840641 0.13186529 0.98510671
-0.59606934 0.136576 0.9804287
-0.58654338 0.13511235 0.9836393
-0.57975429 0.13777193 0.98901385
-0.60557038 0.14826936 0.98721719
-0.59383619 0.14477593 0.98782003
-0.58582515 0.14515315 0.9869324
-0.59367216 0.15178823 0.98680419
-0.58342159 0.15558442 0.98535764
-0.57820493 0.15315568 0.98408473
-0.59344614 0.1666985 0.98493874
-0.58420438 0.16596933 0.98382944
-0.57829201 0.16237441 0.98044991
-0.6118741 0.17675054 0.9887197
-0.60134751 0.17547446 0.98911035
-0.59493697 0.17375652 0.98443836
-0.58427548 0.17385668 0.98432589
-0.57936299 0.1798837 0.9837786
-0.57466674 0.12661314 0.99653661
-0.60046548 0.13882627 0.99658251
-0.59816462 0.13528684 0.99052745
-0.58668131 0.1363533 0.99436629
-0.60524547 0.14480454 0.99108607
-0.59505594 0.14533091 0.99338543
-0.58584768 0.14585589 0.99365103
-0.60094684 0.15452707 0.99289632
-0.5938713 0.15139873 0.9901107
-0.58440417 0.15469398 0.99050725
-0.62667072 0.16914693 0.99944288
-0.61489677 0.16815875 0.99360412
-0.62405586 0.17617041 0.99815857
-0.61762547 0.17763138 0.99364334
-0.59250677 0.17740062 0.99234498
-0.58449626 0.17661572 0.99250299
-0.58032805 0.12892617 1.0039771
-0.57374072 0.12654881 1.0068028
-0.63562071 0.13395067 1.0006856
-0.62834704 0.13502131 1.0086839
-0.61208206 0.14507577 1.0022799
-0.60625613 0.14258058 1.0039186
-0.59346694 0.14586429 1.0077276
-0.58896118 0.14203493 1.0000767
-0.60406578 0.15330203 1.0025579
-0.59003776 0.15391348 1.0065566
-0.58639061 0.15468253 1.0026627
-0.63292706 0.1687277 1.0050581
-0.62864488 0.166951 1.0025914
-0.58799332 0.1670326 1.0030689
-0.63297254 0.17284514 1.0051303
-0.62606561 0.17413853 1.0021026
-0.61571735 0.17846918 1.0059909
-0.60615808 0.17807359 1.0037611
-0.58849555 0.17400283 1.0039258
-0.55624658 0.12480201 1.0148813
-0.64213324 0.13649285 1.019677
-0.63900113 0.13582948 1.0147214
-0.62529248 0.13861099 1.0148658
-0.59385741 0.13623759 1.0177983
-0.62208003 0.14678326 1.0141317
-0.61236322 0.14094034 1.0117587
-0.59630531 0.14447375 1.0172485
-0.64240277 0.16660716 1.0171764
-0.63698715 0.16604102 1.0136952
-0.59540439 0.16913579 1.0157117
-0.64235675 0.17188855 1.0156424
-0.63863087 0.1771504 1.0141155
-0.62833107 0.17559417 1.0130877
-0.59241921 0.17735931 1.0153334
-0.60156018 0.13736773 1.0262129
-0.59870303 0.13949507 1.0213388
-0.58680046 0.1312914 1.0223956
-0.65512264 0.14026661 1.0269878
-0.63285762 0.14308357 1.0271442
-0.59627169 0.14235806 1.0219361
-0.59722567 0.1537293 1.023571
-0.64665496 0.16469035 1.0224384
-0.59787422 0.16784073 1.0246826
-0.65120316 0.17071874 1.0252178
-0.64368373 0.17335814 1.0243709
-0.636949 0.17138818 1.029238
-0.6001671 0.17408358 1.0286123
-0.59570372 0.17518435 1.024148
-0.54152352 0.079123661 1.0315609
-0.53441775 0.090499751 1.0332235
-0.56308377 0.12696652 1.032483
-0.55396783 0.12724045 1.0347104
-0.54432219 0.12718028 1.0342212
-0.53406036 0.1245985 1.0361595
-0.52912235 0.12193859 1.0375228
-0.5881089 0.1303405 1.0369688
-0.57169265 0.13045864 1.0379088
-0.65796149 0.14147808 1.0358577
-0.60256451 0.14543204 1.0339352
-0.60381138 0.15260792 1.0348581
-0.655379 0.16515033 1.0339997
-0.64915442 0.16323583 1.0308263
-0.65936518 0.17285582 1.0380676
-0.59741515 0.17491724 1.0335381
-0.5243535 0.082631022 1.0449046
-0.52480644 0.11941779 1.0401623
-0.56494534 0.1280252 1.041092
-0.53357899 0.12472239 1.0490606
-0.60686868 0.13798104 1.0449827
-0.58350039 0.13185012 1.0489792
-0.5792228 0.1315271 1.0464092
-0.66843259 0.14596835 1.0478529
-0.65916288 0.14265412 1.0444682
-0.60509539 0.14797755 1.041919
-0.64503312 0.15437657 1.0469053
-0.60695219 0.15092181 1.0426682
-0.66247958 0.16349636 1.0444615
-0.65315682 0.16779035 1.041684
-0.61087739 0.16864155 1.0469685
-0.60878932 0.16885275 1.0482796
-0.664177 0.17337704 1.0411817
-0.64745021 0.176286 1.0416257
-0.51542079 0.084811449 1.0533861
-0.51504558 0.094532259 1.0558109
-0.5052371 0.11653055 1.0524626
-0.54778641 0.12932594 1.0516696
-0.53187239 0.12423043 1.057023
-0.52429175 0.12413871 1.0562427
-0.51958585 0.12438773 1.0583614
-0.50639343 0.12076592 1.0519049
-0.66832542 0.14688578 1.0544388
-0.65995091 0.14375377 1.0525196
-0.61268497 0.14121947 1.0549875
-0.65562832 0.17382628 1.052479
-0.60951394 0.17558967 1.0544691
-0.51420593 0.055446714 1.0621387
-0.50355351 0.076718293 1.0630345
-0.50641781 0.083781749 1.063998
-0.51286578 0.097387873 1.0623418
-0.5033409 0.09329702 1.065148
-0.49804878 0.094974063 1.0677775
-0.50069338 0.11892861 1.0610558
-0.4964492 0.11874495 1.0659053
-0.5416109 0.12839234 1.067709
-0.50600827 0.12170564 1.0600902
-0.54751337 0.13097188 1.0650542
-0.68244916 0.14839604 1.0652804
-0.66669869 0.14715463 1.0632811
-0.65665865 0.14524515 1.063439
-0.68110156 0.15164092 1.067713
-0.67640901 0.1515668 1.0671911
-0.65924972 0.15778713 1.0699792
-0.61673975 0.15552367 1.0644674
-0.61542982 0.16860045 1.0647037
-0.6580199 0.17416494 1.0632924
-0.61620605 0.173168 1.0660466
-0.50147694 0.034603275 1.0730352
-0.50420344 0.045294639 1.0726207
-0.49842706 0.044831324 1.074859
-0.49284789 0.065657631 1.0754513
-0.50203836 0.079165585 1.070078
-0.49396834 0.073783249 1.0766112
-0.48835579 0.076733097 1.0768373
-0.50426686 0.086258948 1.0737906
-0.49536252 0.087385111 1.0756269
-0.48686039 0.084559269 1.0751563
-0.50226134 0.090855718 1.0705533
-0.49520501 0.09534099 1.0742245
-0.48595867 0.095157653 1.0753125
-0.49322596 0.10012874 1.0762695
-0.48640084 0.10431184 1.0741305
-0.4939802 0.11718854 1.0715513
-0.48494488 0.11344571 1.0755469
-0.52726072 0.12692876 1.0799819
-0.51895821 0.1263417 1.0749869
-0.50869501 0.12305351 1.0718305
-0.6851353 0.15579388 1.0763278
-0.6757431 0.1523986 1.0730479
-0.66451144 0.15250197 1.0737758
-0.6845423 0.16590856 1.0753915
-0.67994928 0.16439156 1.0750806
-0.66649383 0.17271596 1.0722634
-0.49218357 0.024140032 1.0841274
-0.49055448 0.030020574 1.0833077
-0.4938322 0.044442717 1.0827391
-0.48422444 0.044856809 1.0856575
-0.49266961 0.055765577 1.0842602
-0.48482996 0.053625263 1.0837013
-0.49245378 0.067358583 1.0831618
-0.48497877 0.066231959 1.083105
-0.49466401 0.071466893 1.0858593
-0.48506647 0.074389823 1.0854355
-0.47759253 0.07452523 1.0873611
-0.48357636 0.084345497 1.0857061
-0.47656983 0.083484933 1.088408
-0.48600334 0.094263799 1.0846655
-0.47455037 0.10437294 1.0849196
-0.4811089 0.11573686 1.0852869
-0.4735899 0.11275256 1.084987
-0.46833143 0.11290634 1.0864735
-0.52527583 0.12787673 1.0880477
-0.5113585 0.12513301 1.0899435
-0.50994676 0.12406781 1.0806653
-0.66974461 0.1478119 1.082232
-0.69188851 0.15338808 1.0800149
-0.6860323 0.15814157 1.0823693
-0.67325115 0.15055357 1.0807685
-0.66550654 0.15113282 1.0849267
-0.62523961 0.15362383 1.0816748
-0.69465107 0.16058524 1.0889536
-0.68635446 0.16228813 1.0805579
-0.68963403 0.1711951 1.0810888
-0.67856508 0.17211919 1.0869243
-0.6247794 0.17438051 1.0825843
-0.49139747 0.015398232 1.0917313
-0.48734674 0.015995977 1.0919739
-0.48226056 0.025867168 1.0946058
-0.48398763 0.035989214 1.0944718
-0.47473848 0.03677047 1.0978712
-0.47599974 0.045575626 1.0939237
-0.47478229 0.054200973 1.0953953
-0.46863192 0.056246888 1.0964069
-0.48179466 0.068783656 1.0901729
-0.4743847 0.065014146 1.0946082
-0.48355752 0.077729903 1.0908018
-0.47556004 0.074968293 1.093839
-0.48281419 0.089743726 1.0924867
-0.47484744 0.083964497 1.094697
-0.48529083 0.094896637 1.0947187
-0.47567344 0.095447943 1.0954332
-0.4731645 0.10397395 1.0947397
-0.50033778 0.11940173 1.0917883
-0.47604412 0.11654478 1.092863
-0.52485299 0.12923092 1.09957
-0.50917178 0.12532496 1.0916154
-0.63276803 0.14538738 1.0972834
-0.62850052 0.14394313 1.0976532
-0.68758541 0.15574247 1.0965923
-0.63433248 0.15137625 1.0974057
-0.6974231 0.16569306 1.0932992
-0.67361504 0.17571546 1.090885
-0.48077056 0.01853152 1.1014218
-0.48064518 0.027517617 1.1011347
-0.48155504 0.032771379 1.1015025
-0.51234472 0.12571067 1.108119
-0.50175238 0.12081698 1.1047289
-0.68268663 0.15367065 1.1031449
-0.69973922 0.16315372 1.1063709
-0.52993119 0.13122956 1.1165756
-0.63313931 0.1443736 1.1163666
-0.62829733 0.14364119 1.1185662
-0.69438064 0.15831243 1.1146874
-0.64122695 0.15468305 1.1159043
-0.64269847 0.16676784 1.1171389
-0.64265615 0.17121652 1.1197143
-0.63413167 0.14769116 1.1262342
-0.62451023 0.14417301 1.1227076
-0.6087836 0.14101306 1.121878
-0.64183015 0.1530796 1.1239942
-0.63649523 0.15095298 1.1277022
-0.65190828 0.16938518 1.127812
-0.64508009 0.16613947 1.1266177
-0.6327309 0.14916626 1.1374826
-0.62608743 0.14596505 1.1366626
-0.64174008 0.15646091 1.134254
-0.63353103 0.15171239 1.1333755
-0.65237188 0.16489854 1.1321799
-0.64426279 0.16697595 1.1323553
-0.6436826 0.173132 1.132241
-0.64222068 0.15719739 1.1433606
-0.63549578 0.15292752 1.1424532
-0.65325731 0.16612512 1.1477104
-0.64984369 0.16585276 1.1458212
-0.63329703 0.14837907 1.1554611
-0.64465541 0.15828596 1.1589197
-0.63702244 0.15091641 1.1508286
-0.60954565 0.15817879 1.1581351
-0.65192884 0.16404358 1.1550409
-0.64739764 0.16055577 1.1525706
-0.63319582 0.14909574 1.161042
-0.62365264 0.14629179 1.1638749
-0.61049736 0.14972894 1.1659728
-0.60721427 0.14970191 1.1657623
-0.64349699 0.15440719 1.1654017
-0.61543262 0.15770626 1.1663074
-0.6082508 0.15519106 1.1641057
-0.65334785 0.16519353 1.1631727
-0.61193419 0.16196448 1.1626832
-0.62358195 0.14777645 1.1756866
-0.64525104 0.15678966 1.1772727
-0.63607138 0.15590206 1.1765939
-0.66181362 0.16733779 1.1782357
-0.65408528 0.16380171 1.1758721
-0.64422524 0.1613383 1.1754096
-0.63497859 0.16314951 1.1777549
-0.62557566 0.16373952 1.1754208
-0.64414376 0.15566567 1.1870444
-0.66376227 0.16864768 1.1874586
-0.65291679 0.16606723 1.1844003
-0.64575732 0.16709554 1.1840777
-0.63657916 0.16787103 1.1819901
-0.66282994 0.16923481 1.1915927
