# .PCD v0.7 - Point Cloud Data file format
VERSION 0.7
FIELDS x y z
SIZE 4 4 4
TYPE F F F
COUNT 1 1 1
WIDTH 180
HEIGHT 1
VIEWPOINT 0 0 0 1 0 0 0
POINTS 180
DATA ascii
-0.024357319 0.10660151 0.74820793
-0.016304914 0.10617965 0.74762106
-0.032024261 0.11724074 0.74894756
-0.024928734 0.11483542 0.74694371
-0.015652765 0.11422251 0.74761468
-0.0089242924 0.1145551 0.74917495
-0.031998865 0.12326004 0.74836558
-0.024693228 0.12383237 0.74822009
-0.016476026 0.12489709 0.74829209
-0.023852183 0.13480799 0.74840522
-0.017086713 0.13418749 0.7494911
-0.024654459 0.1439805 0.74918967
-0.017087625 0.14666347 0.74950278
-0.022189727 0.15338036 0.74957347
-0.042055674 0.10769632 0.75831151
-0.035641573 0.10700835 0.75347501
-0.02870114 0.10528134 0.75088406
-0.011497715 0.10663421 0.75081736
-0.0048778187 0.10724468 0.75511456
-0.04244056 0.11463576 0.75779837
-0.036079008 0.11475853 0.75291985
-0.029411277 0.11084287 0.75164282
-0.012526691 0.11690761 0.75117338
-0.0059695588 0.11485503 0.75471562
-0.041402176 0.12568985 0.75894082
-0.035614163 0.12505363 0.75292736
-0.026777204 0.12805992 0.7514919
-0.012632497 0.12513644 0.75148451
-0.0054148412 0.12490632 0.75549185
-0.040051952 0.13541944 0.75945282
-0.034876231 0.13511047 0.75465721
-0.026575064 0.13536751 0.75152671
-0.014861584 0.13517195 0.75167906
-0.0054560388 0.13458139 0.75602883
-0.040016808 0.14287435 0.75878644
-0.034759969 0.14452054 0.75531656
-0.025548317 0.14607498 0.75164419
-0.014241344 0.14438288 0.75250477
-0.0069543943 0.14460137 0.75703239
-0.034412991 0.15480816 0.75655264
-0.025688808 0.15509477 0.75239617
-0.014923275 0.15489128 0.75315028
-0.007107432 0.15486555 0.7575615
-0.033704512 0.1619101 0.75606191
-0.024583368 0.16380662 0.7549991
-0.015772287 0.16401306 0.75539196
-0.0073548197 0.16208395 0.75591058
-0.045953348 0.10764053 0.76417011
-0.021737464 0.10512243 0.76967317
-0.015361289 0.10446505 0.76486009
-0.0049302336 0.10407839 0.76202911
0.0023467834 0.10679045 0.76659888
-0.046569519 0.11466755 0.76455909
-0.0011946338 0.11562687 0.76159316
0.0023427289 0.11495427 0.76540208
-0.04498747 0.12479944 0.76485395
-0.00077955925 0.12454009 0.76032674
0.00222581 0.12482659 0.7648921
-0.043858077 0.13463193 0.76392448
-0.00078087999 0.13615455 0.76161492
0.0019955812 0.13440245 0.76541656
-0.042606961 0.14513232 0.76474416
-0.038078524 0.14956845 0.76132393
-0.0019333243 0.14522766 0.76272607
0.0016506957 0.1438064 0.76743543
-0.041717824 0.15443194 0.76582688
-0.038082995 0.1558035 0.76141334
-0.0020276126 0.1550204 0.76366478
0.0017222125 0.15384184 0.76817614
-0.040919185 0.16247186 0.76598179
-0.034418873 0.16678633 0.76560235
-0.026488522 0.16745853 0.76164049
-0.014421592 0.16794394 0.76276964
-0.0045377347 0.16510314 0.76608461
-0.051198844 0.10749805 0.77168882
-0.045143019 0.10597035 0.77588129
-0.034560855 0.10588379 0.77524757
-0.025997385 0.10540614 0.77175045
-0.0018568523 0.10403615 0.77720761
0.0044745058 0.10572581 0.77409565
-0.051506009 0.11448415 0.77631855
-0.049013302 0.11779481 0.77034932
0.0059570218 0.11469253 0.77489614
-0.051651679 0.12328485 0.77851409
-0.049172983 0.12589435 0.7728591
0.00552788 0.12471447 0.77422875
-0.048606455 0.13537031 0.77495259
0.0046284897 0.13463758 0.77420688
-0.047117256 0.14462289 0.77364361
0.0044817445 0.14484005 0.77486372
-0.046093754 0.15382826 0.77408457
0.0040339893 0.15590222 0.77519333
-0.044200256 0.16388829 0.77415556
-0.038679816 0.1687689 0.77334589
-0.0043049543 0.16827814 0.77431381
0.0023658071 0.16249916 0.77355766
-0.041109279 0.17117281 0.7795015
-0.053332768 0.10757276 0.78242624
-0.011538686 0.10554659 0.78849143
-0.0071971319 0.10475022 0.78254211
0.0077075362 0.10674585 0.78157294
-0.054407232 0.11509766 0.78773189
0.0077341124 0.1149505 0.78426784
-0.051938735 0.12610237 0.78284073
0.0077408389 0.12429714 0.7849499
-0.052130729 0.13084011 0.78573453
0.0077675357 0.13330591 0.78765714
-0.050093148 0.14717594 0.78732145
-0.049810391 0.14208436 0.78287733
0.006681941 0.14464548 0.78537285
-0.047564574 0.15874638 0.78098834
0.0055816546 0.15571077 0.78176033
-0.047158167 0.16582464 0.78600597
0.00399251 0.16555238 0.78302073
-0.053852383 0.10699777 0.79527247
-0.045135118 0.10634439 0.79445148
-0.035620313 0.10697744 0.79918063
-0.024703404 0.10677897 0.79769802
-0.015920207 0.10611789 0.7927593
0.005675449 0.10471972 0.79525411
0.010035843 0.10893033 0.79755336
-0.057353593 0.11128984 0.79890871
0.010031132 0.11322113 0.79717892
-0.054991633 0.12500054 0.79619318
-0.052605093 0.13635069 0.79288435
0.0078011244 0.13818657 0.79106307
-0.052911721 0.14365779 0.79750597
0.0078232102 0.14613724 0.79330266
-0.050348975 0.15438995 0.79134226
0.0078788772 0.15369865 0.79894751
-0.050631691 0.1617541 0.79578578
-0.04839066 0.16907172 0.79455227
0.0078873225 0.16365868 0.79980385
-0.054255694 0.10653514 0.80683297
-0.049219117 0.10597918 0.80815512
-0.0041260044 0.10571185 0.80611652
0.010117383 0.10543867 0.8040334
-0.057639472 0.11621945 0.80289078
0.010110635 0.1184897 0.80349714
0.010153618 0.12558137 0.80691302
-0.055556677 0.13285193 0.80437416
0.010165966 0.1356312 0.80789435
-0.05341037 0.14938912 0.80502182
-0.05362092 0.15217769 0.80819529
0.0079004196 0.15847838 0.80113196
-0.051110975 0.16656433 0.8033188
0.0079339612 0.1646277 0.80453312
-0.061087534 0.10974272 0.81983882
-0.054484744 0.10503878 0.81453449
-0.044656157 0.10458536 0.81446749
-0.035258122 0.10478498 0.81598991
-0.025324974 0.10503776 0.81796545
-0.015445624 0.10585201 0.81852359
-0.00602578 0.10537859 0.81773651
0.0047018365 0.10464986 0.81493193
0.010275467 0.10486361 0.81659645
-0.058365613 0.12210467 0.81300569
-0.056475695 0.13838516 0.81768006
0.010257259 0.14572841 0.81514943
-0.054397225 0.1566124 0.81989604
-0.055662207 0.10445365 0.82213473
-0.044186708 0.10204738 0.82378757
-0.034507047 0.10141718 0.82471752
-0.026779095 0.10187602 0.82844877
-0.016104041 0.10268098 0.82410043
-0.0053125932 0.10328052 0.82168388
0.0036494411 0.10370436 0.82505596
0.012613088 0.10918894 0.82411528
-0.061443202 0.11262603 0.82461214
0.012678539 0.11426905 0.82839179
-0.057270546 0.14258964 0.82918829
0.010374215 0.15411738 0.82444394
-0.062328815 0.10969595 0.83649772
-0.058760751 0.10600667 0.83435708
-0.047391534 0.10255481 0.83396864
-0.022316098 0.10208659 0.83016109
-0.013307407 0.10232263 0.8320806
-0.0054112673 0.10295095 0.83719009
-0.059744798 0.12725507 0.83221704
-0.062901951 0.11759757 0.84418958
