# .PCD v0.7 - Point Cloud Data file format
VERSION 0.7
FIELDS x y z
SIZE 4 4 4
TYPE F F F
COUNT 1 1 1
WIDTH 324
HEIGHT 1
VIEWPOINT 0 0 0 1 0 0 0
POINTS 324
DATA ascii
-0.10467715 0.22735322 1.0289626
-0.095773697 0.22616403 1.0235806
-0.086263239 0.22472146 1.0265536
-0.076535285 0.22509369 1.0271742
-0.11482257 0.22803649 1.0320549
-0.1044772 0.22708444 1.0362802
-0.095518768 0.22606851 1.0359086
-0.085801408 0.22364472 1.0377445
-0.079919107 0.22300465 1.0347745
-0.071476758 0.23147556 1.0348721
-0.1335682 0.22846656 1.0468972
-0.12485157 0.22815293 1.04546
-0.1145037 0.22738241 1.0419292
-0.10481277 0.22650498 1.0444462
-0.09500619 0.22538196 1.0458056
-0.082451433 0.22323404 1.049088
-0.07775566 0.22489309 1.0435371
-0.063631989 0.24507262 1.0448078
-0.15158758 0.22986573 1.0533085
-0.14374283 0.22921377 1.0536249
-0.13568828 0.22831917 1.0567808
-0.12472074 0.2276644 1.0563964
-0.11509025 0.22639175 1.0538378
-0.1069755 0.22662364 1.0515671
-0.093147174 0.22491795 1.0570016
-0.085795589 0.22308455 1.0551609
-0.075463973 0.22940075 1.0511779
-0.18513587 0.2305907 1.0566306
-0.17509767 0.23061687 1.0567504
-0.16506873 0.2306802 1.0570406
-0.15755357 0.23020542 1.054865
-0.066826425 0.2435071 1.0503209
-0.21342918 0.21867959 1.0686923
-0.20542385 0.22950049 1.0649161
-0.1955547 0.22981656 1.0663828
-0.18831608 0.22983922 1.0664879
-0.17335865 0.22925106 1.0637587
-0.16487889 0.22953796 1.0650901
-0.15455528 0.22927278 1.0638595
-0.14490086 0.22832155 1.0639493
-0.13493139 0.22746918 1.0689911
-0.12458181 0.22715798 1.0675286
-0.11370323 0.22575188 1.0609206
-0.10390082 0.22570546 1.0641211
-0.095339626 0.22455263 1.0655224
-0.084972784 0.2232621 1.062814
-0.079215072 0.22622062 1.0631235
-0.1828973 0.23032624 1.0687478
-0.17838466 0.23013318 1.0678519
-0.075301379 0.23332416 1.0691656
-0.070717476 0.24131259 1.0658813
-0.21163416 0.22714391 1.0743458
-0.20798111 0.22941795 1.0781493
-0.19487265 0.22952929 1.0786726
-0.18468587 0.22963877 1.079187
-0.17414355 0.22929697 1.0775807
-0.16523781 0.22914472 1.0768652
-0.15618625 0.22876608 1.0750859
-0.14573497 0.22771658 1.0736051
-0.13515317 0.22655921 1.0785093
-0.12416016 0.22613439 1.0764871
-0.11486634 0.22514401 1.0717726
-0.10620509 0.22533683 1.0726905
-0.094946407 0.22339821 1.0774215
-0.087242164 0.2224569 1.0728817
-0.2157083 0.21807504 1.0801045
-0.21217102 0.22635216 1.0845565
-0.20432475 0.22886635 1.0859916
-0.19476858 0.22818995 1.0862725
-0.18453169 0.22877744 1.0834688
-0.17535047 0.2279346 1.085057
-0.16493924 0.22782403 1.0845306
-0.15444051 0.22757906 1.0833645
-0.14679955 0.22716409 1.081389
-0.13240217 0.2262422 1.0840485
-0.12533814 0.22532496 1.0867139
-0.11465988 0.22467701 1.0835891
-0.10372456 0.22345321 1.0833931
-0.095379055 0.22147124 1.0823352
-0.085109405 0.22380835 1.0829438
-0.20418982 0.23010498 1.081378
-0.22155173 0.20011967 1.0944484
-0.21792413 0.21734524 1.0911996
-0.093808413 0.21879503 1.0984784
-0.21267697 0.22601382 1.0948062
-0.20437607 0.22770236 1.0981799
-0.19512139 0.22736832 1.0965689
-0.18455954 0.22722903 1.095897
-0.174364 0.22754532 1.0974225
-0.16503468 0.22703674 1.0949696
-0.15615498 0.22712378 1.0953895
-0.14560467 0.22594576 1.0945194
-0.13500713 0.22567511 1.0932064
-0.12493394 0.22429484 1.0961342
-0.11424333 0.22380382 1.0937346
-0.105367 0.22194499 1.0943739
-0.094819292 0.22065093 1.0928626
-0.086335927 0.22328927 1.0985192
-0.077391893 0.23682229 1.0988796
-0.2211318 0.21602184 1.1072612
-0.10168335 0.21965654 1.1028037
-0.094040528 0.21933821 1.1012056
-0.21522167 0.22364055 1.1039824
-0.20515323 0.22556832 1.1023577
-0.19487874 0.22583202 1.1036465
-0.18436849 0.22583954 1.1036832
-0.17543551 0.22593623 1.1041558
-0.16475226 0.2257154 1.1030765
-0.15423654 0.22569612 1.1029823
-0.14368507 0.22440194 1.1064975
-0.13604996 0.22423851 1.1056854
-0.12447964 0.22317064 1.1053424
-0.11531141 0.22289275 1.1039661
-0.10836612 0.22102413 1.1046591
-0.088723794 0.22102429 1.1096706
-0.073390506 0.2474232 1.1061702
-0.22186598 0.20918199 1.1109375
-0.22191112 0.21224883 1.1111635
-0.11231545 0.21984257 1.1190288
-0.10366607 0.21850125 1.1160737
-0.095736995 0.21763237 1.1139692
-0.21418528 0.22390929 1.1150304
-0.20452616 0.22366095 1.1153126
-0.19522771 0.2249596 1.114203
-0.18470302 0.22507456 1.1147723
-0.17404261 0.22425498 1.1144869
-0.16577649 0.22435582 1.1149852
-0.15450023 0.22375318 1.1157722
-0.14534616 0.22293216 1.1154563
-0.1347823 0.22227129 1.1159313
-0.12541762 0.22181663 1.1136485
-0.1161015 0.22139542 1.1115339
-0.086202934 0.22534989 1.1161361
-0.082799144 0.23040706 1.1112243
-0.22485904 0.20893949 1.1259245
-0.22245109 0.21877849 1.1292571
-0.12407111 0.21872656 1.128989
-0.11452251 0.21809685 1.1257387
-0.10517493 0.21676537 1.1241474
-0.096206322 0.21671572 1.126529
-0.22115885 0.22056325 1.1226971
-0.21536569 0.22240552 1.12431
-0.20555267 0.22185808 1.129288
-0.19503388 0.22344361 1.121817
-0.18419904 0.22326601 1.1209253
-0.17546305 0.22277096 1.1235845
-0.16640708 0.22241414 1.1243558
-0.15546638 0.22232866 1.1265057
-0.14528322 0.22134463 1.1266745
-0.13586269 0.22099209 1.1248801
-0.12489241 0.22053424 1.1225494
-0.11707883 0.22021064 1.1209023
-0.090121858 0.22143929 1.1271563
-0.080787785 0.23639591 1.1253361
-0.23064429 0.20523161 1.139365
-0.22235624 0.21865186 1.1366076
-0.17090605 0.21968439 1.1339331
-0.1679942 0.21991269 1.1351115
-0.15402606 0.21981904 1.1346281
-0.14613658 0.2195619 1.1333008
-0.13435343 0.21885268 1.132841
-0.12513426 0.21750352 1.1386728
-0.1155362 0.21693592 1.1357014
-0.10555397 0.2144876 1.1336651
-0.095423341 0.21690746 1.1355523
-0.21430308 0.22142011 1.1349432
-0.20461245 0.22102135 1.1368582
-0.19399054 0.22181831 1.1353949
-0.18493444 0.22139627 1.1348258
-0.1761867 0.22107425 1.1331648
-0.16317922 0.22120795 1.1338573
-0.15851516 0.22115919 1.1336048
-0.087349333 0.22526859 1.1309794
-0.084216952 0.23127621 1.1302524
-0.075279094 0.24456257 1.1348064
-0.075078383 0.25003368 1.1316105
-0.24330841 0.19924249 1.1405839
-0.23576777 0.20387951 1.1492232
-0.22782713 0.20859255 1.1407864
-0.22393438 0.21709567 1.1446939
-0.21520989 0.2192865 1.1480072
-0.20420317 0.2192152 1.1476338
-0.19504641 0.21945032 1.1488647
-0.18556432 0.21933055 1.1482377
-0.17557333 0.21856523 1.1442311
-0.16486974 0.21882673 1.1456001
-0.15404443 0.21738708 1.1462544
-0.14386947 0.21741064 1.1447366
-0.1357059 0.21668826 1.1442088
-0.12581015 0.21556246 1.1448233
-0.11454177 0.21422262 1.1443424
-0.10400695 0.21247171 1.1449587
-0.097523242 0.2150268 1.1419784
-0.1983496 0.22103296 1.1408939
-0.091199726 0.22098322 1.1406372
-0.085525677 0.23174618 1.1478163
-0.076097392 0.25030556 1.1469694
-0.24646433 0.19711354 1.1553782
-0.24397504 0.20237041 1.1584899
-0.23136152 0.20867549 1.158484
-0.22520426 0.21515031 1.155188
-0.21485811 0.21738696 1.1545131
-0.20556009 0.21752447 1.1552433
-0.19590066 0.21727154 1.1539
-0.18646644 0.21725589 1.1538169
-0.1751343 0.21683769 1.1515958
-0.16420357 0.21688692 1.1518574
-0.15419182 0.21509311 1.1590848
-0.1459935 0.21569107 1.1566789
-0.13500342 0.21467564 1.1568351
-0.12388902 0.21293792 1.1559641
-0.11505845 0.21182522 1.1541815
-0.10479276 0.21093914 1.1536198
-0.096915826 0.21557377 1.1532258
-0.092499167 0.22098315 1.1568893
-0.08885663 0.22602448 1.1504955
-0.082678087 0.23879267 1.151667
-0.077793233 0.24509141 1.156758
-0.073307693 0.25301027 1.1521879
-0.24241519 0.20370924 1.1661543
-0.23490733 0.20586662 1.1604241
-0.11204353 0.20960802 1.163661
-0.10732357 0.20967074 1.1640092
-0.22527227 0.2151392 1.165041
-0.21499597 0.21596141 1.1637639
-0.20405853 0.21611916 1.164614
-0.19391897 0.21485399 1.1646485
-0.18512246 0.2146254 1.1651323
-0.1754204 0.21439669 1.1638877
-0.16521536 0.21443653 1.1653361
-0.15484464 0.21363342 1.1640346
-0.14539312 0.21370995 1.1644566
-0.13416824 0.21269846 1.1632414
-0.12374651 0.21066076 1.1695054
-0.11723197 0.21039036 1.1680043
-0.102906 0.21035194 1.167791
-0.096331775 0.21623322 1.1652079
-0.089993343 0.22574456 1.1652135
-0.08516638 0.23508886 1.1643243
-0.080356397 0.24439934 1.1634355
-0.077399984 0.24665503 1.1666026
-0.24405979 0.20348799 1.1740458
-0.23484129 0.2075451 1.1759095
-0.1456732 0.209254 1.179518
-0.13588837 0.2090137 1.1781636
-0.12599312 0.20856267 1.1756212
-0.11449929 0.20732711 1.1758941
-0.10658401 0.20816207 1.173363
-0.23054151 0.21080884 1.1703275
-0.22497779 0.21315755 1.17452
-0.21482107 0.21420044 1.1714557
-0.20509939 0.21315794 1.1757816
-0.19493285 0.21272619 1.1765504
-0.18406081 0.21230489 1.1786331
-0.17401521 0.21179417 1.1757977
-0.16459927 0.21203104 1.1771126
-0.15480821 0.21178412 1.175742
-0.14502461 0.21151763 1.1742624
-0.13527972 0.21126947 1.1728847
-0.12859859 0.21078698 1.1702062
-0.10027873 0.2115144 1.1742445
-0.097009033 0.21454729 1.1733527
-0.091083102 0.22526839 1.1793234
-0.081377745 0.22666 1.178223
-0.082944706 0.23376462 1.1776712
-0.081045389 0.24170327 1.1734109
-0.24754332 0.19700196 1.1830931
-0.24299914 0.20368932 1.1844954
-0.23539528 0.20731357 1.1867876
-0.20555842 0.20922923 1.1854637
-0.18309784 0.20983332 1.1827836
-0.17482871 0.20957029 1.1813009
-0.16506048 0.20893805 1.1850369
-0.15532261 0.20885463 1.1845655
-0.14511372 0.20753857 1.1880757
-0.13368259 0.20574358 1.1870617
-0.12400517 0.20576894 1.1872067
-0.11494629 0.20465742 1.1854453
-0.10528045 0.2070989 1.1855757
-0.085379854 0.20127881 1.1893014
-0.23004827 0.21008195 1.184185
-0.22377948 0.21105242 1.1851267
-0.21536601 0.21151701 1.1832168
-0.20101213 0.21005167 1.1840143
-0.1946905 0.21018492 1.1847653
-0.18816189 0.21009628 1.1842659
-0.095772855 0.21656463 1.1843995
-0.085366294 0.21419367 1.1891124
-0.091698155 0.22355808 1.187287
-0.086153209 0.23495308 1.1850532
-0.24657914 0.19557326 1.1940082
-0.13509297 0.19975576 1.1995938
-0.12362263 0.19968544 1.1991715
-0.11864906 0.19955522 1.1983895
-0.24556637 0.20258349 1.1970104
-0.23443955 0.2061808 1.1942599
-0.22599308 0.20743939 1.1968458
-0.21601105 0.20723683 1.1956789
-0.2059897 0.20665179 1.194185
-0.19630134 0.20704576 1.1945734
-0.18540062 0.20657104 1.1931728
-0.17504643 0.20690416 1.1937668
-0.16424316 0.20647478 1.1931555
-0.15397996 0.20534649 1.1941323
-0.14343366 0.20456001 1.1943059
-0.13469492 0.20242195 1.1960559
-0.12496572 0.20247889 1.1963924
-0.11507549 0.20227122 1.1951654
-0.10537045 0.20562057 1.1957369
-0.085515812 0.2064639 1.1911952
-0.097214453 0.2137306 1.1955602
-0.092417791 0.22205572 1.1966046
-0.23511915 0.20260824 1.2054859
-0.22382732 0.20283006 1.2062439
-0.21465683 0.20252363 1.2063742
-0.20468919 0.20240377 1.2056611
-0.19464336 0.20219702 1.2044241
-0.18477432 0.20215991 1.2042066
-0.17505547 0.20228992 1.2049782
-0.1650444 0.20208052 1.2037309
-0.15514573 0.20198724 1.2031692
-0.14585322 0.20149152 1.2021667
-0.22473907 0.19926082 1.2165051
-0.22855413 0.20155686 1.21041
