# .PCD v0.7 - Point Cloud Data file format
VERSION 0.7
FIELDS x y z
SIZE 4 4 4
TYPE F F F
COUNT 1 1 1
WIDTH 233
HEIGHT 1
VIEWPOINT 0 0 0 1 0 0 0
POINTS 233
DATA ascii
-0.48721388 0.46372762 0.99242187
-0.49265823 0.47499102 0.99432409
-0.48950073 0.47540292 0.99708003
-0.48565799 0.48512879 0.99754816
-0.4823271 0.50613576 0.99348342
-0.48249748 0.51188934 0.99943739
-0.47931027 0.51391238 0.99283546
-0.47795051 0.52053809 0.99001884
-0.49253348 0.53251666 0.99225545
-0.4787811 0.45078921 1.0088013
-0.47039381 0.47534838 1.0084791
-0.49103457 0.48778167 1.0002043
-0.47450796 0.48492193 1.0055643
-0.46593967 0.48598403 1.0077667
-0.50428587 0.49281245 1.0049117
-0.49982136 0.49380597 1.0069376
-0.49379754 0.5083158 1.0058323
-0.46486589 0.50001031 1.008396
-0.49548924 0.51418257 1.0092782
-0.48482609 0.5144552 1.0071175
-0.47066641 0.52505881 1.0090636
-0.46743914 0.52726275 1.0080266
-0.4571822 0.52650905 1.0065856
-0.50018102 0.53510833 1.0021671
-0.47059003 0.53870326 1.0088998
-0.49800056 0.55237877 1.0088009
-0.48526481 0.45152166 1.0166326
-0.48311377 0.46604851 1.0121261
-0.4908902 0.47659388 1.0111215
-0.46730199 0.47228214 1.0136805
-0.47492337 0.48452246 1.0162148
-0.5067246 0.49513277 1.0152779
-0.4844197 0.49489874 1.0123961
-0.47368175 0.49525976 1.0155263
-0.4621768 0.49293822 1.0145524
-0.45705405 0.49797106 1.0154308
-0.50142205 0.50917679 1.0157318
-0.49711624 0.50209105 1.0125923
-0.48624611 0.50507647 1.0172355
-0.45220014 0.50322151 1.014876
-0.49428836 0.51584911 1.0152824
-0.49387291 0.53209513 1.0172652
-0.46762136 0.53748655 1.0143799
-0.48891613 0.5517754 1.0127329
-0.47396612 0.47062239 1.0281364
-0.51228487 0.48380417 1.0264186
-0.50949126 0.48380417 1.0264186
-0.47516721 0.48577929 1.0246921
-0.50412446 0.49802384 1.021206
-0.49300331 0.49802038 1.021199
-0.48356909 0.49840626 1.0277259
-0.47378111 0.49836326 1.0257206
-0.46122396 0.49414751 1.024695
-0.44505352 0.49931654 1.0238568
-0.50210661 0.50995851 1.0284591
-0.49578273 0.50079983 1.021199
-0.47427368 0.50260276 1.0267769
-0.45200235 0.50467378 1.0290985
-0.44674954 0.50470471 1.0234814
-0.49260473 0.5170579 1.0203733
-0.46176797 0.51706809 1.0259037
-0.4514052 0.52314299 1.0214096
-0.44694015 0.52721459 1.023918
-0.49334037 0.53644937 1.0238261
-0.47054753 0.53390259 1.0207207
-0.43414328 0.53698158 1.0266072
-0.5019328 0.54895687 1.0281031
-0.4959192 0.54555917 1.0243409
-0.46501005 0.54503703 1.0207618
-0.44202057 0.55693793 1.0222082
-0.43046239 0.55539638 1.0244967
-0.43790758 0.57693553 1.0256181
-0.45867431 0.5809074 1.0252299
-0.51292259 0.46995226 1.0390284
-0.50463742 0.46165019 1.0394377
-0.4968738 0.46815282 1.0350771
-0.48193526 0.46451125 1.0332229
-0.47963876 0.46219903 1.0343349
-0.47858045 0.47522399 1.0320526
-0.4303025 0.48623085 1.0375581
-0.50042152 0.49987161 1.0365649
-0.49183655 0.49970329 1.0304004
-0.47182614 0.49664721 1.0357242
-0.46380255 0.49971467 1.0304239
-0.45252451 0.49994233 1.0367116
-0.4434706 0.49646074 1.0353365
-0.43669105 0.49271441 1.0393208
-0.51760024 0.50858229 1.0370685
-0.49255189 0.5061245 1.0378166
-0.4868499 0.50315088 1.0317191
-0.47633407 0.50470024 1.0363433
-0.46307844 0.50196981 1.035074
-0.44479355 0.50441933 1.0362341
-0.42281061 0.50434339 1.0399684
-0.50369811 0.51444286 1.0375029
-0.48984727 0.51613724 1.038071
-0.45278877 0.51116341 1.030889
-0.44606817 0.51311523 1.0348253
-0.48164183 0.54874068 1.035625
-0.47510237 0.54748571 1.0306011
-0.46970364 0.54773211 1.031065
-0.43489379 0.54632843 1.037286
-0.42516103 0.54257601 1.0319331
-0.48342124 0.55339277 1.0364099
-0.47429055 0.55824673 1.0349505
-0.46668169 0.55078959 1.0368204
-0.45819145 0.5586071 1.0304192
-0.41411969 0.55454445 1.0359287
-0.49510962 0.56071568 1.0343087
-0.46741402 0.58345532 1.0322059
-0.44344816 0.58096868 1.035284
-0.41936597 0.58557034 1.0384476
-0.41341251 0.60145879 1.034184
-0.49222395 0.44883466 1.0491589
-0.49107322 0.45633188 1.0467062
-0.47988448 0.45367837 1.047157
-0.5177139 0.46863347 1.0487342
-0.48979324 0.46934953 1.043978
-0.50206387 0.47455466 1.0429136
-0.48588553 0.47399214 1.0416919
-0.48146415 0.48375267 1.0444013
-0.50061727 0.49437782 1.0458231
-0.49376729 0.49178278 1.0463705
-0.47202349 0.49984124 1.0423851
-0.45668951 0.49030572 1.0462533
-0.4447521 0.49397495 1.0449681
-0.43124101 0.49335918 1.0466901
-0.42405662 0.49448031 1.0430492
-0.50304741 0.50819576 1.047912
-0.46915174 0.50569904 1.0486491
-0.44370908 0.50760961 1.0447592
-0.43627393 0.50660181 1.0417027
-0.42831069 0.50465828 1.0464909
-0.4585706 0.51484907 1.0440528
-0.4376016 0.51074958 1.0414879
-0.48592016 0.52244067 1.0478806
-0.46868518 0.52800643 1.0476062
-0.42016628 0.5229733 1.0404294
-0.50464231 0.53822809 1.0453078
-0.44532561 0.53020376 1.0463157
-0.43947393 0.53855574 1.0459441
-0.50206965 0.5456419 1.0458934
-0.4727571 0.543244 1.0440121
-0.46318942 0.54485476 1.0416591
-0.50128305 0.55188721 1.0442367
-0.47680381 0.55837315 1.0404347
-0.4362919 0.5552097 1.045141
-0.41452572 0.55840117 1.0404869
-0.50884444 0.56534117 1.0481031
-0.46664366 0.56545067 1.043043
-0.43382555 0.56380451 1.0426378
-0.48164091 0.57776928 1.0447847
-0.43501756 0.57344192 1.0420883
-0.43448365 0.58973479 1.0408093
-0.4201335 0.58947355 1.0403482
-0.43791938 0.59154302 1.0490396
-0.42866209 0.59235203 1.0404307
-0.48422962 0.44628277 1.0566386
-0.50752246 0.46976826 1.0512737
-0.48720619 0.46663174 1.0506539
-0.47458002 0.46828127 1.054368
-0.51857555 0.47799075 1.0504797
-0.50749987 0.47816542 1.0571871
-0.48399237 0.47193426 1.0561209
-0.51623732 0.48133552 1.0515406
-0.4948844 0.48285109 1.0548747
-0.48234722 0.49619454 1.0588194
-0.46117806 0.49800026 1.0565364
-0.45530555 0.49691451 1.0562633
-0.43036401 0.49849194 1.0515078
-0.50761509 0.50991911 1.0514656
-0.49668443 0.50474358 1.0555983
-0.48776805 0.50152445 1.0518656
-0.47954601 0.50492483 1.0589974
-0.45859948 0.50951338 1.050629
-0.4471845 0.50514674 1.0574501
-0.51047689 0.5127809 1.0514656
-0.47721398 0.51394248 1.0538474
-0.46688563 0.51808101 1.0564377
-0.44454247 0.51390094 1.0557264
-0.43317172 0.51273727 1.0513762
-0.50652951 0.52607274 1.0551656
-0.46883669 0.52280104 1.0543592
-0.47495636 0.545479 1.055202
-0.47334012 0.55052817 1.0580109
-0.45223072 0.55799216 1.055788
-0.4439241 0.553716 1.0531315
-0.47850931 0.56371838 1.0503947
-0.49942973 0.57047361 1.0523084
-0.44991255 0.57594448 1.0570929
-0.48986512 0.45748758 1.0626248
-0.5213275 0.47452068 1.061909
-0.51782483 0.47107333 1.0606545
-0.49378395 0.4787308 1.0648559
-0.4869439 0.47770423 1.0625614
-0.47876403 0.47530475 1.0636636
-0.50699353 0.48323542 1.065186
-0.49423492 0.48354453 1.0626998
-0.45805997 0.48931062 1.0626448
-0.52582115 0.4904674 1.0651571
-0.49218455 0.49161816 1.0676562
-0.48513001 0.49759793 1.0649135
-0.46476254 0.49662468 1.0669749
-0.45722041 0.49586469 1.0674371
-0.50969219 0.50331318 1.067808
-0.47537422 0.5096187 1.0658064
-0.46545374 0.50517958 1.0656096
-0.47430858 0.51429862 1.064485
-0.46738809 0.51337802 1.0690979
-0.51247978 0.52636272 1.0615423
-0.49413183 0.45834365 1.0782462
-0.47686884 0.45867556 1.0790271
-0.51424074 0.46556532 1.0712291
-0.48369467 0.46552551 1.0778935
-0.51141411 0.47876871 1.0714154
-0.49093905 0.47863477 1.0776796
-0.50612772 0.48220482 1.0725721
-0.5062083 0.49685311 1.0758519
-0.48509151 0.49038625 1.0777212
-0.47614297 0.504861 1.0762862
-0.50648117 0.51178491 1.0795478
-0.48192951 0.51067662 1.0772099
-0.47596526 0.51432002 1.0725825
-0.47902122 0.52216572 1.0707093
-0.5037629 0.45883521 1.0863583
-0.49256849 0.46690196 1.084492
-0.51505941 0.48485726 1.0883583
-0.51764756 0.50821733 1.0844746
-0.50600606 0.52019352 1.0848284
-0.51260078 0.46565491 1.098967
-0.52383739 0.48442513 1.0974423
-0.51900935 0.49747109 1.0998704
-0.53156698 0.4887861 1.1073219
