# .PCD v0.7 - Point Cloud Data file format
VERSION 0.7
FIELDS x y z rgba
SIZE 4 4 4 4
TYPE F F F U
COUNT 1 1 1 1
WIDTH 133
HEIGHT 1
VIEWPOINT 0 0 0 1 0 0 0
POINTS 133
DATA ascii
0.078746691 0.086959407 0.84789342 11121060
0.085655056 0.087567337 0.84467536 11581356
0.095191114 0.087783776 0.84317476 11976118
0.10507628 0.087230884 0.84309781 12962501
0.11457598 0.087003082 0.84831756 14080729
0.077937245 0.095023856 0.84778714 11055267
0.085171759 0.095522054 0.84499413 10265754
0.09433075 0.095610298 0.84280246 10989222
0.10505977 0.095507875 0.8442871 12239035
0.11467766 0.094580591 0.84793031 13423313
0.078573801 0.10458822 0.84782284 7634033
0.085520588 0.10523658 0.84640574 10397341
0.094440363 0.10490841 0.84377855 11713202
0.10491653 0.10505184 0.84491092 12831172
0.11322611 0.10574179 0.84859198 13883352
0.079195395 0.1151297 0.84858608 10133913
0.084937729 0.1144015 0.84700727 10528927
0.09459506 0.11428526 0.84518611 11515567
0.10487352 0.11464519 0.84649479 12896196
0.11290666 0.11477485 0.84879827 13883353
0.087133303 0.12496974 0.8488676 9344397
0.094802648 0.12490928 0.84702885 10461339
0.10461545 0.12529832 0.84755039 11970219
0.11126999 0.12527874 0.84952974 13485001
0.086267531 0.13545865 0.84811962 10846596
0.094754189 0.13521302 0.84658408 11373967
0.10413025 0.13480045 0.84668761 12295074
0.11126302 0.13452081 0.84948409 13148334
0.085561745 0.14194946 0.84848541 6758957
0.094819129 0.14353378 0.84808689 4792868
0.10300615 0.14180639 0.84811735 8268091
0.088348165 0.15620531 0.84923136 2895656
0.095210828 0.15478154 0.84808344 3355951
0.1033357 0.15378866 0.84910619 4277568
0.097370237 0.16222805 0.84929508 5790550
0.069228344 0.08689224 0.8586334 10132623
0.074466594 0.086816274 0.85504556 10265238
0.10762057 0.084424198 0.85730231 11251882
0.1162702 0.08537513 0.85520667 12699331
0.12309763 0.086698264 0.85675383 14475233
0.069252551 0.095105544 0.85893357 10001807
0.072952285 0.095133424 0.8525365 10462616
0.11913168 0.096076578 0.85200709 12633542
0.12296198 0.094002724 0.85526484 15330543
0.069212861 0.1008914 0.85844135 9476235
0.074052051 0.10593884 0.85421443 9278859
0.11762308 0.10538465 0.85226524 14344160
0.12285987 0.10432333 0.85780609 14474720
0.075300604 0.11517759 0.85468668 9476238
0.1169453 0.11453342 0.85212755 14343648
0.1210992 0.11492785 0.85856122 14803173
0.07556089 0.12520227 0.85507894 9870741
0.082552746 0.12394158 0.85145468 8883846
0.11505853 0.1244798 0.85330617 12891582
0.12047575 0.12644729 0.85745454 15131623
0.076376207 0.13474838 0.8558495 9205109
0.082734495 0.13403989 0.851345 10193544
0.10803834 0.13945693 0.85139698 9314622
0.11483336 0.13543689 0.85416281 12688040
0.076089099 0.1427049 0.8569864 5446178
0.08496365 0.14711513 0.85436529 1710867
0.095610373 0.14793539 0.85217065 1973783
0.10492691 0.14635113 0.85349035 3220257
0.11433797 0.144004 0.85661101 6762557
0.077341489 0.15453543 0.85791153 2106140
0.084184617 0.15467958 0.8536979 2698534
0.094042286 0.15668163 0.85055614 4145468
0.10588811 0.15631205 0.85273886 4409411
0.11322546 0.15489392 0.85731471 4804427
0.082809232 0.16083227 0.85415858 1316624
0.093992434 0.16238363 0.85010958 5462097
0.1056503 0.16020387 0.85082126 1908507
0.11097671 0.16121456 0.85618883 2961196
0.067312889 0.087103978 0.86407954 9672073
0.073050886 0.084925719 0.86239505 9277573
0.08108709 0.08473707 0.86047941 9212552
0.12605475 0.085054211 0.86369991 13685203
0.066545978 0.09484151 0.86721635 9606794
0.12573211 0.096562646 0.86148924 15658994
0.057959083 0.10635034 0.86483359 2434079
0.067655839 0.10534321 0.86517012 9147017
0.12591571 0.10139747 0.86274725 15198185
0.068757221 0.11415385 0.86533785 9146762
0.071768306 0.11643284 0.86106896 9410190
0.1236936 0.1156067 0.8636272 15000808
0.068901718 0.12499275 0.865574 9081225
0.071786068 0.12466595 0.86128205 9410190
0.12326582 0.12363616 0.86391258 13285826
0.069199927 0.13273467 0.86806107 9015175
0.072019584 0.13644974 0.86412209 8613485
0.12160529 0.13417143 0.86213791 14600915
0.07329651 0.14527443 0.86536926 3217945
0.11926465 0.14767453 0.86560249 3816762
0.12140521 0.14271036 0.8640697 10307936
0.076418668 0.15505496 0.86515325 1579797
0.10913637 0.15023752 0.86004996 1777690
0.11673591 0.15256163 0.86182767 5330516
0.076656282 0.16020955 0.86333054 1514003
0.11616231 0.16099016 0.86438066 3290677
0.056487828 0.079344042 0.87856036 1973782
0.055947907 0.088059001 0.8701629 2303004
0.063372985 0.085528925 0.87459582 8553595
0.071890429 0.08396396 0.87686372 8817026
0.053919367 0.092192337 0.8756814 2368540
0.062698573 0.094773151 0.87630165 7303528
0.05694494 0.1023998 0.87629807 1776405
0.063431382 0.10479485 0.87545013 6843493
0.057514764 0.11487505 0.87605429 2302493
0.064935207 0.11517874 0.87429261 9014919
0.058943454 0.12012562 0.87952179 2368797
0.06470897 0.12504289 0.87485778 7962487
0.064731881 0.13481468 0.87565565 6580064
0.070177808 0.13783312 0.87040949 9275008
0.065551504 0.14356394 0.87648422 4338482
0.072728023 0.14887467 0.87266201 1776406
0.067521796 0.15159819 0.87694037 4803149
0.072131827 0.15284429 0.87497532 1842201
0.074093416 0.1611325 0.87474817 1579797
0.057670753 0.085489251 0.88447315 395013
0.065494195 0.082533181 0.88713735 10790306
0.058471881 0.095522866 0.8844558 723977
0.059396323 0.10175095 0.88627928 0
0.061514728 0.1012673 0.88206649 1579283
0.058008559 0.11585129 0.88347417 2302492
0.061457738 0.11436504 0.88124931 1316112
0.059267886 0.12439317 0.88436282 2434588
0.062554225 0.12400196 0.88322252 3750708
0.063787788 0.13940004 0.88030452 8422266
0.066989377 0.14764616 0.88305193 5197644
0.068717569 0.15648565 0.88207465 11448243
0.072723806 0.15730211 0.88215446 1579286
0.071047455 0.16112643 0.88119566 1579543
0.062168282 0.080507033 0.89143789 16646138
