# .PCD v0.7 - Point Cloud Data file format
VERSION 0.7
FIELDS x y z rgba
SIZE 4 4 4 4
TYPE F F F U
COUNT 1 1 1 1
WIDTH 140
HEIGHT 1
VIEWPOINT 0 0 0 1 0 0 0
POINTS 140
DATA ascii
0.094752565 0.089198612 0.83643258 10791583
0.10552811 0.088608406 0.83518219 10988965
0.1150031 0.087874956 0.83469594 11251881
0.12556256 0.088107154 0.83689088 13159625
0.13272579 0.089471549 0.83899188 14409953
0.09585695 0.094854742 0.8373754 10726303
0.10481143 0.094718449 0.83492613 11186856
0.11488719 0.094730131 0.83555675 12172984
0.12512337 0.094938479 0.8375206 13488333
0.1314321 0.092790097 0.83803183 14409438
0.096525535 0.10431673 0.8376919 10463132
0.10518434 0.10490035 0.83646542 11055269
0.11522827 0.10511887 0.83630645 11910325
0.1231401 0.10474245 0.83786184 12698817
0.097827561 0.11418094 0.83934659 10528926
0.10493682 0.11519566 0.83753479 11055013
0.11456956 0.11484833 0.83669573 11449517
0.12319057 0.11381241 0.83886099 12896966
0.098858707 0.12449127 0.83904284 10594464
0.10564339 0.12365508 0.83851314 11055015
0.11402252 0.12404601 0.83859032 11910325
0.12208594 0.12427622 0.83963585 13094346
0.09890525 0.13673651 0.83944261 8210510
0.10505861 0.13459784 0.83915532 9865863
0.11441022 0.13508931 0.83866537 10455178
0.12019935 0.1351797 0.83923048 11440023
0.10653371 0.16264962 0.83953971 1580310
0.085917637 0.088847749 0.84550536 10133139
0.095387079 0.087503351 0.84202594 9541517
0.10440632 0.087377116 0.84081119 9541263
0.12619072 0.085898057 0.84880924 12106934
0.13383588 0.086764067 0.84601903 13751763
0.085845195 0.095346399 0.84480804 10068114
0.091287568 0.096000023 0.84117234 10462874
0.1272928 0.096530743 0.84080976 13685969
0.1353066 0.095654748 0.84407282 14212060
0.087048128 0.10467669 0.84562314 9673616
0.091504179 0.10423282 0.84141338 10199960
0.12777072 0.10417639 0.84182078 12172473
0.13321374 0.10570163 0.84644175 13488080
0.08794874 0.11461855 0.84762818 9607568
0.094925068 0.11491158 0.84221721 10265498
0.11691976 0.11934042 0.84028316 12173242
0.12573265 0.11597441 0.84150648 12501954
0.13274787 0.11421814 0.84640294 14344159
0.088639773 0.1263772 0.84760398 9476239
0.094634913 0.12525022 0.8432954 10134169
0.10505227 0.12659794 0.84073853 10923429
0.11585499 0.12742998 0.84084833 12107449
0.1248467 0.12570527 0.84253979 11909561
0.13144858 0.12523785 0.84731871 12435907
0.089191854 0.13551423 0.8484633 8812918
0.095091283 0.13504767 0.8439461 9802636
0.10532726 0.13566183 0.84113371 10590869
0.114712 0.13544498 0.84087658 12501179
0.12471975 0.13485213 0.84328896 14078932
0.1312433 0.13484572 0.84860575 14405847
0.089287303 0.14143687 0.84937125 7150124
0.09557873 0.14327793 0.84545815 5380641
0.10560472 0.14595987 0.84430557 4070430
0.11502662 0.14499803 0.84316301 5250853
0.12453876 0.14292856 0.84328705 7744316
0.13078901 0.14362966 0.84865904 7549507
0.096173242 0.15406969 0.84892422 1513746
0.10509001 0.15491351 0.84552813 1842455
0.11531617 0.15504085 0.84660292 2171677
0.12348361 0.1564329 0.84751374 4212033
0.098253541 0.16408548 0.84695113 1514003
0.10502335 0.16227555 0.8435294 1711382
0.11556254 0.16295591 0.84707689 1908762
0.12578994 0.1625655 0.84804541 4080190
0.07868851 0.087016463 0.85986096 9277575
0.083412416 0.087037094 0.85547316 8948610
0.092344061 0.086654328 0.85628247 8751747
0.12181292 0.086068787 0.85049641 11777711
0.13795269 0.086028934 0.8501026 13357006
0.1407201 0.087467387 0.85285223 14409439
0.078498632 0.091475792 0.85778612 9540745
0.081423193 0.095666997 0.85351264 9607306
0.14059803 0.094352528 0.85211229 14672098
0.082341574 0.10572529 0.85411614 7699571
0.13810124 0.10580926 0.85101801 15198442
0.14120965 0.10408275 0.85581917 15593200
0.083674029 0.11496874 0.85505515 8883332
0.13787995 0.11597434 0.85250777 15066856
0.085802525 0.123593 0.85386628 9146247
0.13588317 0.12422758 0.85368544 11514292
0.086390242 0.13468201 0.85377246 9011581
0.13518944 0.13548967 0.85351837 14667993
0.08755707 0.14404908 0.85509306 4200477
0.095682055 0.14875221 0.85486555 1710097
0.1255556 0.14888422 0.85230285 2566435
0.13516268 0.14343688 0.85438913 8273487
0.089284644 0.15510765 0.85676736 1513747
0.09449739 0.1549172 0.85473484 1513747
0.10113749 0.15807462 0.85182595 1645076
0.11968157 0.15111512 0.85180217 2106140
0.12683193 0.15366678 0.85309678 4474949
0.13133168 0.15596293 0.85723633 4606538
0.09500815 0.16196135 0.85466439 1513746
0.10100268 0.1624946 0.85069054 1710869
0.13219482 0.16133916 0.85274684 4606796
0.077769428 0.088472739 0.86268628 9409160
0.077870518 0.095005877 0.86567676 9212039
0.079043016 0.10504462 0.86373478 8225402
0.079423331 0.11499731 0.86789066 8685184
0.081327334 0.11552371 0.86302888 8817797
0.079549834 0.12109175 0.86927301 5789008
0.082185671 0.12542945 0.86384809 7499626
0.13979186 0.12703429 0.86143607 10066074
0.072408266 0.13520542 0.86874723 9013892
0.082643621 0.13484389 0.86455792 7893102
0.077221788 0.14482191 0.86969948 9538445
0.083809331 0.14461631 0.86443174 3874595
0.087242566 0.15435949 0.86347008 2105885
0.092793949 0.15030761 0.86045122 1579283
0.13407175 0.15533042 0.86233842 5593176
0.088484079 0.1615281 0.86410296 1513747
0.13758895 0.16236976 0.862324 6909296
0.077372223 0.10122707 0.87139368 7238508
0.07981351 0.12505408 0.87215424 7696493
0.080110237 0.12909254 0.87539673 9013893
0.080837607 0.13453972 0.87470686 8619905
0.082510591 0.14818512 0.87558532 10525853
0.08538267 0.15395251 0.87450415 2368802
0.085998565 0.16113129 0.87472183 2434598
0.13898157 0.16164246 0.87105215 0
0.084674418 0.084813446 0.88573509 16120566
0.13447048 0.085052729 0.88823402 12501430
0.088391744 0.084065855 0.89492911 15396588
0.095453084 0.084610924 0.89640468 14475739
0.1064731 0.084646635 0.8967635 13357769
0.11493987 0.083370268 0.89617479 13028803
0.12468536 0.083364129 0.89609504 12699323
0.13304725 0.083602212 0.89493632 12633015
0.11483319 0.079271741 0.90503484 13159878
0.12338237 0.079216011 0.90439856 12501948
0.096127339 0.081530355 0.90276897 14738913
0.10472693 0.082756512 0.90275741 13489099
0.13387604 0.081325151 0.90049672 12238260
