# .PCD v0.7 - Point Cloud Data file format
VERSION 0.7
FIELDS x y z rgba
SIZE 4 4 4 4
TYPE F F F U
COUNT 1 1 1 1
WIDTH 128
HEIGHT 1
VIEWPOINT 0 0 0 1 0 0 0
POINTS 128
DATA ascii
0.09732601 0.088430509 0.82922989 10660510
0.10510447 0.088329978 0.82828712 10857891
0.11422655 0.088408872 0.82902706 11778481
0.09854456 0.093029238 0.82998711 10726302
0.10517902 0.094596036 0.82886982 10726305
0.11381638 0.093407594 0.82933789 10923429
0.10748641 0.10197736 0.82927275 10791843
0.11286825 0.10420193 0.82900602 10989223
0.085604005 0.089157932 0.83605099 10330259
0.095209591 0.088140592 0.83365023 9936017
0.10637729 0.087117694 0.83831495 8949638
0.11585303 0.087188452 0.83536994 10067864
0.12515612 0.087821871 0.83418596 12567488
0.13223051 0.088633142 0.83826554 14409439
0.086920261 0.094617195 0.83675039 10133650
0.094533116 0.094736576 0.83213294 10397338
0.10512426 0.095080405 0.83099306 10726049
0.11568633 0.095033459 0.8307941 11252139
0.12512229 0.094607808 0.8339411 12567489
0.13156264 0.09478467 0.83886409 14146268
0.087695695 0.10677232 0.83857852 9607569
0.094565295 0.10492715 0.83478552 10068120
0.10465201 0.10578566 0.83207285 8949639
0.11597878 0.10492554 0.83250201 10857381
0.12518106 0.10478181 0.83553958 13094091
0.13231498 0.10238786 0.83880341 14343903
0.087054893 0.11459236 0.83900535 9607569
0.094890989 0.11507979 0.83555335 9607824
0.10492974 0.11500657 0.83324063 9805204
0.11511894 0.1149518 0.8337608 11712947
0.12496637 0.11468853 0.83616054 13357263
0.095264323 0.12436946 0.83648467 10002840
0.10504385 0.12487091 0.83476204 9344654
0.11411057 0.12504379 0.83560055 8883847
0.12427883 0.12403302 0.83849323 11709615
0.096238844 0.13484168 0.83788002 9342856
0.10468441 0.13515408 0.83593667 10264215
0.11539552 0.13531846 0.83672196 11052707
0.12307482 0.13507558 0.83858532 12037553
0.096512444 0.14305897 0.8375982 6362401
0.10521882 0.1433659 0.83633751 6364199
0.1148935 0.14367828 0.83661431 6561068
0.12249727 0.14318982 0.83931929 7871027
0.10526004 0.1556026 0.83849365 3422257
0.11379451 0.15590683 0.83877981 4212543
0.11483353 0.16206023 0.83818233 3488564
0.12023722 0.16378291 0.83949488 4408641
0.079593278 0.088921219 0.84462738 9409413
0.08514674 0.087574229 0.84270805 8817278
0.09415666 0.087424584 0.84126794 8620159
0.10203081 0.087302379 0.84009206 8949893
0.12785289 0.085465983 0.84453976 13619917
0.13524339 0.086403213 0.84473413 14079959
0.079290248 0.094854333 0.84631187 9541514
0.082903579 0.095308714 0.84157491 9870477
0.13568082 0.095355339 0.84458268 13948631
0.079909682 0.10312445 0.84798509 9212296
0.084188811 0.10420817 0.84273231 9475468
0.13501289 0.10526392 0.84434009 14869735
0.08470948 0.11499752 0.84458852 9278604
0.090655737 0.11938884 0.84062415 9804948
0.12953375 0.11708649 0.84051406 14473693
0.133477 0.1148384 0.84454316 14606305
0.086679317 0.12495156 0.84447491 9410190
0.090673015 0.12627885 0.84078443 9739668
0.12631696 0.12694141 0.8408531 12958656
0.13391364 0.12522164 0.84568214 13680328
0.087435298 0.13479823 0.84639293 9409163
0.091231279 0.13512298 0.84171546 10133142
0.12740061 0.1344052 0.8415305 14080217
0.13195944 0.13588439 0.84768701 15064548
0.087305941 0.14288297 0.84620214 5379872
0.094085105 0.14559673 0.84266108 3414554
0.10460135 0.14878754 0.84236544 1973270
0.11426746 0.14902993 0.84262639 2170393
0.12516412 0.14558649 0.84361249 5516083
0.13126345 0.14267498 0.84574842 9320786
0.089149043 0.15506686 0.84805602 1382417
0.095321886 0.15553494 0.84711349 1579540
0.1038521 0.15405458 0.8425253 1842968
0.11567795 0.15329194 0.84194082 2764070
0.12417047 0.15548134 0.8448357 4145983
0.095811874 0.1630009 0.84581548 1448210
0.10503966 0.16181906 0.84182745 1909275
0.11502904 0.16205269 0.84039736 2172703
0.12375784 0.16228692 0.84479469 3619641
0.077466823 0.08807157 0.85499334 9014402
0.083080888 0.086716257 0.85689443 8553852
0.12405681 0.086019613 0.85001045 12435641
0.077059977 0.094647817 0.85482258 9409417
0.077875972 0.10439752 0.85523933 9014661
0.080210619 0.108145 0.85117853 9080455
0.13796395 0.10917523 0.85017198 15395823
0.078470729 0.11594994 0.85748118 8817283
0.080373563 0.11532995 0.85290766 8883589
0.13847555 0.1142256 0.85332459 15263978
0.068027824 0.12423001 0.85824561 4408641
0.082238153 0.12481117 0.85424095 8883590
0.083644703 0.1348363 0.85475802 8618877
0.13622855 0.13520697 0.85379785 15592175
0.08484593 0.14542833 0.85415345 3283484
0.13463975 0.14465384 0.85476005 5191743
0.088466182 0.15486796 0.85422862 1382417
0.091863409 0.15227786 0.85182261 1514003
0.12850474 0.1522674 0.8539297 3816505
0.13181448 0.15638897 0.85531324 4738383
0.088834286 0.16121393 0.85618556 1316624
0.090944484 0.16315079 0.85412586 1382417
0.12873513 0.16242947 0.85034955 2304297
0.13143031 0.16058031 0.8528204 5396314
0.075042486 0.088098288 0.86280906 9014405
0.074966438 0.096544035 0.86555302 9014404
0.075776629 0.10484125 0.86405486 8817026
0.067046031 0.11988614 0.86061841 0
0.076677896 0.11442849 0.86357397 8488061
0.06829977 0.1223724 0.86164653 9145478
0.077418625 0.12510733 0.86434233 7435374
0.081105672 0.12692182 0.86067665 8751747
0.077491097 0.13500188 0.86744022 6973283
0.081243426 0.13574335 0.86213845 8947329
0.079540491 0.14355169 0.8691709 6049877
0.081481501 0.14516547 0.86466485 3479327
0.085661627 0.15376931 0.86412489 1645077
0.086263627 0.16177295 0.86542118 1645078
0.077485055 0.12750548 0.87266445 9013892
0.077705137 0.13263091 0.87514317 9079942
0.080048181 0.14803843 0.87471861 11251632
0.083420083 0.15659747 0.8726595 1842973
