# .PCD v0.7 - Point Cloud Data file format
VERSION 0.7
FIELDS x y z rgba
SIZE 4 4 4 4
TYPE F F F U
COUNT 1 1 1 1
WIDTH 145
HEIGHT 1
VIEWPOINT 0 0 0 1 0 0 0
POINTS 145
DATA ascii
0.084783405 0.08829926 0.82799911 11713201
0.095066331 0.087766074 0.82723343 12370875
0.10056451 0.088301376 0.82801896 13357771
0.07810729 0.092902727 0.82885838 11318441
0.085371591 0.095654622 0.82880914 11581358
0.09436772 0.094063267 0.82839531 12370875
0.10063455 0.095128074 0.82859564 13160392
0.086571567 0.10447279 0.82891572 10462878
0.094533719 0.10449232 0.82876068 11581103
0.087215304 0.11331555 0.82966077 11647152
0.097355351 0.11103344 0.82948124 12962756
0.10079383 0.11109045 0.82990712 13094599
0.095094033 0.12005915 0.82944846 12173754
0.06872423 0.089393273 0.83825791 10133654
0.076000236 0.088247299 0.83463758 10462877
0.085333362 0.086604312 0.83337468 9870741
0.094882205 0.086345494 0.83088422 11383724
0.1050194 0.086467825 0.83410978 12633792
0.11356833 0.086800419 0.83747017 14278109
0.068545811 0.094912872 0.83807003 8554877
0.074870713 0.094580673 0.8330577 10528925
0.08430554 0.093103722 0.83065426 11581358
0.095926963 0.096283413 0.83078521 12502461
0.10498743 0.094272748 0.83242929 13686482
0.11295562 0.094875596 0.83630431 14541538
0.069083117 0.1045686 0.83798474 8883846
0.075444654 0.10469948 0.8348828 9673362
0.083766215 0.10575285 0.8316623 10331292
0.09606652 0.10514951 0.8316406 10791587
0.10460589 0.10473557 0.83325762 13554895
0.11205917 0.10446852 0.83717746 14344158
0.075625867 0.11484576 0.83641857 10331548
0.084902197 0.1148378 0.83159161 11383980
0.095063426 0.11525292 0.83199918 11712946
0.10485014 0.11518646 0.83339733 13489104
0.11262726 0.11472493 0.83694929 14541539
0.076232433 0.12393163 0.83757657 9404800
0.085322395 0.12514825 0.83326393 10130063
0.095365003 0.12543328 0.83180463 12370363
0.10465505 0.12520559 0.83365101 13489104
0.11223712 0.1237632 0.83732265 14541539
0.076857321 0.13462099 0.83794641 9540235
0.085412957 0.1354966 0.83414364 11251111
0.095476493 0.13527377 0.83277702 11974321
0.1047333 0.13551892 0.83428323 12366260
0.11192663 0.13484271 0.83713961 14074314
0.077174462 0.1432537 0.83835739 6231329
0.084066145 0.14339994 0.83653545 6626603
0.094934568 0.14482205 0.83588755 5775916
0.10443765 0.14443389 0.83683258 6497075
0.11175492 0.14270407 0.83870447 9845332
0.085531667 0.15629959 0.83714628 2699048
0.094738193 0.15594216 0.83625668 3093292
0.10500014 0.15654033 0.83945513 2632484
0.085137896 0.16263881 0.83780199 2172703
0.094291963 0.16211966 0.8368029 2040604
0.10267387 0.16180646 0.83912086 2106397
0.066535994 0.088498734 0.84424686 9277833
0.072422415 0.087444752 0.84146214 8949125
0.097623788 0.085162908 0.84154499 10791330
0.11821298 0.088578269 0.84134978 15199212
0.12113647 0.08558663 0.84577346 15001833
0.065035619 0.095252469 0.84372234 9541774
0.11823078 0.095461026 0.84147656 15199213
0.12098251 0.094676889 0.84469843 15659251
0.065307103 0.10474364 0.8442632 9081481
0.11695842 0.10505159 0.84260166 15002090
0.12132815 0.10301811 0.8471117 15658993
0.067272924 0.11432167 0.84665602 9212555
0.070921421 0.11580135 0.84305674 9804691
0.11744193 0.1144586 0.84285128 15199213
0.12163846 0.11599496 0.84927833 15593972
0.068341672 0.12499889 0.84763616 8549235
0.072490834 0.12624644 0.84228379 8813433
0.11731897 0.12574233 0.84404129 15199471
0.068408482 0.13204879 0.84846467 9081225
0.072360143 0.13540082 0.84345531 9804434
0.11737408 0.13472584 0.84352708 15524329
0.063618518 0.1478155 0.84618485 8289916
0.074131981 0.14478211 0.84437424 4069403
0.085768268 0.14849466 0.84133023 1973269
0.090624414 0.1467934 0.8403337 2104085
0.10842183 0.1486783 0.84237182 3026473
0.11627259 0.14471079 0.8455292 7093065
0.076852195 0.15503615 0.84522671 1909018
0.08399716 0.15294391 0.84272182 2040347
0.095297717 0.15152524 0.8412084 2040347
0.10587449 0.15479022 0.84267896 2698021
0.11286342 0.15560763 0.84629703 3356210
0.077334084 0.16189066 0.84514439 2238240
0.081556089 0.16067444 0.84116167 1580310
0.10743252 0.16193974 0.8429842 2764584
0.11360142 0.16269389 0.8445223 3554102
0.059825946 0.089147873 0.85785085 9212552
0.065143682 0.087363802 0.85411799 8751489
0.071364269 0.086648151 0.85622144 9343884
0.11732788 0.083857685 0.85154951 15265001
0.12438341 0.087408274 0.85224825 8026748
0.059804227 0.093783721 0.85753942 9541260
0.061763398 0.094379321 0.85236686 9015173
0.12445749 0.094420142 0.8527559 12040379
0.059915271 0.10564917 0.85913169 8028024
0.061804194 0.10488876 0.85292989 8488831
0.12175885 0.10801145 0.85011888 15462386
0.059854262 0.11021345 0.85825688 5856341
0.063497126 0.11573625 0.85495651 8817283
0.12186813 0.11158225 0.85088187 15659765
0.064993255 0.12441884 0.85422879 7631982
0.12200621 0.12446295 0.85184592 15659509
0.059723105 0.1379417 0.85637623 0
0.066783167 0.13471146 0.8539719 8685183
0.12218718 0.13393201 0.85310948 16118520
0.067640595 0.14411823 0.8554967 4201505
0.072195619 0.14888506 0.85230768 1644819
0.072957687 0.1547876 0.8544926 1843226
0.11700114 0.15436088 0.85479134 3750970
0.073466137 0.16227952 0.85363185 1975067
0.11758053 0.16184568 0.85337949 1974559
0.055896182 0.085744187 0.86476785 7171944
0.06120526 0.087115273 0.86083734 8488318
0.05662759 0.094282761 0.86457187 3355950
0.058958985 0.10134345 0.86228764 4145722
0.060102336 0.10597645 0.86181402 7896181
0.060315479 0.1145931 0.86487031 3487793
0.062601998 0.12740578 0.86393994 8422268
0.063006818 0.13606122 0.86418641 7171945
0.063964158 0.1458579 0.8664667 7367014
0.068648808 0.15443589 0.86610764 2434341
0.070030481 0.154092 0.86858219 1645338
0.069797263 0.16182441 0.86568958 2830126
0.055039864 0.085517108 0.87450629 5394764
0.063837402 0.085633636 0.87444448 12961988
0.053761065 0.093113035 0.87317753 2237210
0.058523633 0.14303763 0.87325746 2237726
0.062314223 0.14554243 0.8740204 3092524
0.059292015 0.082308553 0.88472283 657668
0.065350071 0.084164634 0.8852675 14935779
0.075245932 0.085053839 0.88824558 15265256
0.097011723 0.085064545 0.8883574 13752269
0.10048634 0.084935367 0.88700837 13686476
0.067109875 0.083041035 0.89259619 16580349
0.075192474 0.082108952 0.89378673 12699073
0.084970735 0.084705971 0.89311856 14541788
0.094719388 0.083281614 0.89523482 13949650
0.10501184 0.083240211 0.89473712 13291718
